# .PCD v0.7 - Point Cloud Data file format
VERSION 0.7
FIELDS x y z intensity
SIZE 4 4 4 4
TYPE F F F F
COUNT 1 1 1 1
WIDTH 1358
HEIGHT 1
VIEWPOINT 0 0 0 1 0 0 0
POINTS 1358
DATA ascii
3.1010828 -0.34920096 -0.68018222 5
3.0990489 -0.3172127 -0.68228281 6
3.1618955 -0.30133387 0.58470994 6
3.1631498 -0.30797869 0.83090782 6
3.1083584 -0.32313612 -0.80758667 6
3.0868011 -0.34511709 -1.1905445 6
3.1056507 -0.28482389 -0.67673051 7
3.1609387 -0.26979378 0.58514309 7
5.3279724 -0.32723325 -2.2549722 7
3.1596446 -0.26982534 0.83520252 7
3.1047587 -0.28832513 -0.81178027 7
3.0786028 -0.30398008 -1.3625726 7
3.0970352 -0.29398677 -1.0169781 7
5.3965092 -0.29711246 -1.0381972 7
5.4310217 -0.27476853 0.47071779 7
5.4763765 -0.27116355 1.4950942 7
3.1058457 -0.2530579 -0.67685324 8
3.1545124 -0.23802084 0.59127241 8
4.3732305 -0.24247722 -2.976604 8
5.0788221 -0.1125578 4.4238558 8
3.164248 -0.23446146 0.72675002 8
3.0935252 -0.25306478 -1.1129789 8
3.1725032 -0.2278111 0.9665333 8
5.3988509 -0.22353287 -0.0664922 8
5.3926349 -0.22614548 -0.27462593 8
5.4734612 -0.205681 0.85914803 8
5.4064741 -0.22934885 -0.67203581 8
5.3390713 -0.23398206 -1.9139311 8
5.4674087 -0.19330257 1.3989733 8
5.4816909 -0.18573748 1.6898466 8
5.4502935 -0.21568951 0.37257758 8
3.0951145 -0.25314376 -0.80135536 8
3.1005352 -0.22098827 -0.68185949 9
3.1567295 -0.20630985 0.58839482 9
3.9926944 -0.14244185 -2.9989829 9
5.0803256 0.051407635 4.42945 9
3.1776114 -0.17239106 1.1919143 9
3.0930562 -0.20937258 -1.1139697 9
5.419559 -0.16822231 -0.67780066 9
5.5111971 -0.051993728 2.558269 9
5.3679218 -0.16610637 -1.1181325 9
3.1640904 -0.19031318 0.88428587 9
5.4239836 -0.15428394 0.46698558 9
3.0766594 -0.20104957 -1.3666414 9
5.3725085 -0.16909212 -0.87728149 9
5.4542756 -0.12877741 1.1148815 9
5.4812021 -0.10034779 1.6886034 9
5.3464971 -0.14923701 -1.924314 9
3.094156 -0.18897834 -0.67035902 10
3.1508784 -0.17362659 0.59390837 10
3.9928086 -0.038973391 -3.0084946 10
5.0819216 0.21657479 4.4353676 10
3.091116 -0.16123044 -1.1847773 10
3.1690247 -0.1429788 0.97063375 10
5.3219466 -0.043414459 -2.3195472 10
5.3363914 -0.062570319 -1.9683205 10
5.4634523 -0.03740792 1.3940573 10
5.3527808 -0.078617364 -1.638225 10
3.099792 -0.15758686 -0.66579974 11
3.9919584 0.064195484 -3.004328 11
5.0791059 0.38116124 4.4259443 11
3.1718307 -0.10107908 0.96503758 11
3.0948162 -0.12973499 -1.0211905 11
3.1634021 -0.12808852 0.72581637 11
5.4562998 -0.033438101 0.37197927 11
3.1785553 -0.074296057 1.1877559 11
5.506525 0.15036848 2.392837 11
5.326273 0.053559393 -2.3277867 11
5.3454785 0.0052653849 -1.7242899 11
5.38449 -0.050140679 -0.66654986 11
5.3930449 -0.034059733 -1.0403025 11
5.4532032 0.0039238632 0.97445023 11
5.4614286 0.022851527 1.1922218 11
3.0982611 -0.12507711 -0.66742426 12
3.1517179 -0.10882519 0.59187484 12
3.9917579 0.16922179 -3.0095024 12
4.3716164 0.17521909 -2.9833524 12
5.0758533 0.54636705 4.4150081 12
5.4652319 0.13146654 1.481104 12
3.0908103 -0.1108835 -0.80710483 12
5.3994813 0.003271699 -0.27866268 12
5.3698783 0.03535831 -1.1226881 12
5.4549956 0.088454098 1.113204 12
5.3217802 0.16675153 -2.4675391 12
5.4713674 0.065551341 0.85506797 12
5.3860011 0.010859489 -0.66801929 12
5.3426476 0.11264291 -1.9792367 12
3.1652479 -0.070243388 0.8801055 12
5.3990998 0.0062651038 -0.47017151 12
3.1539874 -0.073585272 0.60801929 13
3.9916396 0.27591464 -3.0159707 13
5.0773659 0.71637905 4.4206438 13
5.5025487 0.36463192 2.3856683 13
5.3919868 0.072210491 -0.64510667 13
5.36412 0.10248217 -1.1199669 13
3.1053679 -0.075759798 -0.81290972 13
5.3921685 0.064723998 -0.46930808 13
5.3285599 0.23999739 -2.2668989 13
5.3760748 0.084456474 -0.88302344 13
5.3492928 0.16903681 -1.7312633 13
5.4714441 0.21572948 1.486086 13
3.1509614 -0.038775504 0.61063737 14
3.9902368 0.38041827 -3.004081 14
3.100517 -0.060032859 -0.66609299 14
5.0774784 0.88805735 4.4214187 14
3.1547074 0.0046240687 0.83691519 14
3.1678667 0.03792873 1.0035775 14
5.4345069 0.17460033 0.65672582 14
5.4631767 0.25063077 1.1912904 14
5.4281359 0.15048376 0.41307473 14
5.3894324 0.13385537 -0.64511406 14
5.32057 0.37259629 -2.4698083 14
5.3500214 0.2384091 -1.6410782 14
3.1028843 -0.024555147 -0.68160284 15
5.077424 1.0625919 4.4216194 15
3.1708157 0.082147866 0.99751556 15
5.4172344 0.21098298 0.40911394 15
5.4658146 0.32966384 1.1925007 15
5.4411869 0.24363926 0.65891272 15
5.3202453 0.44768915 -2.3267612 15
5.3897576 0.19715223 -0.64616781 15
5.5158439 0.62979662 2.5609503 15
5.4055934 0.18263322 -0.0718491 15
5.4532661 0.29019842 0.97149873 15
3.1711779 -0.3039645 0.60657549 6
3.1750433 -0.27216831 0.60191894 7
5.3298936 -0.32833099 -2.192204 7
3.0872371 -0.2978723 -1.0488684 7
5.4512095 -0.27554274 0.78458118 7
5.372016 -0.30280307 -1.1802071 7
3.1583555 -0.2405951 0.60005331 8
5.1131053 -0.11503294 4.4293437 8
3.0916448 -0.25568709 -0.8839193 8
5.4222288 -0.22168277 0.22030433 8
5.324585 -0.23667704 -2.1237464 8
5.5085917 -0.18076867 1.9762686 8
3.1797094 -0.23251887 0.90128291 8
5.4138031 -0.23188874 -0.6694026 8
5.4632149 -0.20386115 1.0810581 8
5.3167706 -0.23611838 -2.6114237 8
5.352725 -0.23617287 -1.502443 8
5.4365735 -0.21886933 0.37060907 8
3.1050487 -0.22404039 -0.65062386 9
3.157948 -0.20868021 0.5999037 9
3.986867 -0.14521654 -2.9840946 9
5.1114955 0.048207641 4.42418 9
3.0969141 -0.21836863 -0.87802196 9
3.1877143 -0.19372813 0.88805985 9
3.0747969 -0.20040676 -1.4500564 9
3.1637354 -0.20020588 0.76233912 9
5.3338017 -0.15109682 -1.9616914 9
5.321312 -0.13909659 -2.3882525 9
5.421031 -0.17128402 -0.37002006 9
5.4511652 -0.14667158 0.75350326 9
5.5020638 -0.099909812 1.7473766 9
3.1572475 -0.17658234 0.60005164 10
3.1035068 -0.19228855 -0.65224534 10
3.9871602 -0.041694939 -2.9966505 10
5.1165986 0.21424487 4.4418392 10
3.0859911 -0.17551653 -0.96692061 10
3.1831834 -0.15362421 0.89429355 10
5.3080282 -0.029195055 -2.6010883 10
5.510397 0.0059634745 1.9769217 10
5.3765221 -0.10654376 -0.96287543 10
5.3645449 -0.097494185 -1.2474343 10
5.4680653 -0.057091251 1.1545259 10
5.4619188 -0.092374995 0.50599974 10
5.4511847 -0.081846416 0.75279582 10
5.4259968 -0.10788201 0.12403829 10
5.4891176 -0.035476312 1.4499567 10
3.1068718 -0.16092846 -0.64965522 11
3.1672449 -0.14621121 0.58924019 11
3.9863768 0.061486036 -2.9932051 11
5.112205 0.37814271 4.4272118 11
3.1858194 -0.11782135 0.86046791 11
5.414115 -0.049227759 -0.67224395 11
5.4283094 -0.053575814 -0.37306303 11
5.5176873 0.12204748 2.1724138 11
5.437067 -0.036186084 0.44489893 11
3.0813656 -0.12710238 -1.0583054 11
5.3724117 -0.042704418 -0.96154559 11
4.3136749 0.36163402 4.477757 11
3.1027472 -0.12817976 -0.65350056 12
3.162113 -0.11302599 0.59392112 12
3.9854851 0.16498575 -2.988179 12
5.1115785 0.54485071 4.4253964 12
3.1006656 -0.11085686 -0.82911378 12
3.1876373 -0.079272225 0.85696095 12
5.4288039 0.0194287 0.36570281 12
5.4021554 5.1081181e-05 -0.20408507 12
5.4510527 0.051681101 0.78090799 12
5.4951544 0.1621806 1.7378379 12
5.4674292 0.089621216 1.1525949 12
5.3288479 0.13427177 -2.1997325 12
5.4287405 0.012602776 0.21849464 12
3.1628087 -0.08064647 0.59262991 13
3.9863234 0.27391857 -3.0092514 13
5.1121149 0.71430862 4.4275355 13
3.0842862 -0.052876174 -0.97003227 13
5.3556347 0.14607143 -1.5538615 13
5.4623718 0.15399063 1.0768305 13
5.5071712 0.29015011 1.9708332 13
5.3305264 0.22055918 -2.1405306 13
5.4825864 0.20577624 1.4419059 13
3.1633635 -0.047861651 0.59147573 14
3.9856112 0.38067079 -3.0071456 14
5.1060181 0.88063872 4.4071245 14
3.0885682 -0.012640059 -0.96483916 14
3.0696273 0.079793125 -1.4613767 14
5.3535876 0.22437066 -1.5532839 14
5.2938948 0.43904138 -2.851526 14
5.3324203 0.28585553 -1.9681705 14
5.4593344 0.16005054 0.50216222 14
5.314744 0.35602093 -2.3881762 14
5.3615832 0.18449676 -1.2498828 14
5.3747406 0.14624789 -0.87786257 14
5.5088611 0.38806665 1.972056 14
4.3074021 0.8468287 4.4355674 14
3.166034 0.020761132 0.75516385 15
5.1087456 1.0571982 4.4167275 15
3.1044796 0.00013840199 -0.82580209 15
5.3525472 0.29698557 -1.5115298 15
5.4140882 0.1807133 -0.20759994 15
5.3122473 0.45800614 -2.386421 15
5.4386568 0.21445361 0.44241145 15
5.4132252 0.20255238 -0.6756646 15
5.298749 0.55924112 -2.8630714 15
5.5156102 0.53167814 2.1666598 15
5.4267941 0.18946481 0.12034009 15
5.3770065 0.21305779 -0.88006222 15
5.4829259 0.3727262 1.4406581 15
5.3661299 0.24901551 -1.1850798 15
5.4977083 0.43524516 1.7382045 15
3.1136227 -0.35334554 -0.64760703 5
3.1694341 -0.3069618 0.626432 6
3.1059806 -0.3221359 -0.65459126 6
3.1696095 -0.2748504 0.62567145 7
3.1175704 -0.28959069 -0.64474565 7
5.3334193 -0.33096603 -2.1852195 7
5.5191708 -0.27617115 1.9346873 7
3.1884131 -0.27472913 0.97176772 7
5.4467039 -0.27932149 0.56489486 7
5.4335318 -0.2822198 0.20868307 7
5.412775 -0.29747596 -0.79195124 7
5.4888453 -0.27648926 1.3320115 7
5.4050426 -0.29011643 -0.40177649 7
5.5023489 -0.27619308 1.6053327 7
3.1759717 -0.2430262 0.61838967 8
3.1143789 -0.25806755 -0.64783502 8
5.1172614 -0.11780384 4.4342842 8
3.1904624 -0.23352271 0.96753222 8
3.1804755 -0.23987302 0.7374748 8
5.2967949 -0.23826468 -2.9314048 8
5.4142909 -0.23537359 -0.79360133 8
5.5154414 -0.18330802 1.987689 8
3.0953984 -0.25812376 -0.99812204 8
5.3426967 -0.23912047 -1.903587 8
5.3647432 -0.23847738 -1.4191767 8
5.3759084 -0.23781951 -1.205549 8
3.1778197 -0.21143679 0.61587363 9
3.1114054 -0.22623429 -0.65073681 9
3.9861064 -0.14723334 -2.9846981 9
5.1206355 0.046322644 4.4460611 9
3.0973356 -0.21533948 -1.054674 9
3.0816932 -0.20482025 -1.3786976 9
3.1843958 -0.20287663 0.77891266 9
5.3964224 -0.17563325 -0.40149379 9
5.309752 -0.13542783 -2.5914273 9
5.48277 -0.12475017 1.3256028 9
5.4463773 -0.15822491 0.51024717 9
5.3524418 -0.16164652 -1.620049 9
5.5306168 -0.0749138 2.2606828 9
5.4175839 -0.17359778 -0.21542361 9
3.9851716 -0.044647157 -2.9786346 10
3.103781 -0.1927641 -0.67544186 10
5.1196055 0.21048471 4.4428668 10
3.0983031 -0.17596772 -0.99478889 10
5.4459362 -0.097241759 0.50938219 10
5.3268709 -0.05545406 -2.1814508 10
5.4770722 -0.057012111 1.2043501 10
5.4113841 -0.11703567 -0.21555363 10
3.1803796 -0.1662575 0.78355861 10
5.5118246 -0.0065080225 1.8679676 10
5.4186702 -0.11472116 -0.029932369 10
3.1659417 -0.14743985 0.60838729 11
3.1180348 -0.16319606 -0.64552021 11
3.9849343 0.059246629 -2.9834943 11
5.1138911 0.37330633 4.4237461 11
3.0926595 -0.12843223 -1.0619855 11
3.0807981 -0.098594859 -1.3808889 11
3.1896672 -0.10924403 0.96628827 11
5.2940989 0.10368827 -2.9336708 11
5.4740467 0.016418546 1.2013661 11
5.5140676 0.096798599 1.983829 11
5.4166965 -0.057748705 -0.030705284 11
5.3184323 0.060290813 -2.4509249 11
5.3414764 0.015171349 -1.9068458 11
5.4888225 -0.0059858561 0.90174669 11
5.4368448 -0.04972665 0.20627993 11
5.5010414 0.056201607 1.6010969 11
3.168705 -0.11576454 0.6049912 12
3.1040726 -0.12681133 -0.67578799 12
3.9843502 0.16349986 -2.9830024 12
5.1166081 0.54145449 4.4332962 12
5.4161143 0.00018584728 -0.0082734264 12
5.4879222 0.057366639 0.83786535 12
5.4468055 0.029766738 0.56134868 12
3.1055045 -0.093682349 -0.6748035 13
3.9836431 0.26844305 -2.9806638 13
3.1661692 -0.079612464 0.62580079 13
5.1144662 0.70874369 4.4263277 13
3.1812263 -0.064202204 0.73322761 13
3.1922321 -0.025929764 0.96033317 13
5.4070125 0.056312263 -0.032314938 13
5.3728971 0.081683338 -0.92132378 13
5.4048228 0.055637449 -0.26396787 13
5.316617 0.26335657 -2.4521751 13
5.4431162 0.088180333 0.50625336 13
5.5374026 0.36200577 2.4102905 13
5.3600011 0.12912929 -1.4213223 13
5.4922128 0.19781676 1.4128753 13
5.4249582 0.062681556 -0.41120985 13
5.3740916 0.10837886 -1.2099285 13
5.4828568 0.12495309 0.83447045 13
3.9830146 0.37484503 -2.97966 14
3.0993457 -0.040544525 -0.79850686 14
5.1196775 0.88438153 4.4443693 14
3.1817687 -0.028228953 0.73187041 14
3.0980196 0.0023283064 -1.0551838 14
5.3993845 0.11358166 -0.2640456 14
5.3200235 0.31866533 -2.1791813 14
5.4333019 0.12883469 0.20348935 14
5.4824362 0.26319301 1.3215998 14
5.5368471 0.47197342 2.4087396 14
5.5117207 0.3728897 1.9208411 14
5.3137608 0.39514142 -2.609154 14
5.3521528 0.23329341 -1.6267599 14
5.5008755 0.312711 1.5986447 14
5.4836297 0.20238075 0.89659125 14
3.1676707 -0.016392902 0.60428327 15
3.0977597 -0.0022055209 -0.80052996 15
5.1135912 1.0530515 4.423995 15
5.3738708 0.2145907 -0.9239468 15
5.4165478 0.1778723 -0.010594886 15
5.4305348 0.18701929 -0.41421491 15
5.3229241 0.41708982 -2.1851349 15
5.5280561 0.5467881 2.252723 15
5.48422 0.35980982 1.4044515 15
5.3113499 0.50429773 -2.607362 15
5.5098262 0.45715994 1.8618985 15
5.4192781 0.17814085 -0.22041899 15
3.1798928 -0.30946696 0.6453709 6
3.1736097 -0.2773844 0.65148383 7
5.3315897 -0.33331543 -2.1688364 7
5.5399857 -0.27874377 2.0068946 7
3.2037778 -0.27697712 0.89361995 7
3.2128963 -0.27730256 1.1538969 7
3.1138241 -0.29829863 -0.86312151 7
5.4433289 -0.28381595 0.31455764 7
5.3455572 -0.32185668 -1.7369744 7
5.4356151 -0.29264066 -0.37333682 7
5.4697614 -0.28558424 0.17323731 7
5.3749056 -0.30772153 -1.1560383 7
5.3674049 -0.31269059 -1.3674477 7
3.1816535 -0.24571185 0.62351459 8
3.1157341 -0.26050177 -0.63794744 8
5.1406679 -0.12054594 4.4352407 8
3.2037637 -0.23852234 0.89287329 8
5.4482765 -0.22531882 0.31488302 8
5.3023825 -0.24096298 -2.8308692 8
5.5015388 -0.2019991 1.3798121 8
5.3449435 -0.24168283 -1.8923398 8
5.360528 -0.24135742 -1.5684265 8
5.4290113 -0.23396561 -0.30058998 8
5.3295531 -0.24155764 -2.3023696 8
3.1794763 -0.21394089 0.62520075 9
3.1154339 -0.22857758 -0.63850814 9
3.9879365 -0.14965713 -2.9734609 9
4.3663149 -0.14682516 -2.9394898 9
5.14709 0.043977737 4.4570322 9
3.1974773 -0.19765097 0.93111473 9
5.2914629 -0.13105687 -2.8128383 9
3.218415 -0.17432205 1.3279364 9
3.1082902 -0.22138318 -0.92051089 9
5.5080528 -0.11611362 1.557708 9
5.4743977 -0.14919665 0.83568782 9
5.3777628 -0.17272922 -1.1603007 9
5.3335109 -0.1497509 -2.1750965 9
5.4223804 -0.17684594 -0.3002919 9
5.4599185 -0.15974367 0.5465945 9
5.3526278 -0.16089945 -1.7477231 9
3.102675 -0.2252878 -0.76450545 9
3.1785846 -0.18202232 0.62555444 10
3.1134791 -0.19635604 -0.640517 10
3.9877496 -0.046120763 -2.9791956 10
4.3678732 -0.042306423 -2.9513252 10
5.1451774 0.20789623 4.4508934 10
3.098511 -0.16848481 -1.1454195 10
5.3535461 -0.089097738 -1.5642172 10
5.3450813 -0.075462073 -1.8423163 10
3.1052446 -0.18161079 -0.92468131 10
5.5098491 -0.034165606 1.5586427 10
5.536355 0.0061776042 2.0602975 10
5.4844332 -0.06705682 1.100801 10
5.462214 -0.091926366 0.68330431 10
5.3366327 -0.05703342 -2.1812711 10
5.4736481 -0.08167097 0.86511093 10
3.1116457 -0.16378644 -0.64242291 11
3.9861231 0.055810332 -2.9617686 11
5.1475744 0.37459585 4.4592018 11
3.0942221 -0.11460486 -1.2261685 11
3.111073 -0.14493817 -0.89215285 11
5.4692802 -0.017612621 0.83158702 11
5.3802571 -0.046679273 -0.97074348 11
3.1014125 -0.15407953 -0.76642942 11
5.5272288 0.093751162 1.9889086 11
5.4096003 -0.060418561 -0.49315554 11
5.4801316 -0.0017434061 1.028752 11
5.4620361 -0.03612949 0.54589236 11
4.345654 0.35629919 4.4999628 11
3.1843762 -0.11908519 0.61844069 12
3.1139987 -0.13159178 -0.64066893 12
3.9860044 0.16084456 -2.9687245 12
5.1419601 0.53866434 4.4406548 12
3.1974683 -0.077283055 0.9286986 12
3.111855 -0.10603485 -0.89149016 12
3.2109962 -0.044374347 1.1525278 12
5.5446434 0.23757425 2.3323252 12
5.4533587 0.0011300743 -0.11668319 12
5.4665542 0.0086133778 0.16910982 12
5.3648543 0.048267037 -1.3714162 12
5.3509755 0.083560437 -1.7503318 12
5.4807096 0.075833589 1.0968225 12
4.3456659 0.51998174 4.5040097 12
3.1836905 -0.086557284 0.61857021 13
3.9859381 0.26761404 -2.9766626 13
5.1432557 0.70841289 4.4452767 13
3.1126885 -0.070163801 -0.86628741 13
3.1974778 -0.036450744 0.9278596 13
3.2137141 0.0019879341 1.1461301 13
3.0950458 -0.016026556 -1.2253604 13
5.5483947 0.34479877 2.3366659 13
5.4952765 0.18673778 1.3708892 13
5.3816609 0.084888846 -0.97366548 13
5.3742533 0.10124651 -1.1622849 13
5.4816828 0.14069879 1.0282532 13
3.984889 0.37284848 -2.9687552 14
3.1767125 -0.047963634 0.64405936 14
5.1439919 0.88051426 4.4480267 14
3.1030984 -0.019299269 -0.92863971 14
3.0972695 0.019902796 -1.1485486 14
3.1945267 0.0062293708 0.93162072 14
3.219373 0.088362932 1.3195838 14
5.4368982 0.12134087 -0.37947091 14
5.3200316 0.33878502 -2.2997158 14
5.3429723 0.26463243 -1.8461157 14
5.5354433 0.39576176 2.0561321 14
5.3783646 0.17293066 -1.1664068 14
5.5239472 0.3303012 1.7125698 14
3.18118 -0.019465074 0.61997133 15
5.1412487 1.0523511 4.439117 15
5.4099293 0.18210301 -0.49676716 15
5.2982807 0.55316579 -2.8403063 15
5.4709253 0.25957838 0.85994411 15
5.4456615 0.17998195 -0.11870931 15
5.3414526 0.36238512 -1.8993601 15
5.5144205 0.41758493 1.7021072 15
5.4600472 0.23332784 0.67868698 15
5.3266811 0.44294813 -2.3116794 15
3.1819961 -0.34423748 0.65570325 5
3.1179552 -0.36047825 -0.6421383 5
3.1793513 -0.3121388 0.65793693 6
3.1287618 -0.32693875 -0.63278109 6
3.2263055 -0.33316725 1.3814764 6
3.1964388 -0.31788021 0.88989228 6
5.4706082 -0.34652761 0.6438008 6
3.1171899 -0.33378294 -0.75934893 6
3.1099863 -0.34496489 -0.96213996 6
3.1862223 -0.27975202 0.65005642 7
3.1254511 -0.29510635 -0.63603789 7
5.5407524 -0.28125852 2.0156548 7
3.1971064 -0.27962065 0.88815564 7
3.109437 -0.29877067 -0.76788551 7
3.1070309 -0.30663103 -1.0560969 7
3.2211065 -0.28005311 1.2868861 7
5.5104289 -0.28136313 1.4809829 7
5.3692751 -0.31614569 -1.3946069 7
5.4149961 -0.29558614 -0.40537316 7
5.4919958 -0.28205824 1.1171159 7
5.474597 -0.28329837 0.7870447 7
5.4229202 -0.29161534 -0.14626881 7
5.4512672 -0.29009429 -0.0072348975 7
3.1864462 -0.24788576 0.64924645 8
3.1212971 -0.26301003 -0.64005148 8
5.1463718 -0.12264735 4.460773 8
3.1943722 -0.24211457 0.86412537 8
3.1029615 -0.26306352 -0.81948978 8
3.1051927 -0.26295877 -1.0916264 8
5.4674377 -0.21959937 0.75378007 8
3.2210166 -0.22703862 1.3915541 8
5.3137045 -0.24389425 -2.5692058 8
5.4547386 -0.22653009 0.40122455 8
5.5059652 -0.20349145 1.4336951 8
5.5554895 -0.18054974 2.2876637 8
5.3460965 -0.24419251 -1.9921653 8
3.1107066 -0.23052639 -0.63205791 9
3.1843932 -0.21582192 0.65085256 9
3.9890668 -0.15181226 -2.9700286 9
5.1476521 0.041174114 4.4653406 9
3.199163 -0.20506993 0.85657549 9
3.1160777 -0.22774991 -0.76143402 9
3.091877 -0.21133295 -1.3023962 9
3.1031902 -0.21908872 -1.0623275 9
5.353941 -0.16815388 -1.5494497 9
3.2192683 -0.17993613 1.2886341 9
5.4431887 -0.17845586 -0.29196757 9
5.5368471 -0.091937229 2.0694394 9
5.4461288 -0.17071424 0.27554724 9
5.5166821 -0.11820264 1.5741371 9
5.3970323 -0.17371221 -1.1955907 9
5.3201313 -0.13993272 -2.5822566 9
3.1179852 -0.19877605 -0.62602913 10
3.1830363 -0.18354124 0.65171468 10
3.9877992 -0.049278617 -2.9580209 10
5.1448469 0.20463631 4.4561982 10
3.2234275 -0.120857 1.3832808 10
3.1019182 -0.1748936 -1.0644922 10
3.1078248 -0.19135809 -0.77051336 10
5.4895554 -0.1033437 0.43437505 10
5.3221426 -0.045173615 -2.4276059 10
5.4583807 -0.11727001 -0.0094648562 10
5.4492736 -0.11209357 0.27538761 10
5.554903 0.021991521 2.2853963 10
5.5145426 -0.064220682 1.1660086 10
5.467669 -0.095627978 0.66742718 10
3.1783643 -0.15031385 0.65608186 11
3.9864533 0.052799165 -2.9446862 11
3.1122272 -0.16560864 -0.6313448 11
5.1452813 0.37014586 4.4579291 11
3.1084561 -0.12894394 -1.0875534 11
5.5033479 0.035290599 1.4717854 11
5.4472346 -0.04874523 0.3971532 11
5.3667083 -0.024979353 -1.397336 11
5.3202105 0.054724157 -2.4265628 11
5.4441247 -0.061816871 -0.29375237 11
5.453557 -0.059691072 -0.010259811 11
5.4655247 -0.034204796 0.63819355 11
5.5506616 0.11577183 2.211868 11
3.1220121 -0.13617109 -0.60607499 12
3.179275 -0.1176807 0.65452856 12
3.9867043 0.15858883 -2.9579382 12
5.1451716 0.53704268 4.4578357 12
3.1125598 -0.11530727 -0.80990487 12
3.1079199 -0.097714737 -0.966712 12
5.4076886 -0.0065318942 -0.40774849 12
3.1912673 -0.097249359 0.81410134 12
5.3189144 0.1554656 -2.4265468 12
5.5131311 0.14016142 1.6623945 12
5.5463123 0.21550736 2.2055335 12
3.1847496 -0.086129174 0.64814633 13
3.9866836 0.2655943 -2.9668245 13
5.1492252 0.70900273 4.4717188 13
3.1083705 -0.076451868 -0.8149398 13
3.1938391 -0.060837433 0.80995315 13
3.2030511 -0.023326859 1.0280021 13
3.1055291 -0.046366677 -1.0289139 13
5.4596901 0.10232431 0.74657089 13
5.3858991 0.082464188 -0.96308684 13
5.4532003 0.059866428 0.082516104 13
5.4509153 0.057904899 0.01169401 13
5.5306225 0.28161669 1.9992326 13
5.4878035 0.14692062 1.109893 13
5.511816 0.19343778 1.434967 13
3.1820922 -0.051908582 0.65035576 14
3.9854417 0.370166 -2.9554126 14
3.1170201 -0.069621682 -0.6109215 14
5.1419191 0.8747378 4.4474816 14
3.1078174 -0.037832141 -0.81588012 14
3.191066 -0.0221176 0.81292993 14
3.0891986 0.050961405 -1.3085632 14
5.4253654 0.12033933 -0.48813319 14
5.4557762 0.12062633 0.081895843 14
5.4488688 0.11737758 0.010868598 14
5.4665909 0.17392933 0.77809918 14
3.10338 -0.00094568729 -1.0322899 14
5.436173 0.11549938 -0.294909 14
5.3209219 0.36217088 -2.4339299 14
5.5128031 0.23336673 1.1617787 14
5.5177517 0.31569254 1.6654146 14
5.5417724 0.39436686 2.071578 14
3.1066318 0.0016973317 -0.81754071 15
5.1423101 1.049186 4.4490819 15
5.419662 0.18115368 -0.48738101 15
5.5136876 0.38466626 1.5667691 15
5.448904 0.17826104 0.010069538 15
3.2004888 0.066908091 1.0305305 15
5.3974657 0.22117218 -0.97217071 15
5.3571444 0.30178642 -1.5609014 15
5.3376303 0.37913507 -1.993098 15
5.4748411 0.20675978 0.42665327 15
5.4661398 0.22812364 0.66310436 15
5.3990078 0.25290436 -1.2040983 15
3.1928287 -0.3458097 0.65848416 5
3.191503 -0.31403792 0.6593228 6
3.2217987 -0.33115068 1.2557691 6
5.3878374 -0.38535893 -1.2428141 6
3.1041594 -0.35737678 -1.1200693 6
5.425211 -0.35385841 -0.29829064 6
3.1879416 -0.3189486 0.83784568 6
3.187331 -0.28230676 0.66318685 7
5.3483953 -0.33714291 -2.0985785 7
5.5509391 -0.2838527 2.0359733 7
3.208622 -0.28216386 1.0063448 7
5.4983554 -0.2849941 1.0286393 7
5.3539877 -0.32575703 -1.6689864 7
5.3870282 -0.3099426 -1.0063287 7
3.19133 -0.28222567 0.83259618 7
5.3766146 -0.31980345 -1.4271067 7
3.1775165 -0.25050569 0.65394861 8
3.1188931 -0.26546225 -0.61586559 8
5.1508436 -0.12500143 4.4780517 8
3.0979769 -0.26511824 -1.2854098 8
3.210547 -0.24114622 1.0022907 8
3.1873841 -0.24565038 0.83718783 8
3.2196517 -0.23380524 1.2581241 8
5.4927382 -0.21616125 1.0244631 8
5.3737884 -0.24582393 -1.2341194 8
5.4288926 -0.24228019 -0.65263039 8
5.5417151 -0.18910767 2.0843198 8
5.5096588 -0.20494425 1.4887044 8
5.347424 -0.24677673 -1.9211599 8
5.4974117 -0.22132051 0.77803355 8
5.4474597 -0.23286347 0.19178075 8
5.4220128 -0.23954485 -0.2993167 8
3.1832736 -0.21899354 0.64744318 9
3.1157937 -0.23316802 -0.618864 9
3.9906299 -0.15549177 -2.9291286 9
5.1494412 0.038411617 4.4736156 9
3.1895394 -0.21309644 0.76269293 9
3.1182823 -0.22581993 -0.91729474 9
5.5063133 -0.12616882 1.4850188 9
5.4929523 -0.14856702 0.99102801 9
5.4321446 -0.18131284 -0.65484047 9
5.5549679 -0.078475684 2.3639944 9
5.426826 -0.18180394 -0.2298775 9
5.4398007 -0.17851755 0.026044216 9
5.3072119 -0.13510165 -2.811543 9
5.3619332 -0.17035297 -1.5427483 9
5.4491863 -0.17475379 0.21508691 9
5.3491249 -0.16097678 -1.9248884 9
5.3318892 -0.14912048 -2.3493941 9
3.1238232 -0.20233522 -0.59509158 10
3.1826508 -0.18709779 0.64751822 10
3.9915638 -0.051283762 -2.9533863 10
5.1541142 0.20441893 4.4895658 10
3.0950265 -0.1624741 -1.2912135 10
3.2021255 -0.17246214 0.8409884 10
3.1190596 -0.18593466 -0.91657943 10
5.4731493 -0.093755886 0.76528496 10
5.4943199 -0.077906355 1.0239831 10
5.3058329 -0.023927703 -2.8113537 10
5.5418477 0.0010218322 2.0829861 10
5.347065 -0.075109795 -1.9239324 10
5.4269648 -0.1246465 -0.23068741 10
5.3655419 -0.093483537 -1.5476719 10
5.4213667 -0.12441804 -0.42157832 10
5.4638553 -0.10472716 0.54147476 10
3.1271346 -0.17102091 -0.59259099 11
3.1747518 -0.15360816 0.65507841 11
3.9903641 0.051309675 -2.9425368 11
5.149786 0.36845642 4.4753137 11
3.2043953 -0.13614325 0.83714765 11
3.2164402 -0.10193449 1.1325072 11
5.5446997 0.11132398 2.2122741 11
5.442637 -0.05618532 0.30870518 11
5.4968309 -0.025604799 0.77557826 11
5.3904624 -0.04804799 -1.0127084 11
5.3812556 -0.035660893 -1.2434918 11
5.5049295 0.021053314 1.3577989 11
5.4923325 -0.0085277855 1.0220324 11
3.1227469 -0.1382795 -0.5966081 12
3.1846356 -0.12325826 0.64433229 12
3.9896448 0.15508711 -2.9396615 12
5.1469722 0.53394145 4.4661455 12
3.0938754 -0.05838193 -1.2938188 12
5.3964295 0.0013428926 -0.72367316 12
5.3136377 0.18055755 -2.6461902 12
5.4386044 -0.0062087178 0.023755144 12
5.3793955 0.032014906 -1.2072836 12
5.4519296 0.0045362413 0.30977437 12
5.5022383 0.097997725 1.3548803 12
5.37358 0.050994724 -1.4307501 12
5.539855 0.18506974 2.0191796 12
3.1202674 -0.10523912 -0.59901643 13
3.1800568 -0.089411557 0.64845729 13
3.9896646 0.26196271 -2.9491696 13
5.149941 0.70499122 4.4763865 13
3.1952419 -0.070904657 0.77560496 13
3.2142084 -0.0090616047 1.1347487 13
5.4378753 0.056637317 0.18693435 13
5.4409256 0.052377105 -0.23504451 13
5.3759193 0.10217395 -1.2057999 13
5.3406348 0.21034852 -2.0985591 13
5.3606052 0.15634656 -1.6848023 13
5.4180737 0.052502781 -0.4232775 13
3.1853106 -0.058004826 0.64247316 14
3.9884074 0.36625987 -2.9375219 14
5.1483908 0.87541908 4.4714637 14
3.1906707 -0.032829493 0.78066707 14
5.4816957 0.19743633 0.98066306 14
3.2137604 0.038129091 1.1345795 14
5.471242 0.16865826 0.76146615 14
5.5001707 0.27522928 1.4758588 14
5.425086 0.10867399 -0.23365882 14
5.5517173 0.44631839 2.3557923 14
5.3244672 0.3462562 -2.3479054 14
5.4338679 0.11066669 0.022117641 14
5.3041544 0.43094087 -2.8180051 14
5.3947053 0.12689668 -0.72481 14
5.4636908 0.14498389 0.53848571 14
5.4029441 0.16882196 -1.122761 14
3.180351 -0.022611916 0.64696413 15
3.1871173 0.00083252788 0.76167226 15
5.1452293 1.0468371 4.4611382 15
5.4293165 0.1696395 0.021244545 15
5.4399076 0.17316043 -0.23657657 15
5.3098254 0.51117158 -2.6464555 15
5.5499206 0.52364743 2.2158673 15
5.3533573 0.32138258 -1.6799613 15
5.4491901 0.18150273 0.21059045 15
5.3724957 0.28198928 -1.4337522 15
5.4019451 0.24049544 -1.1232353 15
3.1901832 -0.34766164 0.66660166 5
3.1248701 -0.33111364 -0.58023983 6
3.187516 -0.31627843 0.66878587 6
3.2250068 -0.3365773 1.3694929 6
5.3619595 -0.41271463 -1.7494975 6
3.2074749 -0.3269133 1.0656748 6
3.122185 -0.339991 -0.75512362 6
3.1129894 -0.35191289 -0.9682579 6
5.4923954 -0.35523117 0.98395932 6
3.1257167 -0.29945886 -0.57982337 7
3.1838739 -0.28477252 0.67197061 7
5.3432221 -0.3408502 -2.1283391 7
5.309145 -0.28823075 3.6672626 7
5.1201754 -0.28837943 3.8120432 7
3.2294579 -0.28514996 1.4119202 7
3.2077119 -0.2844815 0.96852416 7
3.119611 -0.30806082 -0.90352803 7
3.1261516 -0.30385712 -0.75108027 7
5.5029593 -0.28635719 1.4238578 7
5.4363751 -0.29334053 0.14322531 7
5.4867315 -0.28754568 0.97996259 7
5.4292259 -0.30479872 -0.60233527 7
5.4446864 -0.2985414 -0.23201491 7
3.1279078 -0.26794258 -0.57826883 8
5.1490936 -0.12695457 4.5167971 8
5.1113129 -0.14912078 3.7861948 8
5.3020182 -0.15111937 3.6495016 8
3.2253211 -0.23212346 1.4204659 8
3.1114819 -0.26794738 -1.0646925 8
5.579392 -0.16870426 2.9194119 8
5.4780445 -0.2326515 0.34045511 8
5.3411722 -0.2491664 -2.1272502 8
5.4557085 -0.240064 -0.16272141 8
5.5342517 -0.19490163 1.9837233 8
3.1231728 -0.26813155 -0.73322099 8
5.4415288 -0.23648183 0.1429082 8
5.5118866 -0.20929912 1.4305812 8
3.1278529 -0.23648214 -0.57861328 9
3.1892176 -0.22181119 0.6653567 9
3.996491 -0.15752722 -2.9215076 9
5.1434336 0.035963655 4.4979658 9
5.1074982 -0.010435045 3.7750413 9
5.3021293 -0.013775647 3.6494434 9
3.1082578 -0.22195831 -1.1040502 9
3.1167669 -0.22798505 -0.90783566 9
5.314013 -0.14336818 -2.6109288 9
5.4365959 -0.18364006 -0.63371605 9
3.1250374 -0.23291831 -0.73153532 9
5.5367894 -0.097012013 2.1038501 9
5.4989996 -0.13856316 1.3004367 9
5.4821572 -0.16933647 0.49246094 9
5.4638252 -0.16493145 0.6723398 9
5.4160867 -0.18238711 -0.87917084 9
5.4932261 -0.15098211 1.0146198 9
3.1285748 -0.20499095 -0.57830107 10
3.1893992 -0.19028388 0.66460961 10
3.9958334 -0.054922014 -2.9195883 10
5.1458054 0.20113543 4.5062604 10
5.1023741 0.12766105 3.760078 10
5.3057194 0.12513855 3.6578922 10
3.2213461 -0.12982336 1.3730125 10
5.425745 -0.11721089 -0.88555425 10
5.5794392 0.069446832 2.9180758 10
5.5174971 -0.034431264 1.7020314 10
5.4311433 -0.12184156 -0.68677741 10
5.3758297 -0.1063666 -1.288043 10
5.362699 -0.089877233 -1.6574923 10
5.3867936 -0.11371268 -1.0833262 10
5.539814 -0.0014855266 2.1067743 10
3.1083386 -0.18348068 -0.97589493 10
5.341888 -0.065175205 -2.1318274 10
5.5056157 -0.063365266 1.3047578 10
5.4426417 -0.12301286 0.094632968 10
5.4461708 -0.1255482 -0.23464061 10
3.1880944 -0.15832058 0.6653825 11
3.1279984 -0.17319758 -0.57909042 11
3.9962232 0.049960107 -2.934767 11
5.0955176 0.26490104 3.7400699 11
5.1422009 0.36520487 4.4943743 11
5.2937212 0.26004505 3.6282222 11
3.2068915 -0.12640651 0.96662062 11
5.3590174 -0.010237724 -1.6549662 11
5.4298935 -0.061724707 -0.63288265 11
5.3789492 -0.034256861 -1.2918515 11
5.4446149 -0.064238697 0.14093974 11
3.1257529 -0.1407707 -0.58129728 12
3.1847982 -0.12549542 0.6681881 12
3.9958856 0.15500665 -2.9382162 12
5.143856 0.53317958 4.5002527 12
3.2261858 -0.018562794 1.4133503 12
3.106354 -0.086461693 -1.07366 12
5.5291424 0.1724461 1.9748726 12
5.5638328 0.26731616 2.6302888 12
3.1907873 -0.10115284 0.85340095 12
5.4724503 0.024890244 0.67362022 12
5.5046477 0.10074884 1.4215804 12
5.4817581 0.045317441 0.91078138 12
5.4444489 -0.0093630552 -0.16468574 12
5.3897381 0.022582859 -1.0875925 12
3.1268907 -0.1085977 -0.58063984 13
3.9951403 0.26017362 -2.9351025 13
5.1441789 0.70264226 4.5016356 13
3.2051425 -0.027969822 1.0634496 13
3.1209321 -0.08613421 -0.75862223 13
5.3955345 0.055602014 -0.62100303 13
5.4182429 0.047989637 -0.35198945 13
3.1894045 -0.063186675 0.85452127 13
5.4701204 0.088703483 0.67195642 13
5.354629 0.17813236 -1.856878 13
5.3827581 0.10823423 -1.2598745 13
5.5097113 0.18145445 1.4250413 13
5.5245104 0.22429836 1.7067105 13
3.1227055 -0.074579075 -0.58450311 14
3.9943295 0.36624175 -2.9310002 14
3.1178319 -0.051016495 -0.7407549 14
5.1384935 0.86949784 4.4827266 14
5.3998718 0.11880293 -0.62367165 14
3.1904237 -0.025515825 0.85243857 14
5.316607 0.39707798 -2.6267912 14
5.4880238 0.14192212 0.49043295 14
5.4541149 0.11133766 -0.096261963 14
5.4919968 0.21629262 1.1453322 14
5.537641 0.38731831 2.1010838 14
5.4827557 0.18307456 0.90982777 14
5.3602853 0.2512387 -1.7597241 14
5.5099068 0.26221937 1.4244354 14
3.195323 0.010845125 0.84519839 15
3.1198087 -0.014095426 -0.73896492 15
5.1395359 1.0445561 4.4865479 15
3.2196698 0.15169597 1.4247552 15
5.4268098 0.19473138 -0.68970346 15
5.4177694 0.16889197 -0.35360268 15
5.4777322 0.19208789 0.3351464 15
5.5619874 0.61242384 2.6252491 15
5.4221964 0.18632779 -0.60698497 15
5.3484087 0.35357344 -1.852628 15
5.4374895 0.16992596 0.090558693 15
5.4528656 0.17198583 -0.097002491 15
5.5170984 0.39895713 1.6978084 15
5.4915085 0.29139048 1.1442332 15
3.1030574 0.063101768 -1.1139909 15
5.3827233 0.25665599 -1.2623398 15
3.1943767 -0.35071111 0.7009356 5
3.1281011 -0.36644697 -0.57335341 5
3.1942704 -0.31882602 0.70047796 6
3.1290174 -0.33422092 -0.57285869 6
3.1034029 -0.36965039 -1.2045183 6
3.2203827 -0.32612777 0.9958148 6
3.1172929 -0.35579419 -0.9721989 6
3.1951823 -0.28704473 0.69896281 7
4.1162581 -0.36233333 -2.8283732 7
3.1280022 -0.30228588 -0.57404095 7
5.561182 -0.28863734 2.0729926 7
5.3419495 -0.34323502 -2.106972 7
3.095113 -0.32553706 -1.4014469 7
3.2387195 -0.28736547 1.3962973 7
3.1104836 -0.31616372 -1.0803249 7
3.2207761 -0.28689572 1.0909036 7
3.2097261 -0.28677833 0.85019326 7
5.4816012 -0.29110649 0.75063908 7
5.4266634 -0.30256978 -0.32948491 7
5.4542561 -0.29486659 0.25680405 7
5.4387307 -0.30045176 -0.1884084 7
3.1916704 -0.25525552 0.70204973 8
3.1338434 -0.27035829 -0.56926054 8
5.1754327 -0.12945017 4.5299301 8
4.115499 -0.26199687 -2.8266566 8
3.2070661 -0.25130799 0.85300839 8
3.1081865 -0.27021709 -1.0842069 8
5.3665552 -0.25125629 -1.4152011 8
3.2183774 -0.24460346 1.0941863 8
5.3395505 -0.25161877 -2.1053796 8
5.4766893 -0.22819118 0.74781603 8
5.3923106 -0.24986157 -0.99862784 8
5.4943862 -0.23131993 0.56431568 8
5.3266506 -0.25116035 -2.5268917 8
5.5368891 -0.21220729 1.4173909 8
5.3884544 -0.25050935 -1.2010359 8
3.200763 -0.22415812 0.69203508 9
3.1276011 -0.23829928 -0.57498968 9
3.9964995 -0.15947771 -2.9093795 9
5.1701927 0.033430725 4.5127783 9
3.2156396 -0.21528918 0.86511743 9
3.1051674 -0.22033751 -1.202316 9
3.1220331 -0.23437881 -0.735798 9
3.1127253 -0.22738901 -0.97959584 9
5.4763532 -0.16707245 0.69147563 9
5.5857301 -0.068730175 2.6547866 9
5.4930573 -0.1553956 0.99376303 9
5.3379669 -0.1581012 -2.1710587 9
5.4293528 -0.18739641 -0.33173522 9
5.4342775 -0.18661734 -0.18936676 9
5.4339147 -0.18656479 -0.58593124 9
5.50911 -0.14273794 1.2788861 9
5.4766531 -0.17690527 0.33127627 9
3.1914206 -0.19138001 0.70117092 10
3.1286407 -0.20628493 -0.57438588 10
3.9948642 -0.057711348 -2.8910632 10
5.1702833 0.19768983 4.5133195 10
3.2422249 -0.13374609 1.3845848 10
3.2173626 -0.16812629 0.99738371 10
3.1165216 -0.19755751 -0.74213529 10
3.1985912 -0.18075807 0.83898461 10
5.3353925 -0.064599767 -2.1691613 10
5.3784666 -0.11178516 -1.1954923 10
5.3876729 -0.11861755 -0.99769968 10
5.4973054 -0.10814278 0.56378019 10
5.5091872 -0.069185734 1.2782099 10
5.5569854 -0.0083476603 2.0658288 10
5.4078093 -0.12675761 -0.65648514 10
5.5328803 -0.043422312 1.6270546 10
3.1999478 -0.16080271 0.69175375 11
3.1246803 -0.17345078 -0.57813811 11
3.9958837 0.048178166 -2.9171605 11
5.1731634 0.3644807 4.5231218 11
3.208473 -0.14185703 0.8733958 11
5.3996935 -0.063579306 -0.73621804 11
5.4935923 -0.012203455 1.090452 11
5.426496 -0.072926268 -0.1898621 11
4.3733234 0.34803107 4.5792909 11
5.3520074 0.011431962 -1.9429189 11
5.5219879 0.017204821 1.4031844 11
5.5549154 0.079452753 2.0049014 11
3.1202927 -0.13989663 -0.58226776 12
3.9946249 0.15117833 -2.9051981 12
3.1989009 -0.12098488 0.75034875 12
5.1733837 0.53199983 4.5240984 12
3.0939167 -0.043687299 -1.4050734 12
5.4756947 -0.0014625192 0.25599107 12
5.3320637 0.14068222 -2.3087244 12
3.1045589 -0.083495453 -1.0910556 12
5.4982557 0.059202641 1.0926508 12
5.3611622 0.073508859 -1.6870236 12
3.1357288 -0.11035967 -0.56912106 13
3.9940531 0.25648835 -2.9048398 13
5.1680393 0.69759214 4.5066018 13
3.2120965 -0.069202185 0.86710197 13
5.4421782 0.045555323 -0.076126449 13
5.3536568 0.15451497 -1.6801468 13
3.1109931 -0.038035437 -1.0812821 13
5.3197966 0.27239457 -2.5261102 13
5.382791 0.10145202 -1.2024595 13
5.5512123 0.2756829 2.0567894 13
5.4770408 0.08601281 0.68884486 13
5.5079684 0.15008739 1.2382513 13
5.410532 0.058933675 -0.66047931 13
5.3742471 0.12585741 -1.428956 13
5.5319576 0.20641389 1.623921 13
3.9932797 0.36239329 -2.9011865 14
5.1656747 0.86686873 4.4990005 14
3.2266233 0.052076966 1.2688938 14
5.4292469 0.12095645 -0.58872896 14
5.4542961 0.11459553 0.25163877 14
5.5235376 0.28901425 1.6153392 14
5.495162 0.1585559 0.72311759 14
5.3782988 0.1728501 -1.2001163 14
5.5091615 0.22621217 1.2383375 14
5.4925961 0.18863449 0.98982167 14
4.3695107 0.83962011 4.559329 14
3.2018254 -0.018985003 0.74517214 15
3.2027111 -0.00036463141 0.83033377 15
5.1695952 1.0446813 4.5122752 15
3.2294059 0.10082498 1.2620575 15
5.4396458 0.16459939 -0.077567965 15
5.4653516 0.17887801 0.25231844 15
5.4053197 0.1933327 -0.74290168 15
5.4702783 0.18418971 0.32564649 15
5.5014625 0.22772929 0.72493047 15
5.4271498 0.18437198 -0.58887047 15
5.5431595 0.45614508 1.9884542 15
5.5811472 0.61079788 2.6434615 15
5.344758 0.37149361 -1.9404062 15
5.3294063 0.44491264 -2.3107247 15
3.1209502 -0.36974871 -0.55367029 5
3.1995308 -0.35217708 0.71588272 5
3.2031825 -0.36361626 0.93092507 5
3.1967084 -0.32087755 0.71827793 6
3.1194658 -0.33739009 -0.5552547 6
5.379323 -0.39201784 -1.17881 6
3.1014276 -0.36740327 -1.1001841 6
3.2078156 -0.32601619 0.92369926 6
5.4422436 -0.3573482 -0.0078673884 6
3.1274886 -0.34442654 -0.70227551 6
3.1912065 -0.28946391 0.72347558 7
3.1243539 -0.30477864 -0.55134755 7
5.3288994 -0.34733933 -2.149473 7
3.1061525 -0.32178837 -1.1691002 7
3.2111397 -0.28915077 0.91832346 7
3.1156297 -0.31458002 -0.91669244 7
5.4554758 -0.29593268 0.41836464 7
5.3862343 -0.32643718 -1.3386173 7
5.382884 -0.31858346 -1.0100985 7
5.455102 -0.30358979 -0.19861493 7
5.4431844 -0.30578986 -0.34201631 7
3.1964006 -0.25791761 0.71747649 8
3.1194146 -0.27259949 -0.55590862 8
5.1875 -0.13182348 4.5491562 8
3.1174989 -0.27278462 -0.9144305 8
5.6027155 -0.17374426 2.9468582 8
5.3734117 -0.25345758 -1.3284436 8
5.4580555 -0.24577346 -0.19988298 8
5.5249314 -0.21221615 1.5462424 8
5.5428743 -0.20442089 1.8442638 8
5.5026431 -0.22353326 1.080195 8
5.4158077 -0.25141802 -0.87366664 8
3.1254683 -0.27285331 -0.7050693 8
5.4822536 -0.23266816 0.65614176 8
3.1902854 -0.22590813 0.72330523 9
3.1270764 -0.24061084 -0.54960454 9
3.9863336 -0.16159035 -2.8958032 9
4.3643141 -0.15913178 -2.855515 9
5.1817493 0.031020164 4.5305018 9
3.2109771 -0.21601219 0.91713142 9
3.1300302 -0.23610479 -0.74475342 9
5.426095 -0.186286 -0.8806901 9
5.4599137 -0.18772024 -0.20098245 9
5.4514337 -0.18857846 -0.34572515 9
5.4665461 -0.17638341 0.49432519 9
5.5136156 -0.14164683 1.372813 9
5.4960299 -0.17002603 0.66036522 9
3.1955452 -0.19472349 0.71724379 10
3.1227725 -0.20803371 -0.55362141 10
3.9846549 -0.059692502 -2.8752933 10
5.1804066 0.19478929 4.5263066 10
3.2171001 -0.17810839 0.93382269 10
3.102818 -0.17295521 -1.1756322 10
5.5742726 0.017445028 2.419286 10
5.4705677 -0.10650668 0.73195183 10
5.3507757 -0.093060404 -1.6630689 10
5.3282061 -0.066976473 -2.1539791 10
5.4798565 -0.12253696 0.25014934 10
5.3878546 -0.11952382 -1.0167258 10
5.4387703 -0.13057093 -0.010764115 10
5.4302807 -0.1279894 -0.59694064 10
5.3761492 -0.10745153 -1.3333895 10
3.1937683 -0.16257875 0.71852976 11
3.9836917 0.042699784 -2.8675659 11
5.1829786 0.36125433 4.534956 11
3.1158674 -0.14680481 -0.91756856 11
3.2130704 -0.1398987 0.93889761 11
5.6062522 0.18491226 2.9504077 11
3.1249404 -0.16120696 -0.75121021 11
5.3787885 -0.047885686 -1.1129694 11
5.4634194 -0.059988454 0.41722041 11
3.9835045 0.14737272 -2.8738606 12
5.1836948 0.52885377 4.5375209 12
3.1977394 -0.10507447 0.90775704 12
3.1121886 -0.10971332 -0.8668409 12
3.226737 -0.056225434 1.2495238 12
5.3159137 0.13609192 -2.2804184 12
5.5126963 0.094471753 1.4493296 12
5.3532543 0.07065919 -1.6688242 12
5.3934803 0.011399955 -0.95781636 12
3.9839675 0.25570935 -2.892055 13
3.1963582 -0.092668414 0.75294012 13
4.3657556 0.26397163 -2.8788238 13
5.1830053 0.69766718 4.5354738 13
3.1957841 -0.066744804 0.90968007 13
5.3844962 0.076740414 -0.95310068 13
5.4977798 0.12385488 1.073583 13
5.4778805 0.085924774 0.7327441 13
5.3767285 0.098629266 -1.1849607 13
5.5244112 0.17665663 1.4581795 13
3.9829109 0.36075342 -2.8829103 14
3.1964755 -0.058886856 0.75219768 14
3.1288013 -0.072770357 -0.5849793 14
5.1831913 0.86954808 4.536304 14
3.1110721 -0.025578171 -0.86891413 14
3.0954258 0.019199848 -1.1121583 14
5.4911175 0.14001092 0.57495576 14
5.4720368 0.1293005 0.49209818 14
5.4290838 0.12103617 -0.60019439 14
5.4749856 0.11617863 0.24654758 14
5.5728779 0.43952459 2.4143393 14
5.5139713 0.24157441 1.3693364 14
5.3819299 0.1636467 -1.1188149 14
5.3733063 0.19089505 -1.3359761 14
5.3240967 0.34049982 -2.2972639 14
3.1291494 -0.038198203 -0.58497882 15
5.1818309 1.0429629 4.5320659 15
3.2288938 0.087367058 1.242022 15
3.2028084 0.013030201 0.92413551 15
5.4626327 0.19012347 0.48887104 15
5.488874 0.20440534 0.57349378 15
5.4344554 0.1609844 -0.014494494 15
5.3486695 0.32171559 -1.6682488 15
5.3187819 0.44144946 -2.2910213 15
5.5221224 0.35425144 1.5384873 15
5.5420928 0.41765749 1.8380778 15
5.3696842 0.26694214 -1.3340539 15
3.1201127 -0.3730582 -0.54649305 5
3.1251798 -0.33985573 -0.54232454 6
3.094692 -0.36422509 -0.97886467 6
3.1164503 -0.34990132 -0.73273206 6
5.5599885 -0.29353088 2.1017678 7
3.118474 -0.31373426 -0.77854276 7
3.2296014 -0.29197329 1.3112392 7
5.5272384 -0.29417288 1.3275387 7
5.3690805 -0.32750532 -1.2680845 7
5.4549241 -0.30569789 -0.15600015 7
5.3610635 -0.335991 -1.6065941 7
3.1211712 -0.27501088 -0.51183665 8
3.197176 -0.25990215 0.75458562 8
5.1836567 -0.13472693 4.5551238 8
3.2442045 -0.23598394 1.6004241 8
5.3926573 -0.25368905 -0.72564483 8
3.1056361 -0.27509445 -0.96360302 8
5.5805273 -0.1888487 2.5205407 8
5.3073769 -0.25622708 -2.4836164 8
5.3505592 -0.25648767 -1.5965602 8
5.3873672 -0.2549057 -0.9973495 8
5.5347896 -0.21093607 1.7089573 8
5.4397202 -0.24674386 -0.013722032 8
5.5612669 -0.2003631 2.1024976 8
3.1239803 -0.24339227 -0.50979531 9
3.1970174 -0.22894958 0.73532295 9
3.9795086 -0.16426939 -2.8694921 9
5.1860547 0.02947247 4.5631905 9
3.2431655 -0.17916271 1.6017525 9
3.2283707 -0.19680113 1.3116664 9
5.5038562 -0.15288106 1.2012933 9
3.2152309 -0.21079321 1.0722815 9
5.5481324 -0.11423281 1.9739541 9
5.3690228 -0.1841487 -1.2704794 9
5.384336 -0.18865138 -0.99635112 9
3.0934691 -0.23033687 -0.98154974 9
5.4826212 -0.17909577 0.46712807 9
5.4034615 -0.19133875 -0.73211706 9
5.3592458 -0.17537454 -1.6566508 9
5.5789595 -0.09160018 2.3760624 9
3.130007 -0.21224314 -0.50506616 10
3.191525 -0.19665903 0.74049115 10
3.9779572 -0.062450722 -2.8506663 10
5.1829405 0.19310582 4.5531878 10
5.5162606 -0.073498353 1.3173176 10
5.5296898 -0.04585737 1.7026252 10
3.2181857 -0.16487119 1.1328113 10
5.3237438 -0.065316111 -2.2049069 10
5.4685717 -0.12049979 0.46312538 10
5.477108 -0.11296465 0.64545608 10
5.3441405 -0.084484696 -1.852977 10
3.126054 -0.1800254 -0.50866997 11
3.1899064 -0.16435316 0.74160814 11
3.9787049 0.043239504 -2.8743055 11
5.1828399 0.35858423 4.5530663 11
3.2070541 -0.14964941 0.8904407 11
3.1201763 -0.16346067 -0.7299906 11
3.2176914 -0.13002074 1.0666006 11
5.4321632 -0.076655656 -0.015586786 11
5.5790319 0.12810555 2.5162184 11
5.4493985 -0.073528454 -0.2792134 11
5.3306255 0.014898777 -2.0161185 11
5.3090277 0.056149781 -2.4929557 11
5.5081506 -0.0095975697 1.2026826 11
5.5595245 0.080670565 2.098201 11
5.4009218 -0.066451862 -0.73275483 11
3.1219501 -0.14715347 -0.51240587 12
3.2015386 -0.13477784 0.72891426 12
3.9773884 0.14586523 -2.8598623 12
5.1825681 0.52554184 4.5523858 12
3.1104224 -0.09936817 -0.95785987 12
5.5063601 0.058935225 1.1661694 12
3.2301226 -0.04611592 1.3508133 12
5.3089938 0.15167692 -2.4124262 12
5.5473695 0.15775296 1.9708391 12
5.4553251 -0.014928848 -0.16008534 12
3.1135855 -0.11908293 -0.78600073 12
5.489398 0.034862936 0.93154824 12
5.528996 0.11050513 1.6097504 12
5.3489208 0.068042189 -1.6494751 12
3.203851 -0.11277518 0.89396548 12
5.3371372 0.10843378 -2.026912 12
3.1295886 -0.11634134 -0.5063293 13
3.2013264 -0.10262825 0.72856283 13
3.9775085 0.25336891 -2.8721807 13
5.1821041 0.69433689 4.5510774 13
5.4974375 0.12521306 1.1259112 13
5.337081 0.17633054 -1.8489681 13
5.4519157 0.052272439 0.35945642 13
5.4474306 0.045665801 -0.2804763 13
5.5783615 0.31966901 2.3722162 13
5.4892912 0.10249624 0.93075299 13
5.4931364 0.084572554 0.73041427 13
5.3983016 0.056174934 -0.67703009 13
3.1930103 -0.063806698 0.75554514 14
3.9767563 0.3596034 -2.8684061 14
3.1241114 -0.082086101 -0.51122403 14
5.1770668 0.86166573 4.5347781 14
3.2150917 0.0095874667 1.1345664 14
3.1080558 -0.018780053 -0.9013629 14
3.2312741 0.054351002 1.3460416 14
5.4980421 0.197777 1.1255311 14
5.4461842 0.10339195 0.14483312 14
5.471436 0.13723135 0.64058375 14
5.5637245 0.39426309 2.2221146 14
5.4341278 0.098671168 -0.018058985 14
5.314671 0.36437219 -2.4262476 14
5.5383506 0.29588461 1.7077643 14
5.3545313 0.2371031 -1.658854 14
5.4508457 0.10400891 -0.16109151 14
3.117794 -0.046506315 -0.51683211 15
3.1961341 -0.031073481 0.75159478 15
5.1791816 1.0376248 4.5419307 15
3.2100689 0.057275295 1.1423475 15
3.1080759 0.025674969 -0.90165508 15
5.4954004 0.21777305 0.72977006 15
5.5187778 0.35887522 1.5982902 15
5.512938 0.28165543 1.1681088 15
5.3972645 0.18470931 -0.67850685 15
5.3182225 0.42566508 -2.2063267 15
5.4525871 0.16565853 0.14430311 15
5.4536381 0.17492515 0.35823002 15
5.5608363 0.49589366 2.2177699 15
5.3481154 0.32047582 -1.6531606 15
3.2021148 -0.35770977 0.77095294 5
3.1188073 -0.37437722 -0.51005572 5
3.1975548 -0.32617542 0.77529556 6
3.1239877 -0.34152979 -0.50591868 6
3.1081862 -0.36165568 -0.87858641 6
3.1973088 -0.29423502 0.7749868 7
3.13024 -0.30924976 -0.5008561 7
5.3256645 -0.35049719 -2.0471487 7
5.554822 -0.29594374 2.0572686 7
3.128181 -0.31325606 -0.65540093 7
5.4656534 -0.29946321 0.63676012 7
5.3446112 -0.34180665 -1.7202511 7
5.5105844 -0.29660189 1.2977684 7
5.4799128 -0.29848084 0.80444664 7
5.4175401 -0.3124975 -0.42185098 7
3.1230445 -0.27749968 -0.50733221 8
4.3565845 -0.26742685 -2.8062329 8
5.1840467 -0.1372222 4.5732656 8
3.1099982 -0.27758887 -0.90630037 8
3.1948738 -0.25882137 0.90461695 8
3.2287765 -0.24684814 1.3323343 8
3.2170923 -0.25464144 1.0593345 8
5.4224524 -0.25561893 -0.7214731 8
5.5041971 -0.22447865 1.2925169 8
3.1191511 -0.27768499 -0.66545373 8
5.4912186 -0.23219496 0.95463657 8
5.3163705 -0.25867084 -2.3974187 8
5.4453049 -0.2479102 0.098718956 8
5.5302629 -0.21692212 1.589304 8
3.1957178 -0.23124489 0.75663769 9
3.1306326 -0.24584897 -0.50111687 9
3.979111 -0.16667691 -2.850523 9
4.3600912 -0.16349527 -2.8290029 9
5.1870179 0.027062893 4.5832052 9
3.1239567 -0.24196634 -0.66056532 9
3.2241466 -0.2060812 1.2161355 9
3.1113272 -0.23659828 -0.84681422 9
5.4635496 -0.17858754 0.63464963 9
5.4670835 -0.19091384 0.0033427849 9
5.5706558 -0.094995499 2.3839958 9
5.4064541 -0.19466332 -0.60268408 9
5.4782228 -0.17253926 0.80230057 9
5.4573774 -0.18370581 0.45589638 9
5.5475574 -0.11954091 1.9386301 9
5.4532323 -0.19279443 -0.13795806 9
5.5293393 -0.13767461 1.5877562 9
3.1951575 -0.19953981 0.75665843 10
3.12992 -0.21396914 -0.50202924 10
3.9776037 -0.064776808 -2.8324759 10
5.1859398 0.19142902 4.5798769 10
3.1022115 -0.1852017 -1.0153179 10
3.2237947 -0.16178656 1.215842 10
5.4033861 -0.13409375 -0.60225332 10
5.4343653 -0.13499668 0.097218163 10
5.3705091 -0.11921608 -1.1407866 10
3.1950767 -0.18783066 0.90301704 10
5.4151716 -0.13632278 -0.42366254 10
5.5460172 -0.031141013 1.9362371 10
5.5281954 -0.058218628 1.5860159 10
3.2085993 -0.17671508 1.0412402 10
5.3586531 -0.10151777 -1.5414076 10
5.4336505 -0.13655353 -0.08884041 10
3.1911793 -0.16695905 0.76023954 11
3.1250489 -0.18123433 -0.50651908 11
3.9778843 0.04001835 -2.8474979 11
5.1813574 0.3550759 4.5650663 11
5.4796901 -0.045390502 0.80148166 11
5.5443964 0.057667732 1.9337554 11
5.4534311 -0.076522425 -0.13959691 11
5.4473629 -0.072520211 0.28412265 11
5.3290882 0.017782122 -2.059201 11
5.5280914 0.021837145 1.5851753 11
3.1259942 -0.14890191 -0.50601268 12
3.9771204 0.1438739 -2.8432693 12
3.1969471 -0.13359843 0.77248985 12
5.1811342 0.52178717 4.5645437 12
3.1062384 -0.10782406 -0.88307017 12
5.4379811 -0.01979056 0.095698833 12
5.5676212 0.20969138 2.3777637 12
5.4167075 -0.018677145 -0.37565696 12
5.4068613 -0.0092661977 -0.63303018 12
5.4091167 0.009865135 -0.93152648 12
5.5142283 0.072734177 1.3335016 12
5.3561563 0.057277262 -1.5416017 12
3.189703 -0.098621562 0.77966052 13
3.1319227 -0.11750771 -0.50121927 13
3.9774277 0.25212443 -2.8591051 13
5.1799221 0.68977374 4.5607786 13
3.2129431 -0.053645447 1.0618533 13
3.1120322 -0.070331797 -0.84710628 13
5.4117403 0.041402996 -0.40000087 13
5.4587879 0.054903448 0.453282 13
5.458189 0.041871369 0.00071060658 13
5.5530472 0.25818908 2.0507002 13
5.3138227 0.25547534 -2.4037516 13
5.3451452 0.16867566 -1.7841649 13
5.4075098 0.051981598 -0.60688704 13
3.1890593 -0.064737007 0.7797448 14
3.9766042 0.35830766 -2.8539989 14
3.1157525 -0.057046026 -0.67098832 14
5.1766815 0.85824502 4.5503716 14
3.112905 -0.017990619 -0.90403205 14
3.0965803 0.0055375397 -1.0252252 14
5.4480848 0.11364484 0.45021945 14
5.3413243 0.24679822 -1.7272108 14
5.4176798 0.10243189 -0.37769988 14
5.5361433 0.30080736 1.7720966 14
3.2253485 0.045219958 1.332926 14
5.3776789 0.16751081 -1.1512856 14
5.4197855 0.12816733 -0.72604972 14
3.1916318 -0.03154707 0.77637887 15
5.1824055 1.0375549 4.5693488 15
