# .PCD v0.7 - Point Cloud Data file format
VERSION 0.7
FIELDS x y z intensity
SIZE 4 4 4 4
TYPE F F F F
COUNT 1 1 1 1
WIDTH 1297
HEIGHT 1
VIEWPOINT 0 0 0 1 0 0 0
POINTS 1297
DATA ascii
-3.9352298 -2.6354549 -5.3028226 15
-4.782608 -3.0530493 -3.397701 7
-4.5602236 -3.0601358 -3.3963349 6.6666665
-4.0663538 -3.1494958 -4.2389617 5
-4.0452895 -3.1646538 -4.4795709 5
-3.567306 -3.1083403 -5.262208 6.5999999
-4.7839231 -2.8197694 -3.4160833 10
-4.5579872 -2.7909882 -3.4145989 10.5
-3.6374657 -2.8777151 -5.2762113 11.166667
-4.8039913 -2.4827888 -3.4422088 14.25
-4.5995836 -2.5172026 -3.4358802 14.25
-3.8027444 -2.6540318 -5.29667 15
-4.1771908 -3.0282433 -3.3931839 6.6666665
-3.985656 -3.110693 -3.6882551 5
-4.0681305 -3.1370444 -4.0398045 5
-3.2122853 -3.1152647 -5.2144494 5.7142859
-3.0205514 -3.0746689 -5.2523451 6.5
-4.2245679 -2.7733443 -3.410758 11
-3.2484074 -2.8669403 -5.2653289 11.555555
-3.0160069 -2.9731724 -5.2549996 9
-4.2696242 -2.5482497 -3.4310279 14.6
-3.8838921 -3.0389037 -3.3981898 6
-3.647697 -3.0155382 -3.3909135 6
-3.0125418 -3.1464071 -5.0779529 4
-2.748606 -3.0837595 -5.2272959 5.7777777
-3.8872094 -2.7832074 -3.4044747 11.1
-3.7132683 -2.7604461 -3.405426 11.8
-2.8267372 -2.8560672 -5.2526007 11.73913
-3.3343625 -2.9858711 -3.3874116 6
-2.3474908 -3.0768621 -5.1763105 5.25
-2.1279566 -3.0401237 -5.293066 6
-3.3390291 -2.7878726 -3.4000866 11.590909
-2.3900576 -2.8447256 -5.2384353 11.409091
-2.1407917 -2.7958486 -5.3051305 11.5
-2.8418829 -3.1578398 -3.1241159 3
-2.8493741 -3.1794224 -3.4952192 3
-2.7446847 -3.1936195 -3.811121 3
-2.0017929 -3.0510004 -4.8333354 4.25
-1.8868458 -3.0239851 -5.2714186 6.25
-1.8767838 -2.7895622 -5.2912264 11
-1.7430353 -2.5490198 -5.3152423 15
-2.661622 -2.9797325 -2.7721114 5
-2.6773219 -3.0119736 -2.9235187 4.6666665
-2.4042459 -2.9928055 -3.2268693 4
-1.8409319 -2.9855795 -4.5105042 5.25
-1.771178 -2.945801 -4.8099074 7
-1.4440386 -2.9666998 -5.3018026 7
-2.7564549 -2.7885771 -2.9701591 9.5
-1.6914623 -2.7699029 -4.5348134 10.923077
-1.7887299 -2.7758245 -4.8063269 11.227273
-1.4614167 -2.7570193 -5.3087282 10.5
-1.3196127 -2.7151663 -5.3101859 10.857142
-1.4899799 -2.5167551 -5.3191948 14.5
-1.353658 -2.4938595 -5.3229694 14.333333
-2.6322942 -2.9210021 -1.8357601 6
-2.2786067 -2.9626858 -2.8401613 5
-2.0412326 -2.9645557 -3.1058073 4.6666665
-1.9552989 -2.9857984 -3.5575535 4
-1.7619796 -2.9988441 -3.9572761 4
-1.6649245 -2.9640946 -4.3355412 5.5
-2.7740722 -2.5910196 -1.46418 9.5
-1.6191411 -2.6255999 -4.503695 14
-1.4494777 -2.7700493 -4.4640546 10
-2.8005567 -2.2012603 -1.4828169 13.5
-2.2628126 -2.9031594 -1.8863497 6
-1.7895749 -2.9515622 -3.1333685 5
-1.566624 -2.9548671 -3.4082935 5
-1.4041415 -2.9655581 -3.7375138 5
-1.0751297 -2.9267771 -4.0783706 6
-0.93872464 -2.897954 -4.3191957 6.75
-0.95074189 -2.6476729 -4.1087584 10.5
-0.95213807 -2.6617901 -4.3603415 10.5
-0.96613526 -2.3875163 -4.1134472 14.5
-0.96744525 -2.4014254 -4.3709455 14.5
-1.7332947 -2.8838511 -2.0574574 6
-1.4236593 -2.8767507 -2.2346952 6
-0.93890584 -2.8924096 -3.2232127 6
-0.93397331 -2.870373 -3.5197794 6.5
-0.94099402 -2.8754747 -3.8394811 6.6666665
-0.94977558 -2.567451 -3.2043591 10.5
-0.94538522 -2.5994599 -3.5027378 10.466666
-0.9489783 -2.6430864 -3.8412499 10.272727
-0.96651113 -2.2716823 -3.2229989 14.5
-0.96350694 -2.328547 -3.4759579 14.285714
-0.96475601 -2.3632338 -3.8497484 14.5
-1.0524387 -2.8257613 -2.3832231 6.5
-0.95071936 -2.8099113 -2.5742886 6.75
-0.92973757 -2.8387136 -2.966712 6.5999999
-0.94596171 -2.540576 -2.6365438 10
-0.94383407 -2.5895967 -2.9508741 9.818182
-0.98086357 -2.0408337 -2.3658721 15
-0.97112179 -2.2116535 -2.6002731 13.75
-0.96664298 -2.2776055 -2.9836981 13.857142
-0.93921745 -2.7387838 -1.5046334 7
-0.94100177 -2.7595193 -1.9517794 7
-0.95223904 -2.479023 -1.7080908 9.5
-0.9513613 -2.510603 -2.154937 9.6999998
-0.97744179 -2.1004143 -1.7329836 13
-0.973562 -2.1425464 -2.1809311 13.5
-0.98888206 -1.8824103 -1.7748604 15
-2.5073504 -2.6578078 2.1803913 7
-0.94203901 -2.7177715 -1.0402565 7
-2.6628225 -2.3336015 2.1537304 8.5
-2.4344442 -2.3201742 2.1586323 8.5
-0.9572041 -2.4589376 -0.82428575 8.875
-0.95385325 -2.5008583 -1.2428913 8.875
-2.6873977 -1.888245 2.1287408 10.5
-2.4589989 -1.8739191 2.1333737 10.5
-0.98033309 -2.0176542 -0.85564947 12.142858
-0.97799468 -2.1114066 -1.2925932 12.125
-2.7060921 -1.5509411 2.1066132 12
-2.47789 -1.536612 2.1087551 12
-1.0142531 -1.6779368 -0.81548786 14.5
-1.0043712 -1.7923515 -1.2228451 14.5
-2.736331 -1.2079133 2.0872669 13.5
-2.5081518 -1.1934774 2.0879564 13.5
-2.7670479 -0.85935497 2.0630217 15
-2.5390577 -0.84495115 2.0628552 15
-2.001024 -2.6297572 2.1921062 7
-0.94406354 -2.6844025 -0.29582882 7
-2.113054 -2.3013396 2.1590452 8.5
-0.96602905 -2.4260545 0.071673393 8.5
-0.96270835 -2.3882883 -0.33055925 9
-2.137898 -1.8540111 2.130187 10.5
-0.98631799 -2.0191293 0.05239439 11
-0.98211348 -2.0142252 -0.35810995 11.5
-2.1571591 -1.5154042 2.1055083 12
-1.0158165 -1.6045204 0.032846451 13.5
-1.0148872 -1.6256913 -0.35927987 14
-2.1743307 -1.1920222 2.0911789 13.4
-1.0396253 -1.351056 0.015799522 15
-2.1950159 -0.81718302 2.0665956 15
-1.7887852 -2.2820177 2.1585488 8.5
-1.5764279 -2.2681394 2.1652021 8.5
-0.9399519 -2.3298199 1.0803065 8.5
-1.8132505 -1.830991 2.1342678 10.5
-1.5956442 -1.9290862 2.142272 10
-0.96231163 -1.9395218 1.0543709 10.5
-1.832273 -1.489381 2.1121969 12
-1.615557 -1.5875082 2.1159129 11.5
-0.98399878 -1.5427152 1.0310607 12.5
-1.863991 -1.1447453 2.0845556 13.5
-1.6524634 -1.1237352 2.0900278 13.5
-1.0249221 -1.1370287 1.0139527 14.5
-1.8943961 -0.78975177 2.0687013 15
-1.6831665 -0.76709914 2.0725641 15
-1.4383292 -2.6000025 2.1905599 7
-1.219465 -2.24614 2.1591887 8.5
-0.98625851 -2.2667863 1.7835855 8.5
-0.97683048 -2.3347683 1.4102402 8.333333
-0.92029417 -2.3219032 1.140995 8.5
-1.2623293 -1.9047872 2.1393671 10
-1.0050924 -1.8261939 1.7756557 10.5
-1.0034604 -1.856328 1.380796 10.666667
-0.99953318 -2.0224957 1.190052 10
-1.2632079 -1.5957133 2.1207814 11.333333
-1.0236933 -1.4938705 1.7547445 12
-1.0244597 -1.4825833 1.3109012 12.5
-1.2701476 -1.0611665 2.0875854 13.6
-1.0550153 -1.1580346 1.7305446 13.5
-1.0644604 -1.1089234 1.2494168 14.333333
-1.2781734 -0.7214067 2.0711484 15
-1.0869098 -0.81671166 1.7050972 15
-1.0757835 -0.90632677 1.4238648 15
-0.96691751 -2.5776582 2.1444249 7
-1.0247941 -2.3505993 2.1444054 8
-1.0491619 -1.8910321 2.1202765 10
-1.0459583 -1.5423137 2.0915546 11.5
-1.0421343 -1.1881217 2.0659819 13
-0.26896763 -2.5313246 2.397882 7
1.8509657 -1.7101425 8.1346912 8
-4.9409475 -3.0749183 -4.919538 8.0045004
-3.4639225 -2.9859576 -5.2732062 9.1665001
-3.3229384 -2.9922595 -5.2535648 8.9139996
-3.9484324 -2.602896 -3.4145827 14.5295
-3.5962205 -2.6746962 -3.4033337 14.034
-2.7281823 -2.7730091 -5.26194 13.899873
-3.3501065 -2.7009146 -3.3994722 14.038501
-2.4312153 -2.8380809 -5.2525501 11.64225
-1.7045834 -2.9081209 -5.2257552 8.6274996
-1.6863025 -2.6687689 -4.5517035 14.114001
-1.6841345 -2.7162395 -4.7208433 12.656267
-1.515618 -2.7283127 -4.4102087 11.609499
-0.89206541 -2.4337709 -3.5115976 13.0935
-0.92323434 -2.3367143 -3.5272326 14.5935
1.653424 -1.2632329 8.2290268 9.0684996
1.6278603 -0.80134225 8.2000942 10.0685
1.6031978 -0.33604407 8.1740265 11.0685
1.5738876 0.13022113 8.1349201 12.0685
-0.91539955 -3.0404336 -3.5416069 5
-0.90511513 -2.9950781 -3.3235157 6
-2.7480974 -3.0401263 -2.9647791 7
-1.6509434 -3.0494328 -4.5879221 7
-1.6121117 -3.0432994 -4.4960413 7
-0.90588248 -2.9548516 -3.324682 7
-2.7490954 -3.0273657 -2.4108329 7
-1.4951113 -3.0341043 -4.4053087 7
-2.7494032 -3.0313046 -2.5929179 7
-0.92758584 -2.9218564 -1.843716 7
-0.82663012 -2.9921334 -3.994436 7
-0.92748344 -2.9635377 -3.5771925 7
-0.91906142 -2.9404311 -2.7521596 7
-0.91192269 -2.9714253 -3.8153937 7
-0.92131495 -2.9270227 -2.1204524 7
-2.4097068 -3.1223855 -5.2937975 7
-2.7541168 -3.0086372 -2.9625933 8
-7.320302 -3.2336369 -5.0029268 8
-1.6515738 -3.0082126 -4.5939245 8
-1.2510486 -2.981559 -4.3837786 8
-1.6124699 -3.0161622 -5.2451673 8
-1.6047938 -3.003794 -4.4767251 8
-7.2390547 -3.2444057 -5.4855242 8
-2.7545123 -2.9758205 -2.2971597 8
-0.92514372 -2.8932536 -2.756372 8
-0.91381526 -2.9279268 -3.7132862 8
-1.4985279 -2.9965892 -4.4037676 8
-0.90457773 -2.9098527 -3.2012978 8
-0.93478441 -2.9251478 -3.5784118 8
-0.92838407 -2.8457317 -1.7291844 8
-0.92674017 -2.8605134 -2.0375671 8
-0.81693935 -2.9569511 -4.5109186 8
-0.82864463 -2.9539964 -4.3275642 8
-4.6403594 -3.1491983 -5.386323 8
-4.1869678 -3.1318202 -5.3661208 8
-2.1649878 -3.0448503 -5.2599602 8
-2.7954984 -3.0745645 -5.2982616 8
-3.8310056 -3.1180279 -5.3577056 8
-0.92356646 -2.8717227 -2.2796144 8
-7.3232379 -3.0410922 -5.0073986 9
-1.6528189 -2.9666736 -4.5980511 9
-1.2576064 -2.9401491 -4.3796997 9
-1.6135318 -2.9656374 -4.5052376 9
-7.2530694 -3.0492549 -5.4935966 9
-0.93444324 -2.8452365 -2.7384002 9
-1.4320974 -2.954401 -4.3654552 9
-0.82235277 -2.9015598 -4.510426 9
-0.91276562 -2.8747663 -3.3280404 9
-0.93391335 -2.7722554 -1.7345592 9
-0.93077612 -2.8606379 -3.0024521 9
-0.91905129 -2.8908668 -3.8175678 9
-0.83467865 -2.9029465 -4.2485504 9
-2.167768 -2.9821975 -5.2570629 9
-1.8800168 -2.9675055 -5.2670107 9
-0.93738687 -2.8880684 -3.6288533 9
-0.92431056 -2.794445 -2.0320091 9
-2.7681818 -3.0043428 -5.3013458 9
-2.7609971 -2.9447486 -2.9621086 10
-7.336987 -2.8480234 -5.014976 10
-1.2570103 -2.8980033 -4.3844242 10
-1.6051869 -2.9265888 -4.4881382 10
-7.2691231 -2.8530307 -5.5024652 10
-1.4797961 -2.9204352 -4.3821354 10
-0.90436733 -2.8080556 -2.9267573 10
-0.9339608 -2.7554259 -2.2886133 10
-0.93734992 -2.6915579 -1.6759832 10
-0.83615291 -2.8561599 -3.9976211 10
-4.0022254 -2.9336579 -5.360507 10
-2.7699819 -2.9353747 -5.2994261 10
-0.92233539 -2.8497729 -3.7666502 10
-2.2245016 -2.9212222 -5.267518 10
-0.82318568 -2.8507969 -4.285594 10
-0.92821002 -2.7290084 -2.0349898 10
-2.4205813 -2.9264529 -5.3040752 10
-2.7606597 -2.912792 -2.9646649 11
-7.3404365 -2.6541796 -5.0196204 11
-1.6592076 -2.8838067 -4.5939827 11
-1.6159105 -2.8866792 -4.5121465 11
-1.3381251 -2.8670321 -4.3674073 11
-7.2937698 -2.6545849 -5.5146599 11
-1.4822705 -2.8830462 -4.3823824 11
-2.7629378 -2.8267767 -2.3010216 11
-0.91653514 -2.7957397 -3.3651335 11
-0.94407034 -2.6402361 -1.8564811 11
-0.93601048 -2.7485471 -2.739305 11
-0.93825471 -2.676693 -2.1342626 11
-0.93175292 -2.7267914 -2.5476053 11
-3.6278005 -2.8511577 -5.3470526 11
-4.7517014 -2.8032975 -5.4061923 11
-3.0428045 -2.8643737 -5.3159652 11
-0.91413391 -2.785856 -3.2066159 11
-2.8144488 -2.8643343 -5.3242507 11
-2.7584867 -2.8810444 -2.9685662 12
-7.3454437 -2.458988 -5.0247355 12
-1.6589189 -2.8405795 -4.6032696 12
-1.2574239 -2.8123174 -4.392046 12
-1.6078477 -2.8479548 -4.4941072 12
-7.279058 -2.4574685 -5.5117483 12
-1.4381374 -2.8406165 -4.3688059 12
-0.93545151 -2.6109047 -2.1287007 12
-0.91356885 -2.7175684 -2.9323835 12
-2.7650063 -2.7952108 -2.4127982 12
-4.2017331 -2.7278924 -5.3744187 12
-0.93417943 -2.6736526 -2.5491793 12
-2.808712 -2.7955687 -5.3049793 12
-1.88994 -2.7769723 -5.2709246 12
-0.94268787 -2.7706079 -3.6330764 12
-2.0728841 -2.7885728 -5.2591767 12
-3.8411517 -2.7516067 -5.3609715 12
-3.0489554 -2.7893534 -5.3225975 12
-4.6673665 -2.6924424 -5.4041605 12
-2.4598558 -2.7262411 -5.3149385 13
-2.7639928 -2.8476422 -2.9668989 13
-7.3517838 -2.2618203 -5.0302706 13
-1.3391927 -2.785063 -4.3742394 13
-1.6121433 -2.8093138 -4.4895639 13
-7.2903337 -2.2563384 -5.5188541 13
-2.7692456 -2.7822127 -2.5926015 13
-0.93394899 -2.7173235 -3.3700869 13
-0.85016394 -2.7029011 -4.2514577 13
-0.93967533 -2.6538129 -2.7662792 13
-0.93347955 -2.6839318 -3.0055366 13
-0.83730173 -2.7111816 -4.092514 13
-0.93162417 -2.7284281 -3.719296 13
-0.94787598 -2.4597862 -1.6816278 13
-1.4905818 -2.8043246 -4.4093442 13
-0.92553818 -2.723917 -3.5528097 13
-4.0222769 -2.6419475 -5.3750424 13
-3.0527742 -2.7138431 -5.3250084 13
-3.6426177 -2.6745815 -5.3596148 13
-2.7729051 -2.7970285 -2.8771996 14
-7.3617516 -2.0616159 -5.0369005 14
-1.5557842 -2.6234422 -5.2348418 14
-1.6339095 -2.6288228 -5.2505665 14
-7.3043709 -2.0519137 -5.5270634 14
-2.7626629 -2.7423911 -2.6048403 14
-0.92778468 -2.6304269 -2.9618754 14
-0.92932701 -2.648972 -3.102531 14
-0.84222341 -2.6399696 -4.3395309 14
-0.95496166 -2.3967512 -1.7503206 14
-4.6739588 -2.4585507 -5.4080458 14
-0.92616236 -2.6824851 -3.554275 14
-2.8282633 -2.6466913 -5.3376513 14
-0.93528748 -2.6872985 -3.7715697 14
-2.4665451 -2.5883276 -5.3179049 15
-2.7733521 -2.7614284 -2.8796053 15
-7.3751192 -1.8574861 -5.0445776 15
-1.4945529 -2.7247562 -4.4121065 15
-1.6648394 -2.7096126 -4.6099977 15
-1.560046 -2.5568094 -5.2338572 15
-1.63519 -2.5589309 -5.2631164 15
-7.3136306 -1.8449851 -5.5334759 15
-2.7781086 -2.6190546 -2.3006816 15
-2.7725768 -2.6960819 -2.5969391 15
-2.2422204 -2.5939512 -5.2866483 15
-0.84478652 -2.5920393 -4.2881188 15
-0.84988296 -2.6150591 -4.0915074 15
-0.93421292 -2.6329103 -3.3723991 15
-0.9335376 -2.6445007 -3.7226291 15
-0.94934654 -2.4160364 -2.1403484 15
-0.93420553 -2.5849745 -2.9655998 15
-0.92986882 -2.6035869 -3.1034074 15
-0.9580574 -2.3018212 -1.6905212 15
-0.93782377 -2.5465989 -2.7401378 15
-4.7679367 -2.3236771 -5.4163165 15
-2.0831616 -2.5917475 -5.2730155 15
-7.2918515 -3.4410691 -5.4155188 7
-6.3851538 -3.381479 -5.4547377 7
-7.3152418 -3.1400387 -5.1288166 8.5
-7.1984777 -3.1439595 -5.3980012 8.5
-6.6835032 -3.1654344 -5.4698753 8.333333
-6.3008943 -3.1282723 -5.4561315 8.5
-7.3275957 -2.7323709 -5.173821 10.6
-7.2010155 -2.7774708 -5.4326105 10.4
-6.6821756 -2.6933644 -5.4847956 11
-6.3257465 -2.7141929 -5.4716587 11
-7.3522906 -2.3365564 -5.222353 12.6
-7.1870799 -2.3688853 -5.4758573 12.5
-6.7447081 -2.290272 -5.4980917 13.2
-6.3488398 -2.2914054 -5.4864511 13.5
-7.37112 -1.9716682 -5.2346268 14.4
-7.2106962 -1.9680965 -5.4903822 14.5
-6.7396135 -1.9579867 -5.5078411 15
-6.3543873 -2.0325999 -5.4915571 15
-5.9657545 -3.014544 -5.4498653 9.1999998
-5.4907508 -2.9726396 -5.4327211 9.5
-5.105289 -3.0395052 -5.4127274 9
-5.9541612 -2.6594186 -5.4574289 11.5
-5.5118084 -2.6385925 -5.4419365 11.875
-5.1269073 -2.6544018 -5.4267492 12
-5.9576483 -2.2672751 -5.4697886 14
-5.4975638 -2.2661612 -5.4552608 14.5
-5.1271467 -2.3273363 -5.4354334 14.5
-4.8772125 -3.2744732 -5.29772 7
-4.4053259 -3.2472653 -5.3806124 7
-3.9904859 -3.2194409 -5.3537512 7
-4.8715396 -3.0381925 -5.4095287 9
-4.5617366 -3.0226676 -5.392508 9.1111107
-4.1556025 -2.9965119 -5.3795223 9.333333
-3.9261093 -2.9340754 -5.3684344 10
-4.93958 -2.6701801 -5.4147301 12
-4.6210837 -2.6191127 -5.4072804 12.666667
-4.1735187 -2.5693467 -5.3902035 13.555555
-3.9387159 -2.6967554 -5.3767405 12.5
-4.9667444 -2.3523295 -5.432518 14.5
-4.5990758 -2.3508763 -5.4158497 15
-4.3702898 -2.3888137 -5.4019003 15
-3.7504382 -3.2216225 -5.2836704 6.75
-3.3116097 -3.208149 -5.3319292 6.5999999
-2.9249761 -3.1525428 -5.318119 7
-3.7148051 -2.9567013 -5.3583517 9.7777777
-3.32688 -2.9379056 -5.3424606 10
-2.9220438 -2.8998063 -5.3232436 10.5
-3.7754412 -2.597116 -5.3725119 13.7
-3.3392978 -2.6128385 -5.3511357 14
-2.9569354 -2.6268528 -5.3313971 14.2
-4.1494756 -3.2723711 -4.4464211 6
-3.975122 -3.2721426 -4.7241611 6
-2.7804589 -3.143573 -5.3056769 7
-2.3382432 -3.1176674 -5.2755108 7
-1.9846637 -3.0985708 -5.2574263 7
-2.7913094 -2.8994293 -5.3098955 10.5
-2.3462453 -2.9012663 -5.2880011 10.352942
-1.9948401 -2.8780258 -5.2649035 10.5
-1.7881821 -2.705657 -5.2669158 13
-2.825177 -2.5758746 -5.3243699 15
-2.3737476 -2.6436639 -5.2974863 14.25
-2.0174742 -2.6195593 -5.2763896 14.5
-4.2185621 -3.270792 -4.2909513 6
-2.9669633 -3.2139027 -4.4957004 5
-2.7824411 -3.2112589 -4.6570663 5
-1.7479706 -3.1180947 -5.2469559 6.5
-1.6208067 -2.8562951 -5.2378325 10.5
-1.7380823 -2.6034274 -5.2605934 14.5
-3.2555909 -3.2158885 -4.122272 5
-3.1039977 -3.215261 -4.3473482 5
-1.7002367 -3.0850995 -4.5681992 6
-1.6344355 -2.8786385 -4.5902553 11.071428
-0.80041289 -2.7714396 -4.777432 11
-0.79112577 -2.7973423 -4.8759441 10.5
-0.82325685 -2.5170648 -4.7660928 15
-0.80054212 -2.5616324 -4.8866138 14
-2.989512 -3.3612726 -3.5699532 3
-2.7583556 -3.3462145 -3.6352265 3
-1.5739474 -3.097064 -4.2922668 5
-1.2543553 -3.0813832 -4.2494898 5.3333335
-0.87159765 -3.0259492 -4.4620628 6.75
-1.5296674 -2.8646066 -4.425559 11.5
-1.3212875 -2.8604751 -4.3934708 11.071428
-0.8163799 -2.7990153 -4.5076809 10.8125
-0.82172942 -2.5652184 -4.5943775 14.666667
-2.5917487 -3.3345783 -3.646697 3
-2.3600087 -3.3175538 -3.6073856 3
-1.0000494 -3.0482757 -3.9292345 5.25
-0.83213365 -3.0443935 -4.1133094 6
-0.93955088 -2.8067143 -3.9338446 11.111111
-0.86052239 -2.7802012 -4.1069756 11.566667
-2.7478273 -3.0884156 -2.883081 5.5
-0.93993425 -3.0146241 -3.5516722 5.6363635
-2.7580056 -2.8854654 -2.8820474 11.5
-0.93145597 -2.7863569 -3.6179037 11.5
-2.7427795 -3.075386 -2.6208291 5.875
-2.4282286 -3.1165648 -2.6030974 4
-1.1705124 -3.0629413 -3.0409441 4
-0.91551781 -2.9917424 -3.1522391 6
-2.7646914 -2.8439579 -2.5945525 11.52
-0.92658246 -2.7671587 -3.2422285 11.5
-2.7205071 -3.0657494 -2.1699157 6.125
-2.2447331 -3.097295 -2.3368416 4.5
-1.8901076 -3.0846779 -2.5344234 4
-1.5449833 -3.0703783 -2.6587684 4
-0.91843569 -2.986722 -2.6350398 6
-0.91478527 -2.9997354 -2.8445287 5.75
-2.7726855 -2.7899249 -2.145884 11.25
-0.92477334 -2.7058234 -2.6115186 11.5
-0.92528319 -2.7241971 -2.8642626 11.727273
-2.7857084 -2.5700829 -2.1226068 15
-2.7643688 -3.0375264 -1.6912814 6.6666665
-2.0817943 -3.0811954 -2.1131759 5
-1.7440068 -3.0637748 -2.1482234 5
-1.4746207 -3.0521643 -2.2375886 5
-0.96683025 -2.979826 -2.4031656 6.125
-2.7788272 -2.7846453 -1.7080441 10.357142
-0.92577839 -2.6998811 -2.3697209 11.058824
-2.7926133 -2.4976697 -1.6883923 14.333333
-0.94084692 -2.4714584 -2.3140192 14.75
-2.7022214 -3.0442457 -1.283581 6.5
-0.91428936 -2.9684367 -1.9641631 6.3333335
-2.7817335 -2.7645102 -1.3274903 10
-0.92842937 -2.7063785 -1.9801228 10.230769
-2.7978392 -2.4281449 -1.367022 14.142858
-0.94553089 -2.4185517 -1.8948816 14.125
-2.7734044 -3.0025091 -1.0313399 7
-2.266793 -3.0589569 -1.1704204 6
-1.8835465 -3.038064 -1.1795721 6
-1.5039432 -3.019963 -1.2261963 6
-1.0331837 -2.9794998 -1.3996444 6.25
-0.92020023 -2.917325 -1.6230191 7
-2.7871437 -2.7463231 -0.74847531 9.5
-2.7852361 -2.7691729 -0.97106767 9.5
-0.93113971 -2.7180877 -1.4717174 9.3999996
-0.93430781 -2.663636 -1.676133 10.333333
-2.8080938 -2.3364673 -0.76325917 13.5
-2.8042712 -2.3906276 -0.98592305 13.5
-0.95149732 -2.3398001 -1.4348319 13.8
-0.94799829 -2.3679681 -1.6319056 14
-0.92553473 -2.9094307 -1.1864221 7
-2.7899179 -2.7438688 -0.48619127 9.2857141
-0.93787277 -2.6665583 -1.1222575 9.6000004
-2.8080266 -2.3593616 -0.47906542 12.714286
-0.95710802 -2.2798018 -1.1193545 13.636364
-2.8232217 -2.0974488 -0.49478602 15
-2.7823532 -2.9869347 -0.1301074 7
-0.93298733 -2.8972261 -0.49299955 7
-2.7927859 -2.7456765 -0.14742804 9
-0.94430852 -2.6478653 -0.72626424 9.3999996
-2.8120632 -2.3791285 -0.15836406 12
-0.96226013 -2.2965431 -0.70059323 12.625
-2.8261762 -2.0674572 -0.17789388 14.5
-0.97228551 -2.0282397 -0.70247269 15
-0.94851112 -2.6680675 -0.14540505 8.8000002
-0.94564664 -2.6661706 -0.43154645 9
-0.96827722 -2.30336 -0.18630743 11.75
-0.96511114 -2.2546387 -0.42277336 12.5
-0.98192573 -1.9656155 -0.17242956 14.333333
-0.98130751 -1.9575539 -0.45343781 15
-0.95364738 -2.5906186 0.089321375 9.25
-0.97300291 -2.200269 0.050597668 12.2
-0.98910832 -1.8576173 0.056358099 14.666667
-0.81042421 -2.8639288 1.0600331 7
-0.92898881 -2.6222744 1.053612 8.5
-0.8252219 -2.6163335 1.0439093 8.5
-0.94965553 -2.2072833 1.0424278 11
-0.84611034 -2.200191 1.0317066 11
-0.97024477 -1.7826105 1.0332901 13.5
-0.8685739 -1.7761511 1.0148637 13.5
-0.9848814 -1.5230601 1.0195487 15
-0.8807584 -1.5130262 1.0109746 15
-2.8646293 -2.9518247 2.1424959 7
-2.365335 -2.924993 2.125067 7
-3.1314831 -2.665235 2.1206934 8.5
-2.7958035 -2.649014 2.1266067 8.5
-2.4636056 -2.6329966 2.1241815 8.5
-0.96876478 -2.6037984 1.3549407 8.5
-3.16274 -2.2976203 2.0986097 10.333333
-2.8166695 -2.2490449 2.1147907 10.5
-2.4841375 -2.2359345 2.1097958 10.5
-0.98642421 -2.2530251 1.3448117 10.5
-3.1728549 -1.8536578 2.0905125 12.5
-2.8369133 -1.8441997 2.0957916 12.5
-2.5053816 -1.8313364 2.1025822 12.5
-1.0057418 -1.8016422 1.3471868 13
-3.1947691 -1.4342874 2.077399 14.5
-2.8581214 -1.4289768 2.080426 14.5
-2.5263827 -1.4188707 2.0843956 14.5
-1.0234635 -1.4314591 1.340637 15
-1.9140378 -2.9008465 2.1408799 7
-1.4608854 -2.8776174 2.1335762 7
-2.2579417 -2.6223314 2.1267393 8.5
-1.9292616 -2.6049104 2.1272943 8.5
-1.4961232 -2.5810697 2.1293638 8.5
-1.1825104 -2.5628142 2.1343801 8.5
-0.97584224 -2.5815887 1.6865618 8.5
-2.2783952 -2.2257314 2.1126893 10.5
-1.9498723 -2.2078354 2.1171596 10.5
-1.5512803 -2.1847808 2.1143014 10.5
-1.2243629 -2.162693 2.1197336 10.5
-0.99218535 -2.2057481 1.6883929 10.5
-2.2991486 -1.8232427 2.0991027 12.5
-1.9705738 -1.8050908 2.1030157 12.5
-1.5593148 -1.7589083 2.1014221 12.6
-1.2247247 -1.7541444 2.1031954 12.5
-1.010057 -1.8240217 1.6840708 12.5
-2.3205047 -1.4102328 2.0857947 14.5
-1.9919336 -1.3931063 2.0856349 14.5
-1.5788326 -1.386421 2.0859439 14.4
-1.2464608 -1.3367034 2.0877602 14.5
-1.0286214 -1.4312423 1.6787713 14.5
-0.9656167 -2.8535643 2.0898583 7
-1.0149113 -2.5878029 2.1175487 8.333333
-1.0488061 -2.1533425 2.098089 10.5
-1.0562605 -1.777352 2.0918133 12.333333
-1.0783037 -1.3604558 2.0747736 14.333333
1.2142408 -1.7941697 8.1189079 9
1.1919179 -1.3696427 8.102746 10
1.1754222 -0.93877912 8.1081171 11
1.1481853 -0.51094818 8.0750875 12
1.1281114 -0.072860003 8.0688791 13
-4.8787799 -3.1524713 -5.1240492 8.0205002
-2.3474889 -2.7620001 -5.2895966 12.6755
-2.353729 -2.6288006 -5.29072 14.6755
-1.6171641 -2.8234801 -5.2499771 11.164
-1.6279615 -2.5933325 -5.2618933 14.664
-1.6140487 -2.7254391 -4.5098586 15.1595
-1.5318631 -2.960021 -4.4299693 9.1569996
-1.4375813 -2.828685 -4.4147339 12.254499
-0.86924183 -2.6444957 -4.077054 14.639
-2.7719035 -2.8101702 -2.9422953 14.253299
-0.92173922 -2.7528327 -3.2012818 12.332679
-0.96026051 -2.5421505 -2.5512288 15.105
-2.7438576 -3.1367211 -2.6761391 5
-0.92695081 -3.0660057 -3.2298071 5
-2.746809 -3.1014056 -2.6761036 6
-0.84067523 -3.0769985 -3.9978623 6
-0.85925961 -3.0590894 -3.6236219 6
-0.84556305 -3.068876 -3.8398533 6
-1.6290092 -3.0797398 -4.5788407 7
-1.2922311 -3.0605855 -4.4181509 7
-0.80684853 -3.0536788 -4.6616611 7
-1.5250926 -3.0703876 -4.4515457 7
-0.93578249 -2.984725 -2.8264802 7
-0.93128633 -2.9814758 -2.667743 7
-2.7436357 -3.0650821 -2.6442745 7
-0.92286241 -3.0049336 -3.5999129 7
-2.7538183 -3.0600934 -2.3436172 7
-0.90426934 -2.9920416 -3.1829207 7
-0.96129894 -2.9696043 -1.8651397 7
-0.82949424 -3.04355 -4.3728018 7
-0.93373871 -2.9898825 -3.0629551 7
-0.86827028 -3.0182469 -3.5699697 7
-2.7644761 -3.0574248 -2.1470287 7
-0.83527267 -3.0350308 -4.1302776 7
-0.92583442 -2.9757445 -2.3505769 7
-3.2758 -3.1914322 -5.3408308 7
-2.1301486 -3.1327744 -5.3092279 7
-4.9413481 -3.1592064 -5.4223738 8
-1.6312785 -3.0320106 -4.5793705 8
-1.2966514 -3.0139949 -4.4149189 8
-0.96042866 -2.776448 1.0398777 8
-0.94933355 -2.9185591 -2.1246517 8
-0.93396372 -2.9393082 -2.6695414 8
-0.93722725 -2.9452612 -2.8275366 8
-1.525179 -3.0258882 -4.4584255 8
-0.93668944 -2.9542644 -3.0959313 8
-2.7586787 -3.011373 -2.2246966 8
-0.92397308 -2.9576724 -3.2324283 8
-0.81251419 -2.9901881 -4.617732 8
-0.94628274 -2.9325609 -2.4740322 8
-4.2058182 -3.1359839 -5.3881168 8
-0.83999157 -2.9849911 -4.0522494 8
-0.8512435 -2.9827416 -3.8409097 8
-2.1310759 -3.0602167 -5.288312 8
-0.94491374 -2.9259815 -2.311286 8
-1.6348221 -2.984493 -4.5740638 9
-1.2755986 -2.9658101 -4.4179773 9
-2.7690907 -2.9537888 -2.0783551 9
-0.83631134 -2.9335756 -4.3735218 9
-1.528561 -2.9813559 -4.4552784 9
-0.92294526 -2.9302034 -3.603096 9
-0.97454739 -2.816865 -1.4483235 9
-0.87190652 -2.9410481 -3.5717807 9
-2.7565312 -2.9983704 -2.7276187 9
-2.7783377 -2.9296381 -1.7553661 9
-1.4251325 -2.9758756 -4.4148574 9
-0.96261954 -2.8431964 -1.8165812 9
-0.94603461 -2.8878584 -2.4981647 9
-2.1364906 -2.9881709 -5.312222 9
-4.5882907 -3.0289581 -5.4092112 9
-0.81089258 -2.927151 -4.6668396 9
-4.1489954 -3.0268159 -5.3937483 9
-2.7453804 -2.9752948 -2.8752103 10
-1.6357425 -2.9363809 -4.5808125 10
-1.3050473 -2.9215014 -4.4092116 10
-2.741715 -2.9676411 -2.7721443 10
-2.7501884 -2.9570024 -2.6459489 10
-0.95398241 -2.8095398 -2.1276965 10
-1.5134795 -2.9358165 -4.4491239 10
-0.93896067 -2.8658352 -2.8290899 10
-0.94606262 -2.856051 -2.6774535 10
-0.82187653 -2.8667052 -4.6159964 10
-2.7663212 -2.9169214 -2.2229073 10
-0.9542166 -2.8273084 -2.3191769 10
-0.9496339 -2.8404632 -2.4761989 10
-2.7599688 -2.9343064 -2.3992405 10
-4.5892563 -2.9096608 -5.4089117 10
-0.96818656 -2.7595594 -1.6160609 10
-0.91912282 -2.8694496 -2.9275048 10
-3.5195312 -2.9291682 -5.3593078 10
-0.9339509 -2.8788247 -3.06516 10
-4.1483369 -2.9194427 -5.3914003 10
-2.5803354 -2.9263754 -5.335115 10
-0.86024415 -2.8994188 -3.7026939 10
-2.7480307 -2.9433482 -2.8754833 11
-1.6377871 -2.8881357 -4.5824833 11
-1.274394 -2.8697915 -4.4302921 11
-2.7406926 -2.9344165 -2.7746906 11
-0.95787442 -2.7550023 -2.1310809 11
-0.90084815 -2.8474252 -3.3421152 11
-0.95544225 -2.815316 -2.6835399 11
-2.7595768 -2.8856566 -2.3509226 11
-2.7697601 -2.8606591 -2.1574817 11
-1.5303646 -2.8908296 -4.4643197 11
-0.96652019 -2.7222788 -1.8640889 11
-0.93475562 -2.8431537 -3.0977952 11
-2.7546971 -2.9104438 -2.8737607 12
-1.64078 -2.8400793 -4.5798006 12
-1.2794298 -2.822473 -4.4261694 12
-1.5359213 -2.8468971 -4.4544554 12
-0.83506918 -2.7615201 -4.4210105 12
-0.96053487 -2.6997416 -2.1329854 12
-0.91221118 -2.8135395 -3.4357839 12
-0.90974867 -2.8111851 -3.3432057 12
-0.85539019 -2.8125193 -3.7662745 12
-2.769026 -2.8436961 -2.3702536 12
-0.91423702 -2.8062637 -3.1889203 12
-0.98637187 -2.5944662 -1.4586356 12
-0.93187249 -2.8177145 -3.6056395 12
-2.7739346 -2.7988825 -2.0858197 12
-0.91834998 -2.7896419 -2.9282894 12
-0.93089664 -2.7730014 -2.7295699 12
-0.97195184 -2.6605685 -1.8698748 12
-0.94142258 -2.729681 -2.3624003 12
-1.4304748 -2.8405023 -4.4198427 12
-4.9618959 -2.6380637 -5.4345264 12
-4.3726892 -2.6860969 -5.4105444 12
-3.2976742 -2.7544568 -5.3562126 12
-2.5864325 -2.7725294 -5.3367863 12
-2.7527719 -2.8783679 -2.8763688 13
-1.3043071 -2.7771814 -4.4262381 13
-1.6245127 -2.7907121 -4.5731316 13
-1.587604 -2.672394 -5.2740202 13
-0.86660147 -2.7829642 -3.5286133 13
-2.7667646 -2.8004317 -2.3762088 13
-0.85852885 -2.769697 -3.7667093 13
-1.5181642 -2.7988751 -4.4566441 13
-0.83548331 -2.7028587 -4.4248247 13
-0.93035001 -2.7468641 -2.8807056 13
-0.96248579 -2.6436021 -2.134027 13
-0.91659153 -2.7762179 -3.436702 13
-0.85272396 -2.7727647 -3.692857 13
-0.85665369 -2.7509227 -4.0048413 13
-2.7900097 -2.6810384 -1.7613946 13
-0.92453504 -2.7764668 -3.3442163 13
-0.94243103 -2.7329614 -2.736459 13
-0.98133409 -2.551203 -1.6289546 13
-2.1462703 -2.6993608 -5.2895055 13
-4.3762169 -2.5702784 -5.4122219 13
-3.5324097 -2.6486847 -5.3673172 13
-2.7463698 -2.8471336 -2.8812125 14
-2.7602692 -2.8231678 -2.735348 14
-1.3251531 -2.7301242 -4.4335775 14
-1.6288503 -2.7432444 -4.5648556 14
-1.5906492 -2.5972767 -5.2775888 14
-1.0002532 -1.8220369 1.0232213 14
-0.94013572 -2.7083001 -2.8854094 14
-0.93160784 -2.7415106 -3.4365487 14
-0.84668314 -2.6519408 -4.3827581 14
-0.86899507 -2.7428849 -3.5294149 14
-2.7670622 -2.7613606 -2.4048319 14
-0.85913956 -2.7256384 -3.7684579 14
-0.92826241 -2.7391255 -3.3453698 14
-0.9409039 -2.6888068 -2.7357788 14
-0.93630004 -2.7309511 -3.1319234 14
-0.87401962 -2.7390864 -3.6312227 14
-0.96273017 -2.6240821 -2.3247924 14
-0.94965398 -2.6532598 -2.4997215 14
-0.85521305 -2.7302017 -3.6936419 14
-0.91414154 -2.7361672 -3.3918324 14
-0.93412179 -2.7416482 -3.5446086 14
-0.98397124 -2.4794142 -1.630146 14
-0.82586002 -2.604125 -4.6741152 14
-4.2403135 -2.4708018 -5.4105392 14
-2.7476015 -2.813971 -2.8822689 15
-1.3266122 -2.680202 -4.436305 15
-1.5927691 -2.5192947 -5.287241 15
-1.0109748 -1.6612059 1.0028999 15
-0.93131387 -2.6899006 -3.1318426 15
-0.94330961 -2.6673732 -2.8872552 15
-0.93947244 -2.6436737 -2.7351589 15
-0.92454755 -2.7002442 -3.4386597 15
-0.84530127 -2.5918233 -4.3884826 15
-0.87324595 -2.7027836 -3.529695 15
-0.87035036 -2.6954002 -3.6344023 15
-0.93547636 -2.6983166 -3.240484 15
-0.86785007 -2.6887422 -3.7086248 15
-0.91691244 -2.6974587 -3.3929911 15
-0.98243636 -2.4574962 -1.8321604 15
-0.85149324 -2.6324935 -4.1416163 15
-4.9771137 -2.2337155 -5.4434366 15
-0.93218213 -2.7014871 -3.5465977 15
-5.0581646 -3.2963319 -5.4394264 7
-5.5685883 -2.9560175 -5.4576755 9.5
-5.1727734 -3.0299978 -5.4391212 9
-4.893259 -3.0290999 -5.4300804 9
-5.5900927 -2.656436 -5.4622993 11.5
-5.2142701 -2.6149127 -5.4526234 12
-4.9066129 -2.6418853 -5.4376879 12
-5.6392589 -2.2678237 -5.4806175 14
-5.2323704 -2.2589235 -5.4607038 14.5
-4.8810859 -2.3376806 -5.4492435 14.333333
-4.9791689 -3.2761898 -5.0156894 7
-4.5857658 -3.2676477 -5.4093313 7
-4.3216124 -3.2519815 -5.396822 7
-3.7811337 -3.2206731 -5.3794107 7
-3.478729 -3.2032225 -5.3604026 7
-4.720108 -3.0289555 -5.4231701 9
-4.324666 -2.9719493 -5.4037066 9.5
-3.9375298 -2.9797566 -5.3883648 9.4444447
-3.5338233 -2.974581 -5.3708925 9.5
-4.7071309 -2.6233518 -5.4314499 12.285714
-4.359827 -2.6004419 -5.4172249 12.75
-3.9562309 -2.5512776 -5.401907 13.555555
-3.5359743 -2.5934455 -5.3785524 13.555555
-4.7388344 -2.2736735 -5.4421692 15
-4.3593907 -2.3365357 -5.4217067 15
-4.1073713 -2.3769274 -5.403389 15
-3.3823111 -3.2448013 -5.1649647 6.3333335
-3.0773916 -3.220947 -5.3147697 6.5
-2.7228737 -3.1815503 -5.3219457 6.75
-2.1290407 -3.1320949 -5.2943277 7
-3.3470585 -2.9742503 -5.3602161 9.5
-3.0675447 -2.9300153 -5.3508892 10
-2.6968315 -2.9281759 -5.3285742 10
-2.1270435 -2.8788841 -5.3017569 10.5
-2.0212607 -2.8752246 -5.3022346 10.5
-3.3588855 -2.6141376 -5.369019 13.5
-3.0821304 -2.5901268 -5.3564329 14
-2.7202373 -2.6030302 -5.3384104 14.1
-2.1519589 -2.6204922 -5.3108168 14
-2.0358138 -2.5430157 -5.3063622 15
-3.9748952 -3.2785726 -4.4386659 6
-3.7679107 -3.2771273 -4.7265835 6
-1.8889976 -3.1208985 -5.2830801 7
-1.8324635 -2.8548241 -5.2857695 10.666667
-1.5874186 -2.8541288 -5.2819014 10.5
-1.8688464 -2.5814998 -5.2991142 14.4
-1.6201851 -2.5585873 -5.2926664 14.5
-2.7889395 -3.2243187 -4.3678398 5
-2.581104 -3.2178679 -4.4919615 5
-0.7927357 -3.0573571 -4.7693014 7
-1.6552098 -2.9175725 -4.6427751 10.333333
-0.80235565 -2.8317091 -4.9188676 10.272727
-0.81344354 -2.539427 -4.9653888 14.2
-3.0851591 -3.2270145 -4.0385203 5
-2.9352484 -3.2260153 -4.2298484 5
-1.5690691 -3.1049883 -4.39748 6
-1.3540982 -3.0623958 -4.408926 7
-0.81042504 -3.0624528 -4.5140691 6.75
-1.5340276 -2.8829758 -4.4906826 11.1
-1.2913723 -2.8794971 -4.4420824 10.823529
-0.81789672 -2.8267417 -4.5414515 10.7
-0.82899201 -2.5694776 -4.5886397 14.75
-1.4613357 -3.1589308 -4.1112995 4
-1.1496749 -3.1406078 -4.1393161 4.6666665
-0.83504784 -3.0826583 -4.1068726 6
-0.84078491 -2.8117557 -4.114378 11.5
-0.8402288 -2.6032376 -4.3124065 15
-0.90576828 -3.081491 -3.6162093 5.25
-0.84347641 -3.0419552 -3.8920345 6.6666665
-0.87912846 -2.8350215 -3.6336083 11.5
-0.84592068 -2.8937542 -3.8873997 10
-2.7427933 -3.1180568 -2.7730711 5.5
-2.471571 -3.3611197 -3.0296261 3
-2.1702404 -3.3380396 -3.1599777 3
-0.92303562 -3.0440998 -3.2636733 5.6363635
-2.7521915 -2.9043391 -2.7854798 11.888889
-0.92370248 -2.8285444 -3.2455525 11.478261
-2.7460878 -3.1056731 -2.4892163 5.875
-2.4447403 -3.1490245 -2.4377377 4
-1.1595649 -3.0953984 -2.7178912 4
-0.92389619 -3.0192716 -2.8318865 6.1428571
-2.766737 -2.8722544 -2.4655876 11.615385
-0.93073964 -2.8290005 -2.8482378 10.923077
-2.7268608 -3.1039689 -2.0819545 6
-2.2982223 -3.1310699 -2.0886846 4.6666665
-1.9062877 -3.1191466 -2.3125362 4
-1.4784428 -3.1026478 -2.4284313 4
-0.93904316 -3.0347126 -2.3822992 5.8000002
-0.92632699 -3.0680108 -2.577491 5
-2.7824478 -2.835597 -2.0427084 11.176471
-0.94512969 -2.740562 -2.4804523 12.1
-0.94061077 -2.7692826 -2.6317391 11.875
-2.7959046 -2.5932193 -1.9202754 15
-2.7896624 -3.0851471 -1.4722574 6.5
-2.777148 -3.072592 -1.7497324 6.6666665
-2.115443 -3.1178083 -1.9051968 5
-1.7621577 -3.1013389 -1.9128203 5
-1.3761215 -3.0860164 -2.0324402 5
-0.96838194 -3.0184577 -2.066329 6.1666665
-2.7951207 -2.8201566 -1.6249763 10.5
-2.7893548 -2.8351488 -1.7972385 10.6
-0.95326269 -2.7471783 -2.1116586 11.0625
-2.8057561 -2.5561957 -1.6103548 14.333333
-2.7974076 -2.5761273 -1.775627 14.666667
-0.96327281 -2.5222869 -2.113606 15
-2.7782269 -3.0642929 -1.1459613 6.75
-0.95439911 -2.9894612 -1.7040633 6.6666665
-2.8097534 -2.8045702 -1.1780183 10
-0.96410906 -2.737457 -1.7337919 10.5
-2.8240499 -2.4785998 -1.1967256 14
-0.97849524 -2.4652548 -1.7272255 14.5
-2.8061531 -3.041594 -0.88098788 7
-2.413718 -3.105319 -0.99976087 6
-1.976836 -3.0833659 -0.9623878 6
-1.5227745 -3.0629537 -1.013027 6
-1.1667528 -3.0492675 -1.1060903 6
-0.96835047 -2.981271 -1.2676831 6.75
-2.8205264 -2.8080859 -0.78928685 9.5
-0.97940052 -2.7226329 -1.2648826 10
-2.8368883 -2.4421453 -0.81712818 13.4
-0.99285746 -2.5236959 -1.0449791 12
-0.99449229 -2.3980894 -1.2793127 14
-0.97528398 -2.9583313 -0.98884153 7
-2.8364353 -2.8098679 -0.21806765 9
-2.8322754 -2.788043 -0.46697235 9.3999996
-0.9950701 -2.7025528 -0.82141995 9.6999998
-2.8558788 -2.4107461 -0.22378254 12.5
-2.8495793 -2.3601451 -0.50299764 13.5
-1.0118061 -2.3318212 -0.81192255 13.545455
-2.8689525 -2.1174116 -0.23223186 15
-2.8570223 -2.1724515 -0.42177367 15
-2.8322389 -3.0317202 -0.014296532 7
-1.0036948 -2.949718 -0.21819758 7
-2.8429134 -2.7941594 -0.020819187 9
-1.0039436 -2.7308564 -0.46938038 9.1111107
-2.8585141 -2.4341352 -0.032835484 12
-1.0212686 -2.3545921 -0.41994882 12.555555
-2.8737457 -2.1241031 -0.036545515 14.5
-1.0333281 -2.082783 -0.4382503 15
-1.0189276 -2.7083654 -0.024798393 9
-1.0367454 -2.3137665 -0.044225454 12.285714
-1.0499513 -2.0027404 0.00031208992 14.666667
-1.0283928 -2.7017343 1.0425832 8.5
-1.0455624 -2.3102567 1.0321906 11
-1.0642866 -1.9123307 1.0156825 13.5
-1.073509 -1.6637132 1.0169446 15
-0.95170105 -2.9318721 1.0523822 7
-1.0274352 -2.6679063 1.1631916 8.666667
-1.0278902 -2.2953215 1.1224105 11
-1.0602928 -1.9084867 1.1445901 13.333333
-1.1068189 -1.6168284 1.187567 15
-2.9153023 -3.0096118 2.0955145 7
-2.4816189 -2.9885166 2.1011074 7
-2.0538421 -2.9680159 2.1288698 7
-3.206687 -2.7348425 2.0695574 8.5
-2.8274808 -2.7193174 2.0791924 8.5
-2.4483202 -2.6834555 2.0925095 8.6000004
-2.0673475 -2.6539233 2.0952566 8.666667
-1.0707102 -2.6731424 1.5270569 8.5
-3.2247381 -2.3474331 2.0613639 10.5
-2.8442645 -2.3367896 2.0665925 10.5
-2.4657416 -2.3021903 2.0868299 10.6
-2.0841875 -2.2748363 2.081568 10.666667
-1.1054732 -2.1904116 1.8589785 11
-1.0868566 -2.3286595 1.5124533 10.5
-3.2412767 -1.9552946 2.0460136 12.5
-2.8421206 -1.9478111 2.0571721 12.5
-2.430294 -1.9353403 2.0666749 12.5
-2.0998473 -1.922004 2.0716579 12.5
-1.1126089 -2.0019724 1.860811 12
-1.1035135 -1.8859324 1.515939 13
-3.2598038 -1.5521954 2.0368111 14.5
-2.8789296 -1.5514302 2.0413039 14.5
-2.4916687 -1.5216067 2.053015 14.6
-2.1370687 -1.5265503 2.0673316 14.5
-1.1285541 -1.6189601 1.8560154 14
-1.1183945 -1.5219902 1.5123451 15
-1.5862794 -2.9468195 2.1142833 7
-1.1923716 -2.9293256 2.1174176 7
-1.9091991 -2.7088366 2.1109798 8.333333
-1.5688519 -2.660759 2.1131427 8.5
-1.1783633 -2.6582828 2.062856 8.4285717
-1.9261084 -2.3290524 2.0998018 10.333333
-1.5952964 -2.2793601 2.1061137 10.5
-1.2359757 -2.2755597 2.0799105 10.428572
-1.9057894 -1.9103525 2.0845988 12.5
-1.5933465 -1.8921607 2.0882037 12.5
-1.1980331 -1.854172 2.0531065 12.6
-1.9233587 -1.5170321 2.066376 14.5
-1.6208225 -1.4960884 2.0767829 14.5
-1.2492601 -1.4424388 2.0505526 14.666667
0.81294203 -1.9435084 8.1585665 9
0.99233699 -1.9317454 8.1737108 9
0.79770541 -1.5274661 8.1596823 10
0.96991658 -1.5174024 8.1460991 10
0.77891731 -1.1102958 8.1464252 11
0.9554069 -1.0963153 8.149929 11
0.75753808 -0.69169974 8.1227732 12
0.9361341 -0.67413902 8.1355629 12
0.74027658 -0.26484108 8.1172476 13
0.91570878 -0.24832129 8.1172686 13
-4.9786282 -3.1537127 -5.0212893 8.0229998
-2.662123 -2.5715785 -5.346734 14.5025
-1.6336606 -2.6891096 -4.591033 15.1665
-1.4851463 -2.7322974 -4.4731078 14.448428
-0.87382269 -2.7403188 -3.6937375 13.939051
-0.86299598 -2.6656191 -3.9086285 15.1435
-2.7505975 -2.8988914 -2.7509654 12.2205
-2.7739787 -2.7673168 -2.4843135 14.5595
-0.90748429 -2.7430494 -2.9948728 13.9209
-2.7893317 -2.7265759 -2.1788397 14.064
-0.93602532 -2.7542982 -2.4598498 12.290635
-0.9514845 -2.578701 -2.2275448 15.105
-2.8107238 -2.5896637 -1.7115686 14.5685
-5.3547587 -2.7021186 -3.0231907 5
-7.1889267 -2.845221 -3.7662852 5
-7.2223959 -2.814162 -2.8762207 5
-5.3563533 -2.7015631 -2.8095617 5
-7.2218604 -2.8193924 -3.1932786 5
-5.3498354 -2.7029283 -2.690557 5
-5.3603373 -2.6702328 -3.0252361 6
-5.3547335 -2.6661658 -2.4558303 6
-7.3030982 -2.8162193 -3.9542227 6
-7.2057424 -2.7937937 -3.4932129 6
-7.2261019 -2.7723386 -2.4767101 6
-5.3632903 -2.6678629 -2.873456 6
-5.3525372 -2.66713 -2.8080063 6
-7.2393045 -2.7775106 -2.8715069 6
-5.3496261 -2.6663132 -2.6905084 6
-7.2099109 -2.7828863 -3.210567 6
-7.2490082 -2.7118409 -1.7127796 7
-5.0333219 -2.7196395 -5.2270479 7
-7.3524685 -2.8309467 -5.1281962 7
-6.9521613 -2.8092263 -5.1571307 7
-6.7079287 -2.796567 -5.1743279 7
-5.361526 -2.62603 -2.5054944 7
-7.3099365 -2.771533 -3.959105 7
-7.2033997 -2.7623875 -3.6034017 7
-5.3473272 -2.6323206 -2.8057723 7
-7.14221 -2.8189881 -5.1354523 7
-7.2327294 -2.7270703 -2.45052 7
-5.3621855 -2.6090205 -1.6225187 7
-7.317699 -2.7965457 -4.4749832 7
-7.2288303 -2.7224429 -2.2664719 7
-7.2354298 -2.7453413 -3.0873511 7
-5.3601141 -2.6142251 -1.9108963 7
-7.2100039 -2.7473106 -3.1970937 7
-7.3095884 -2.7812705 -4.1677785 7
-5.9136443 -2.7587674 -5.2269793 7
-0.79942894 -2.3247018 -4.0116463 8
-5.0295029 -2.6374516 -5.2431417 8
-4.5719509 -2.6100185 -5.2620115 8
-1.6497927 -2.402391 -4.6615558 8
-7.3507986 -2.7531092 -5.1208677 8
-6.9589615 -2.7371056 -5.1683102 8
-5.3603911 -2.5836821 -2.4599197 8
-7.3190198 -2.7214141 -3.7681413 8
-7.1968508 -2.7306497 -3.7711587 8
-7.3061476 -2.7259243 -3.9561572 8
-7.2020655 -2.7224579 -3.4941297 8
-5.3622856 -2.6011524 -2.873879 8
-7.2141838 -2.702117 -2.9356155 8
-7.2227044 -2.7087064 -3.0913923 8
-7.2053394 -2.7127838 -3.2135477 8
-5.3572674 -2.5983367 -2.8109434 8
-7.2496433 -2.6976523 -2.7999053 8
-6.7124262 -2.7261302 -5.1805716 8
-5.3610644 -2.5438502 -1.6164155 8
-7.2362962 -2.6837559 -2.4990964 8
-7.3222065 -2.7387433 -4.4788365 8
-7.1485453 -2.7449508 -5.1435337 8
-7.3300905 -2.733129 -4.2159529 8
-7.3411903 -2.7455502 -4.7647562 8
-0.82683945 -2.1341183 -4.0156994 9
-1.6564426 -2.2339377 -4.6679449 9
-4.5815806 -2.5181627 -5.2592163 9
-7.3624797 -2.6760547 -5.1371388 9
-5.3507128 -2.5628579 -2.8080575 9
-7.3060741 -2.6808338 -3.9559474 9
-7.2409339 -2.6358039 -2.4507725 9
-7.2177429 -2.6652772 -2.9362917 9
-7.2451897 -2.670568 -3.0412955 9
-5.3636069 -2.5111649 -2.0301926 9
-7.3351765 -2.6797695 -4.6597314 9
-7.3153052 -2.68139 -4.2009773 9
-5.3610916 -2.5277791 -2.2557499 9
-7.21454 -2.676908 -3.1845522 9
-3.5630774 -2.4275854 -5.2763915 9
-6.0154047 -2.6220798 -5.1952248 9
-6.2183022 -2.6326237 -5.2143021 9
-4.201324 -2.4854167 -5.2614794 9
-6.9235225 -2.6632934 -5.1502066 9
-0.82477713 -1.940086 -4.0240321 10
-1.660553 -2.0643775 -4.6751728 10
-7.3614893 -2.5984507 -5.1310225 10
-5.3691778 -2.5348761 -2.8776076 10
-5.3668499 -2.4458325 -1.9137166 10
-3.5781119 -2.3102162 -5.2736001 10
-7.2312198 -2.6125872 -2.7201271 10
-7.3212347 -2.6296296 -4.2360301 10
-5.3692608 -2.505908 -2.5109186 10
-7.234376 -2.6366916 -3.0923185 10
-4.5986481 -2.4276114 -5.2472873 10
-4.2686572 -2.3911426 -5.2611217 10
-5.3592396 -2.5409706 -3.0008147 10
-5.3673291 -2.5143456 -3.0828075 11
-0.83942032 -1.7468663 -4.0299873 11
-7.3729429 -2.5193906 -5.1467791 11
-7.3152938 -2.5811708 -4.1703892 11
-5.373404 -2.4659793 -2.5140495 11
-7.2146807 -2.6067054 -3.1872954 11
-7.2344065 -2.5718243 -2.720907 11
-7.2196746 -2.6016078 -3.0966687 11
-7.3101034 -2.5903561 -3.9586031 11
-7.3477345 -2.5519111 -4.6723099 11
-5.3574634 -2.5078464 -3.0009978 11
-5.3664579 -2.3821347 -1.8670192 11
-7.2105236 -2.6147954 -3.7788141 11
-7.1660285 -2.5192957 -5.1641688 11
-4.5948849 -2.3336179 -5.2609186 11
-7.2639484 -2.3849833 -1.7267499 12
-5.3641057 -2.4813728 -3.0830429 12
-0.85670757 -1.5528494 -4.0356045 12
-1.6632223 -1.7194957 -4.6916289 12
-7.3723488 -2.4410985 -5.1413221 12
-7.234621 -2.576947 -3.4270618 12
-7.2236829 -2.5711257 -3.2026839 12
-7.2566195 -2.4344919 -2.0307627 12
-5.3733921 -2.3886216 -2.2663212 12
-7.2286596 -2.578269 -3.5185778 12
-7.1956649 -2.5773189 -3.7719982 12
-7.2440157 -2.5010309 -2.4828184 12
-7.2539206 -2.5585675 -3.0444031 12
-7.2514324 -2.5385318 -2.8082991 12
-6.2291174 -2.4198959 -5.2271242 12
-6.4033828 -2.4306114 -5.2045383 12
-5.3729115 -2.3322535 -1.9179386 12
-7.3216734 -2.553103 -3.7706227 12
-7.2484083 -2.4709282 -2.2684033 12
-7.3501906 -2.4873512 -4.6733513 12
-5.3705835 -2.4501762 -3.0849955 13
-1.6460557 -1.5389571 -4.7059698 13
-7.3789792 -2.3605964 -5.1484885 13
-7.328342 -2.4720757 -4.2404699 13
-5.3827147 -2.385895 -2.5211744 13
-7.2279329 -2.5413616 -3.4271564 13
-7.2168217 -2.5416119 -3.6115577 13
-7.2599344 -2.3763912 -2.0323405 13
-7.3064361 -2.512805 -3.7624543 13
-5.3642621 -2.4304371 -2.8768673 13
-7.2342033 -2.5293882 -3.1277325 13
-6.4076123 -2.357842 -5.2144742 13
-7.3568716 -2.4097943 -4.7740107 13
-7.2522197 -2.4190893 -2.2690244 13
-5.3684454 -2.2623143 -1.8645337 13
-6.9376411 -2.3724604 -5.1577582 13
-5.9369068 -2.3269634 -5.2354441 13
-7.2520771 -2.4842365 -2.6967573 13
-5.3646607 -2.4152291 -3.0847895 14
-0.87254906 -1.1539872 -4.0499153 14
-0.87390041 -1.148096 -4.6234708 14
-7.3855438 -2.2786853 -5.1554589 14
-5.3744903 -2.4128475 -3.0209644 14
-7.2232409 -2.5055482 -3.4275186 14
-7.2313824 -2.5036483 -3.5208693 14
-5.3800206 -2.3998151 -2.883863 14
-7.3385439 -2.4202614 -4.2193894 14
-7.2603498 -2.4398737 -2.6948128 14
-7.2485256 -2.4669979 -2.8847532 14
-7.2400789 -2.4982696 -3.2491629 14
-7.2166324 -2.5039368 -3.6121709 14
-7.2439985 -2.4906855 -3.1277905 14
-5.3811822 -2.3430219 -2.5194845 14
-7.3210001 -2.4676664 -3.7707677 14
-7.248105 -2.4078033 -2.4865494 14
-6.7376957 -2.2916079 -5.2083063 14
-3.5896127 -1.8229115 -5.3005567 14
-4.2267089 -1.9693372 -5.2802978 14
-6.9409904 -2.2979822 -5.1589079 14
-7.2581596 -2.3657949 -2.2676444 14
-6.0333276 -2.2654581 -5.2107458 14
-7.2714243 -2.1827765 -1.738073 15
-5.3760738 -2.3849492 -3.0876157 15
-5.3761134 -2.3791521 -3.0220892 15
-0.87687159 -0.94845557 -4.0578299 15
-7.3932533 -2.1946578 -5.1643305 15
-0.88124371 -0.93939996 -4.6314502 15
-7.2547431 -2.3981075 -2.700706 15
-7.3349338 -2.3677838 -4.2151361 15
-7.2468619 -2.4273591 -2.8875713 15
-5.3618207 -2.3293858 -2.6988423 15
-7.2251415 -2.4682291 -3.4287853 15
-5.380887 -2.187079 -2.0421305 15
-7.3188171 -2.4247048 -3.7698216 15
-7.2167497 -2.4657466 -3.6128895 15
-7.2524557 -2.3640671 -2.5101967 15
-7.3286104 -2.4014997 -3.9715829 15
-7.2350121 -2.4650621 -3.5225441 15
-5.3826852 -2.0771124 -1.6279415 15
-4.2910824 -1.8764261 -5.2828627 15
-7.2384748 -2.461437 -3.2505693 15
-7.1818933 -2.2076926 -5.174551 15
-7.1151834 -2.6349232 2.1860957 7
-7.131186 -2.3458629 2.1824908 8.5
-7.2951007 -2.3528895 2.187541 8.5
-7.1514506 -1.9581366 2.1710773 10.5
-7.3118944 -1.965371 2.1580524 10.5
-7.1727772 -1.5635341 2.1644053 12.5
-7.3241477 -1.5792068 2.1053395 12.5
-7.1942811 -1.1587209 2.1551094 14.5
-7.3484774 -1.1728525 2.1093874 14.5
-6.5169735 -2.6026487 2.1931915 7
-6.1805573 -2.2031753 2.1851468 9
-6.5417051 -2.3169987 2.1907449 8.5
-6.8891482 -2.3346183 2.1802406 8.5
-7.2904029 -2.381166 1.7748036 8.5
-6.2151446 -1.9164089 2.1785154 10.5
-6.551589 -1.9331071 2.1767082 10.5
-6.9098859 -1.9487002 2.175231 10.5
-7.311512 -2.0183275 1.7742858 10.5
-6.2351398 -1.5268816 2.1703906 12.5
-6.5713844 -1.544166 2.1627479 12.5
-6.9299531 -1.5575492 2.161613 12.5
-7.3279233 -1.5643673 1.7253933 13
-6.2556 -1.1301222 2.1502204 14.5
-6.5922685 -1.1440767 2.153851 14.5
-6.9657087 -1.1232307 2.1463017 14.666667
-7.3472338 -1.1882491 1.7124491 15
-5.3209949 -2.5414042 2.2126603 7
-5.7648163 -2.5636921 2.199194 7
-5.2961841 -2.2494459 2.1960688 8.5
-5.618371 -2.2673445 2.202323 8.5
-5.982759 -2.1924033 2.1877284 9
-7.2880955 -2.4046986 1.425827 8.5
-5.3146381 -1.8593035 2.1918783 10.5
-5.66361 -1.8640777 2.1835823 10.6
-6.0351353 -1.9375341 2.1884251 10.333333
-7.3068876 -1.9844232 1.3988514 11
-5.3360353 -1.4656687 2.1716156 12.5
-5.699048 -1.4940152 2.1674666 12.5
-6.0554523 -1.5505738 2.1665177 12.333333
-7.3239927 -1.5590273 1.3629346 13.5
-5.4133263 -1.033486 2.15168 14.666667
-5.7180367 -1.1120734 2.1608386 14.4
-6.0790691 -1.0840594 2.1563649 14.666667
-7.3393264 -1.2929808 1.3613119 15
-4.8685393 -2.5196815 2.2042089 7
-6.2388754 -2.5989466 1.5385332 7
-7.2712936 -2.6618104 1.1172533 7
-4.8822689 -2.2247491 2.1998358 8.5
-5.0493355 -2.234771 2.1984482 8.5
-7.2887998 -2.3583236 0.98123264 9
-4.9440269 -1.8328018 2.1880808 10.5
-5.1112442 -1.8458437 2.1834879 10.5
-7.3062444 -1.9742575 0.95884562 11.5
-4.9433436 -1.430205 2.175693 12.5
-5.1116343 -1.447587 2.1669083 12.5
-7.319365 -1.6241343 0.90061903 13.8
-4.9648371 -1.019835 2.1602807 14.5
-5.1317492 -1.0388896 2.1568007 14.5
-7.3341208 -1.3822219 1.0612016 15
-7.2724843 -2.6704981 0.61944842 7
-7.2839975 -2.3907325 0.59922624 9
-7.2813845 -2.4090724 0.38094807 9
-7.3020134 -1.9686052 0.57112145 12
-7.2980671 -2.0094366 0.35374331 12
-7.3188 -1.6074382 0.55218101 14.5
-7.3183327 -1.6632128 0.3506124 14.5
-7.2627192 -2.6834371 -0.14877701 7
-7.2762179 -2.454927 0.036668062 8.8571424
-7.2960386 -2.0585763 0.0076284409 12.125
-7.3103075 -1.7221992 0.060353756 14.666667
-7.2779546 -2.4104176 -0.29970217 9.5
-7.2773194 -2.4130118 -0.49633312 9.666667
-7.2918892 -2.0228074 -0.33011651 13
-7.2920074 -2.0251839 -0.53573728 13.4
-7.3040996 -1.7929103 -0.3368299 15
-7.3034849 -1.8297954 -0.46495509 15
-7.2602086 -2.6963592 -0.87152457 7
-5.3707809 -2.3418877 0.03103447 9
-7.2708249 -2.4575291 -0.85737062 9.6000004
-5.3890152 -1.9156613 0.030271769 12.5
-7.2877994 -2.084017 -0.83954191 13.5
-5.4086981 -1.6083827 0.0051927567 15
-5.3586006 -2.5884142 -0.45657849 7
-6.3145289 -2.7259049 -0.91872215 6
-6.6815777 -2.746526 -0.97563791 6
-5.3712435 -2.3215322 -0.35724068 9.5
-5.3893595 -1.9369853 -0.33248162 13
-5.4042239 -1.6846647 -0.25406122 15
-5.3960781 -2.6247067 -0.88415575 6.6666665
-5.7851739 -2.6992652 -0.97255039 6
-7.2518392 -2.7140589 -1.8121403 7
-5.3640237 -2.3936403 -0.58476996 9
-5.3688226 -2.3403976 -0.79521418 9.7777777
-7.2607827 -2.4850826 -1.8098336 10.647058
-5.3800116 -2.0433033 -0.59060478 12.5
-5.384737 -1.98295 -0.79586339 13.555555
-7.2773619 -2.2383437 -1.7988876 14.4
-5.3520341 -2.6203427 -1.1785562 6.75
-6.3082242 -2.7577291 -1.8616178 5
-6.5486722 -2.7718604 -1.8942485 5
-7.2401252 -2.719306 -2.0939856 7
-7.2436595 -2.748646 -2.273632 6.5
-5.3661394 -2.3519251 -1.2035427 10.1875
-7.2563009 -2.5005341 -2.1020107 11
-7.2562947 -2.4849885 -2.2872827 11.733334
-5.3826051 -2.0357695 -1.2079961 14.090909
-7.270256 -2.2696972 -2.0889177 15
-5.3516493 -2.6407788 -1.7094234 6.5
-5.8164864 -2.7337127 -1.9231191 5
-6.1068168 -2.7469249 -1.8593664 5
-7.2194881 -2.7802408 -2.6840649 5.8000002
-5.3629546 -2.3932707 -1.735853 10.5
-7.2450323 -2.5427487 -2.6670763 11.52
-5.3762126 -2.1237724 -1.6771488 14.5
-5.3726845 -2.6681974 -2.1640658 6
-5.3561621 -2.6665752 -2.3483796 6
-7.207375 -2.7942989 -2.9817998 5.5
-7.2188196 -2.7937126 -3.1960816 5.7142859
-5.3631511 -2.4008987 -2.179884 11.421053
-5.3655396 -2.4010873 -2.3660593 12
-7.2348619 -2.5694087 -3.0104175 11.666667
-7.2293706 -2.5865455 -3.192251 11.5
-5.3704371 -2.1606729 -1.9482849 15
-4.989675 -2.8375232 -2.5570138 3
-5.3684464 -2.7023649 -2.6518548 5.4545455
-5.7835884 -2.8906665 -2.8358848 3
