# .PCD v0.7 - Point Cloud Data file format
VERSION 0.7
FIELDS x y z intensity
SIZE 4 4 4 4
TYPE F F F F
COUNT 1 1 1 1
WIDTH 1225
HEIGHT 1
VIEWPOINT 0 0 0 1 0 0 0
POINTS 1225
DATA ascii
-4.3049426 -3.2296867 -5.3528423 7
-3.829762 -3.2642529 -5.3683677 6.9499998
-3.3760107 -3.3120415 -5.4493198 7.5166664
-3.0371847 -3.3281791 -5.4564185 7.5999999
-2.6203897 -3.4040885 -5.5462031 8.5
-2.1789122 -3.3587132 -5.5410266 8.666667
-1.9753639 -3.2861795 -5.5385394 9
-1.0207322 -3.2871764 -5.5257478 8.7555561
-0.57878548 -3.3813365 -5.4536018 8.3999996
-0.1894961 -3.3274021 -5.4471579 8.625
0.64725649 -3.4007635 -5.5319548 8.875
0.9623304 -3.3669951 -5.442482 9.166667
1.4192357 -3.3879395 -5.4596276 9.666667
1.8062216 -3.4285691 -5.4368582 10.4
2.1990092 -3.4175148 -5.414495 10.083333
2.6153419 -3.382055 -5.3527942 10.083333
3.0223579 -3.4118702 -5.3251848 10.3
3.411145 -3.3584797 -5.3374519 9.5333338
3.7605655 -3.3354878 -5.2939944 9.3000002
4.0080123 -3.3696496 -5.2245951 8
-7.2856874 -3.011059 -5.3818493 9.0769234
-7.0307822 -2.9744887 -5.3759069 8.833333
-6.5839248 -2.998282 -5.3538184 7.7952385
-6.2309723 -2.9662642 -5.3516531 8.2212124
-5.7923756 -2.9048786 -5.3076053 7.6735291
-5.3627753 -2.9400613 -5.3394108 8.477561
-4.9758544 -2.9454072 -5.333334 8.1819448
-4.5984178 -2.9755657 -5.3284087 8.2795324
-4.197597 -2.9356649 -5.299315 8.690733
-3.8062255 -2.9507952 -5.2832355 8.6130152
-3.386632 -2.9620454 -5.2982278 8.8263044
-2.9517493 -2.9352157 -5.2930384 9.5811491
-2.6148458 -2.9916036 -5.2989898 9.0844088
-2.1883597 -2.9597645 -5.2811441 9.1208153
-1.8121016 -2.9650388 -5.3027449 8.9618521
-1.5157286 -2.9104142 -5.291852 8.75
-0.95104277 -2.9778445 -5.421906 10.077381
-0.58565217 -2.9149191 -5.4616184 10.6
-0.19467367 -2.9879704 -5.45295 10.222222
0.62222636 -2.9833388 -5.5198092 10.5
0.96701735 -2.9713602 -5.4647994 10.916667
1.4366417 -3.0036788 -5.4817467 12
1.8161243 -2.9824448 -5.4344635 11.683333
2.2237332 -3.0008876 -5.4255486 11.583333
2.6105144 -2.967983 -5.362793 11.583333
3.0071406 -2.9790902 -5.3420286 11.8
3.3921828 -2.9619522 -5.3514991 10.9
3.7527485 -2.9389272 -5.2983003 10.7
4.0073366 -2.9770193 -5.2400246 9.5
-7.295836 -2.6083806 -5.3969946 11.528571
-7.0797143 -2.5858221 -5.3490047 10.944667
-6.6076412 -2.5804129 -5.3628001 10.824314
-6.1787519 -2.6013629 -5.311255 11.256733
-5.8332238 -2.5940022 -5.3357992 11.132003
-5.375155 -2.5890934 -5.3366151 11.936802
-4.9737306 -2.6070385 -5.3109837 11.359896
-4.6115937 -2.6100664 -5.3007255 11.645855
-4.2104692 -2.6269469 -5.297379 11.553717
-3.8328707 -2.6263623 -5.2947102 11.982958
-3.4083014 -2.6306641 -5.2841187 11.911173
-2.9804537 -2.6413724 -5.2851081 12.118387
-2.6194799 -2.6346271 -5.297636 12.206528
-2.160876 -2.6423275 -5.3057656 13.15189
-1.8172995 -2.6624048 -5.2893481 12.95626
-1.4961761 -2.6211336 -5.2746673 12.364746
-0.97400904 -2.5720203 -5.4349728 12.875
-0.60064656 -2.4830692 -5.4793911 12.6
-0.15885977 -2.5981426 -5.5018806 12
0.21862036 -2.714071 -5.5693426 11.4
0.65284377 -2.611218 -5.4928417 12
1.0279067 -2.6139517 -5.5078001 12.625
1.4202781 -2.5999944 -5.4777403 12.625
1.7975978 -2.5824842 -5.455564 12.625
2.2252805 -2.5803423 -5.4269414 12.238889
2.6367614 -2.5723851 -5.3999071 12.458333
3.0222151 -2.6279395 -5.3969445 11.5
3.390835 -2.5809433 -5.3505783 12.25
3.7775383 -2.5514479 -5.2947645 12.416667
4.1297789 -2.5714328 -5.2346897 11
-7.3144331 -2.2179623 -5.4100904 12.31875
-7.0938926 -2.248821 -5.3930821 12.949858
-6.6117287 -2.2617664 -5.3856049 12.806245
-6.2309995 -2.2568839 -5.3892102 12.583333
-5.8301668 -2.3162389 -5.3456879 12.88325
-5.4232039 -2.2906318 -5.3821874 12.666666
-5.0166965 -2.2802193 -5.3685145 13.115716
-4.6226425 -2.2698257 -5.3545914 13.228571
-4.257093 -2.3004782 -5.3233261 13.586039
-3.8546584 -2.2339749 -5.3122554 12.915385
-3.4263773 -2.2738314 -5.3047509 13.439871
-3.0456924 -2.2434065 -5.3128414 13.529293
-2.590903 -2.1755621 -5.3325729 13.160318
-2.1834123 -2.1907456 -5.3763504 12.268519
-1.8541257 -2.2799752 -5.4439445 11.717306
-1.2673745 -2.2088552 -5.3872285 10.875
-0.90385133 -2.2881713 -5.3733339 11.233334
-0.56449157 -2.1752391 -5.4827452 14
-0.050765842 -2.2387915 -5.5185556 13.5
0.22486553 -2.2316785 -5.5153179 13.5
0.64000565 -2.2280066 -5.5018301 13.541667
1.0345913 -2.2572749 -5.5033126 13.333333
1.411651 -2.2255342 -5.4919381 13.388889
1.8407433 -2.2252536 -5.4421239 13.267857
2.2333822 -2.2171712 -5.4937639 13.25
2.614758 -2.1754153 -5.4088035 13.229167
3.0154314 -2.2721913 -5.3863382 13.458333
3.3951571 -2.2370443 -5.3925977 12.875
3.7950528 -2.1591878 -5.3459949 12.875
4.1454072 -2.1151695 -5.3424659 12.546333
4.443038 -2.1124048 -5.3245072 12.6345
5.15801 -2.0091801 -5.5105548 12.1365
-7.3294549 -1.8722712 -5.3907838 12.533333
-7.0848398 -1.9049771 -5.4186997 14.1
-6.6804519 -1.9064388 -5.4948134 13.833333
-6.2187257 -1.8836476 -5.4465942 13.5
-5.8245263 -1.8652463 -5.4116154 13.65625
-5.4263539 -1.8541673 -5.4353366 12.9
-4.9894953 -1.8451952 -5.4238105 12.6
-4.6409588 -1.805171 -5.3979239 12.888889
-4.2025404 -1.9004582 -5.2900367 14
-3.85373 -1.8436569 -5.2962947 13
-3.4309037 -1.822258 -5.3178887 14.1
-3.0381012 -1.7918779 -5.3364511 13.833333
-2.6732144 -1.8315213 -5.3500309 13.208334
-2.2437978 -1.8418996 -5.3406887 12.98
-1.7263786 -1.8665481 -5.3328605 12.388889
-1.3093103 -1.8489615 -5.3345513 12
-0.91622317 -1.8308589 -5.3598394 10.76
-0.52752334 -1.9484625 -5.4952106 15
-0.13196176 -1.8403078 -5.5517259 12.166667
0.16047567 -1.7696067 -5.58847 10.8
0.65564221 -1.8277603 -5.5244122 13.3
1.0396227 -1.796984 -5.5306559 12.875
1.4587851 -1.7754922 -5.5151272 12.875
1.8229848 -1.8059285 -5.4551077 14.875
2.2281847 -1.7871499 -5.4730363 14.75
2.63096 -1.7407894 -5.4315648 14.8
3.0375125 -1.7716061 -5.4357729 14.525
3.3919408 -1.8293186 -5.4053197 14.25
3.7867937 -1.7766473 -5.3580356 14.208333
4.1311641 -1.7513274 -5.269907 14
4.4424291 -1.6846319 -5.3421249 14.1345
-7.3050961 -1.356274 -5.4265885 12.916667
-7.1176591 -1.4724253 -5.5776176 12.166667
-6.7042484 -1.4848903 -5.5961204 11
-6.2192273 -1.5557473 -5.5946827 14
-5.7833157 -1.5379957 -5.5873957 14
-5.4081993 -1.5147009 -5.5784388 14
-5.0339546 -1.4253833 -5.5817509 13.75
-4.7531919 -1.456944 -5.557478 14
-4.2005863 -1.5983062 -5.3150263 14.5
-3.8210042 -1.5206964 -5.3041983 14.5
-2.6714473 -1.5631202 -5.337389 14.2
-2.226634 -1.4171679 -5.3495226 14.357143
-1.8161484 -1.5262516 -5.3826714 13.75
-1.3500156 -1.4381895 -5.4055882 13.783333
-0.95363283 -1.4655514 -5.4350486 11.400001
-0.46987638 -1.2882353 -5.5221505 8.3833332
-0.20823097 -1.4273007 -5.5534635 7.25
0.20723955 -1.2869968 -5.4225774 6.8333335
0.65209854 -1.3055234 -5.4711742 7.577816
0.93016648 -1.35727 -5.5192404 7.8399997
1.3795115 -1.325634 -5.4627361 7.5833335
1.7894551 -1.3388168 -5.4325485 7.3499999
2.2637084 -1.3428719 -5.4554405 7.625
2.6240497 -1.3097708 -5.4237447 7.4904757
2.9637749 -1.2888365 -5.4367981 7.8214288
3.4013252 -1.4008017 -5.4329123 8.833333
3.8100579 -1.3816578 -5.3756161 10.7
4.1700253 -1.3534216 -5.3394623 8.666667
4.4409699 -1.393429 -5.3529277 15.1345
5.1516938 -1.550272 -5.5344267 13.6365
-7.3809352 -0.99371558 -5.3754382 13.833333
-7.1259174 -0.94565749 -5.5971556 13.4
-1.810091 -1.1837244 -5.3669662 15
-1.2742658 -1.1250874 -5.3791447 14.5
-0.96548051 -1.0647541 -5.4652476 13.333333
-0.4577983 -1.0125562 -5.4520268 9.9133329
-0.21901619 -1.030303 -5.4164729 8.613636
0.25305122 -0.97328866 -5.3691859 9.2981892
0.60112458 -1.0046469 -5.4089961 9.5170631
1.0128194 -0.99740505 -5.4188061 9.7301283
1.4011128 -1.0118717 -5.3761086 9.4308386
1.7811663 -0.98257345 -5.3202419 9.6023197
2.237417 -0.99633843 -5.3190684 9.3774424
2.5956345 -0.98620027 -5.3149705 9.9418697
2.9759867 -0.99155492 -5.2751031 9.0769081
3.3420849 -1.0087283 -5.3075194 8.755168
3.7711298 -1.0006661 -5.3144636 9.2227268
4.1636243 -1.0348731 -5.3217244 8.954545
4.4049807 -0.97350162 -5.2593265 9
5.1440845 -1.0813129 -5.5577955 15.1365
5.3587217 -0.93989253 -5.2359095 7
-7.4438496 -0.60490471 -5.4076276 15
-7.1529374 -0.58033752 -5.5992179 15
-0.99143362 -0.66107404 -5.5482101 12
-0.45843521 -0.60881072 -5.4528069 13.232142
-0.2193937 -0.60017043 -5.5171971 13.29158
0.2311731 -0.56231326 -5.3757572 12.055555
0.65819943 -0.63222724 -5.3951726 12.969913
1.0403153 -0.61265582 -5.4119124 12.846712
1.4124526 -0.62621343 -5.4362049 13.26087
1.7701139 -0.64944309 -5.336216 13.718005
2.2248614 -0.64993531 -5.3579993 13.307221
2.6113465 -0.65913296 -5.3389163 13.257516
3.0094526 -0.63167411 -5.3270497 12.975691
3.4017775 -0.62533075 -5.3005028 13.133034
3.7743285 -0.64723068 -5.3024936 12.270833
4.1838245 -0.59920806 -5.3069959 12.238095
5.1643491 -0.5114795 -5.5851331 7
5.3295507 -0.59746087 -5.2406912 8.045454
-1.0017509 -0.3201586 -5.5557203 13.5
-0.51568621 -0.15425961 -5.391367 14.477862
-0.18308538 -0.19097927 -5.4377804 14.483334
0.16504441 -0.17002614 -5.3929024 12.942857
0.63998914 -0.24857388 -5.3695393 14.266666
1.0644696 -0.25665429 -5.3833189 14.425
1.3815743 -0.20579544 -5.4600387 14.6875
1.8156587 -0.22334673 -5.3493524 12.856061
2.3018613 -0.22660208 -5.4209185 14.1
2.6309581 -0.23356541 -5.474751 13.616666
2.9727147 -0.19796945 -5.4230018 13.049999
3.3529654 -0.26676089 -5.4243832 14.05635
3.7677743 -0.28002912 -5.3915949 13.369047
4.1825604 -0.24663426 -5.3474698 14.030304
4.6903105 -0.1115061 -5.3592176 13.598999
5.0796046 -0.17497919 -5.3939419 10.832
-0.99265587 0.19686939 -5.3880386 9.375
-0.48572636 0.1155231 -5.4170523 15
-0.27657089 0.17095129 -5.3240514 14.555556
0.14887659 0.11310855 -5.3088393 14.666667
1.8656851 0.27279249 -5.4238138 8.5
2.3217411 0.0018926859 -5.5535502 14.5
2.5285168 0.22114086 -5.5620537 15
2.9947476 0.23943944 -5.4410162 13.2
3.4213498 0.19561473 -5.5319958 14.366666
3.7634747 0.16906372 -5.4206328 14.566666
4.1199479 0.11601506 -5.4526324 14.395833
4.7356691 0.24726033 -5.3872313 14.943583
5.0706601 0.12454442 -5.3789473 13.208125
5.4679279 0.11245483 -5.269011 12.630875
5.7314825 0.20823795 -5.3335595 14.16175
-1.0274956 0.5962469 -5.4195623 10.1
1.8642887 0.66946149 -5.4376373 10
2.0780799 0.66619307 -5.5910368 10
3.0322318 0.61390203 -5.2899914 12.5
3.7732625 0.40187633 -5.5547376 14.5
4.0365415 0.59099746 -5.548254 15
5.0247798 0.63214231 -5.4603882 13.783778
5.4956751 0.48285154 -5.3085499 12.082
5.7225981 0.44624597 -5.3392382 15.16175
-0.98054516 0.97267765 -5.336628 12.0625
1.8613614 0.93503457 -5.4317932 11
2.0738034 1.0493354 -5.5927992 11.5
3.0308237 1.0364609 -5.292418 14.5
5.1668897 0.99315178 -5.4500341 14
5.442997 0.98366547 -5.2341189 11
-1.0089678 1.3575983 -5.3762722 13.5
1.8616148 1.3447049 -5.4589205 12.5
2.066169 1.4349192 -5.5798197 13
5.3454928 1.310992 -5.2657413 13.75
-1.1061469 1.8070731 -5.4177189 14.166667
1.8568293 1.7551317 -5.4479251 14
2.0618553 1.8326681 -5.582202 14.5
5.4371634 1.8406205 -5.2192216 14
-1.1665127 2.1232581 -5.3654633 15
1.8581194 2.0438998 -5.4754539 15
5.4409156 2.1400447 -5.234921 15
3.0201073 -4.7370601 -5.1875124 9.5
3.3937817 -4.7229414 -5.118578 9.5
3.8080416 -4.7062478 -5.0395088 9.5
4.1306181 -4.6409016 -4.9717875 9.666666
4.4696026 -4.6768918 -4.9101028 9.5
3.0082989 -4.2896843 -5.1889362 11
3.3913856 -4.268105 -5.1403275 11
3.7836311 -4.1255021 -5.1279335 10
4.1332307 -4.1657033 -5.0402007 10.5
4.4595323 -4.2043934 -4.9193716 11
2.5250506 -3.7932105 -4.9356194 7
3.3801179 -3.9640727 -5.1357603 12
3.7173584 -3.692749 -5.0593863 10.75
4.2268147 -3.9027309 -4.9857211 12
4.4581952 -3.8851345 -4.9338636 12
-7.3168216 -3.3277688 -4.9069695 7.5
-6.9297023 -3.3452215 -4.8633175 7
-5.7655559 -3.2065094 -5.0893512 6
-4.9774528 -3.2597508 -4.9707847 7
-4.077322 -3.2389956 -5.146102 6.3333335
-3.3823111 -3.2448013 -5.1649647 6.3333335
-1.6144238 -3.3324709 -4.8415952 8.5
-1.2446311 -3.3528473 -4.8982668 8.5807495
-1.1283383 -3.2294073 -4.9084396 8.9219999
3.3743639 -3.4981976 -5.1513004 13.5
3.7713225 -3.4583242 -5.1563792 10
4.1313906 -3.4562321 -5.0582666 12.6
4.4594989 -3.3968966 -4.9610605 13.5
-7.3235908 -2.9873211 -5.0501189 8.416666
-7.0438519 -2.8827066 -5.027153 7.375
-6.5305247 -3.05756 -4.8754673 6.0833335
-6.2585821 -2.867058 -5.0760479 5.75
-5.893084 -2.8671446 -5.1670332 6
-5.4220319 -2.8601096 -5.1115713 5.5625
-4.9570489 -2.9444046 -4.9175401 6.9811292
-4.7413402 -2.9216344 -4.9409661 6.6875
-4.2115736 -2.89536 -5.1294246 5.375
-3.8535299 -2.901751 -4.8162422 4.5
-3.4724598 -2.9070158 -5.0618286 5
-3.0217865 -2.9574559 -5.1067595 5.3611107
-2.5913358 -2.8989344 -5.1902437 6.8400002
-2.2066505 -3.0051732 -5.0109491 5.4285712
-1.7253253 -2.9219775 -4.9501677 8.708334
-1.4634969 -2.8679378 -4.9028125 10.583334
-0.92269927 -2.9350004 -4.9582462 8.4941721
3.3703408 -3.0217645 -5.1711979 15
3.7921085 -3.0761087 -5.1039138 12.046333
4.0488286 -3.0261669 -5.1038489 13.75
-7.3465199 -2.6217077 -5.0957923 10.614394
-7.0627971 -2.6212349 -5.094676 9.0919914
-6.6269007 -2.6613016 -5.1689754 7.8400002
-6.1581693 -2.5755544 -5.1963372 9.7692308
-4.9680834 -2.6908345 -4.8902326 8.2712097
-4.6336107 -2.7710609 -4.9185925 6
-3.72576 -2.7908635 -4.9689231 6
-2.5259581 -2.7112477 -5.197401 10.444444
-2.1882918 -2.5762024 -5.1871996 11.054545
-1.736326 -2.6262953 -4.946795 10.356201
-1.5034809 -2.5507333 -4.9606586 12.44884
-0.95346576 -2.5846469 -4.9977098 11.944697
-0.79112577 -2.7973423 -4.8759441 10.5
3.7522814 -2.6312656 -5.034318 10.639
4.0454526 -2.6112814 -5.1783333 14
-7.3513589 -2.2022908 -5.0578532 12.340476
-7.0928063 -2.3009179 -5.0972295 13.371668
-6.6034675 -2.2195477 -5.1958055 15
-2.1231642 -2.2763405 -5.1975584 13.916666
-1.7110703 -2.2374668 -4.9688587 12.935184
-1.4861449 -2.2243891 -5.1245308 12.204862
-0.96491838 -2.1678739 -5.1509399 11.7
-0.75869429 -2.1839728 -5.1312413 10.75
-7.3309951 -1.8213742 -4.9641418 12.6
-7.188942 -1.8982651 -5.1454687 13.5
-1.6938514 -1.8322619 -4.9416757 11.809524
-1.5421253 -1.7703776 -5.0077295 13.5
-1.056334 -1.7466874 -5.0539479 12
-0.77556276 -1.6623173 -5.1417742 14.5
-7.2807608 -1.404251 -4.9844918 13.625
-1.664435 -1.5332947 -4.8640695 11.25
-1.4491199 -1.4296445 -4.8419399 8.6999998
-0.91772199 -1.4443612 -5.1089106 8.5
-0.54407346 -1.3546108 -5.0386562 8.7825203
-0.18258393 -1.4355237 -5.0038419 6
0.650738 -1.3708006 -4.9326463 5.6666665
1.0078855 -1.3961338 -5.0383921 5.875
1.7121878 -1.2783331 -5.0238247 5
2.1154377 -1.2787889 -4.8713427 4.5
2.9128852 -1.2134702 -4.8463697 4
3.8227816 -1.5274241 -5.1753907 7
4.1182079 -1.2557567 -4.9150581 7.5
-7.3587623 -0.95191741 -4.9328632 14.75
-1.6225647 -1.0595814 -4.9001679 10.666667
-1.4843557 -1.0585206 -4.855567 10.6875
-0.93578243 -1.0348821 -5.0967703 10.5
-0.50097847 -1.0176717 -4.9411654 10.89229
1.3978386 -1.1997243 -4.9904885 6
2.1312761 -1.0312153 -5.0845284 7
2.4991467 -1.1124253 -5.1649046 6.25
2.9760673 -1.0857608 -5.0156317 5.5
3.4580455 -1.0071123 -5.1844015 7.7000003
3.811168 -1.0067327 -5.1403122 7.7974076
4.0922322 -0.99507952 -4.9960618 8.7267971
5.5248995 -0.92324215 -4.8277712 7
-1.6183453 -0.69571793 -4.9196062 12.5
-1.4254502 -0.72264713 -4.9112267 12.444444
-0.95326328 -0.62112343 -5.0873065 12.5
-0.53138745 -0.65663207 -5.0349908 13.892858
2.2554677 -0.60776669 -5.1562672 10
2.4881341 -0.74949765 -5.1626167 9
2.8766446 -0.72526765 -5.1707964 9.125
3.4777412 -0.68002486 -5.188993 11.25
3.8261006 -0.66300607 -5.1887903 12.4
4.0851026 -0.63470137 -4.9735041 12.571369
5.514782 -0.72096902 -5.0258865 8.5
-0.96626472 -0.19399154 -5.0959554 14.5
-0.6442771 -0.13112493 -4.9923244 14.404667
-0.27468646 -0.13901661 -4.9178996 7
1.4092475 -0.12151241 -4.9737935 7
1.8943053 -0.11683424 -4.8644576 7
2.2368379 -0.16455115 -5.1715255 13
2.5168281 -0.32065749 -5.1682796 12
3.0113204 -0.25739557 -5.0276685 9.3999996
3.2758851 -0.32337153 -5.186017 12
3.7228584 -0.32318783 -5.1918359 13
4.0846581 -0.37935758 -4.9348693 14.333333
5.1919069 -0.19928522 -4.9747949 8.5
5.3252134 -0.24096441 -5.1530991 10.15
-0.98313797 0.16619171 -5.0241361 8.3095236
-0.63733268 0.13714671 -4.9725046 14.857
1.8834826 0.25863409 -4.8863802 8.5
2.1380885 0.22010253 -5.049233 10.666667
2.485285 0.058478594 -5.1751671 14.571428
3.0057602 0.12889701 -5.0356789 11.5
3.29175 0.012438416 -5.1862106 14.4
5.191031 0.19464764 -4.9833093 10.5
5.2568588 0.18657866 -5.112421 10.5
5.8278885 0.22132486 -4.9979048 15.157
-0.98464888 0.56913739 -5.0118723 10.285714
1.8823954 0.63492274 -4.8906412 10
2.0819881 0.62597066 -5.1645708 10
3.0453329 0.56650013 -4.9856853 12.5
5.1911488 0.59553003 -4.9960027 12.5
5.3492546 0.61842793 -4.9431167 11.166666
-0.99953407 0.97306401 -4.9633946 12.166667
1.8811531 1.0176699 -4.9044704 11.5
2.0801733 0.98825669 -5.1751719 11.5
3.0438302 0.98240751 -4.989758 14.5
5.1896667 1.0059117 -5.0026007 14.5
5.3466711 1.0054586 -4.9715385 12.75
-0.98795712 1.3484391 -4.9611316 14.02381
1.8788559 1.4032068 -4.8992376 13
2.0739288 1.4790007 -5.1738052 13.5
5.4349842 1.4707696 -4.8067136 13
-1.0904151 1.7838354 -4.9645634 14.5
1.8780632 1.8035153 -4.916399 14.5
2.066009 1.8522412 -5.1595974 15
5.4344883 1.7463464 -4.8068099 14
-1.1666613 2.0972219 -4.9446077 15
5.4368777 2.0293753 -4.8168263 15
0.9579159 -5.0858274 -4.5434341 8.6774998
0.58582252 -4.4531136 -4.4969845 8.6774998
-1.6727331 -3.6254563 -4.5293508 7
-1.3137786 -3.6170387 -4.6200953 7
0.22379327 -3.6844125 -4.4750566 7.8387499
-7.3435545 -3.3581328 -4.5022874 7
-4.9542055 -3.2205315 -4.6076035 6
-4.2224741 -3.26864 -4.5931568 6
-3.9059761 -3.2759476 -4.6298032 6
-2.9669633 -3.2139027 -4.4957004 5
-2.6817727 -3.2145634 -4.5745139 5
-1.635586 -3.3427217 -4.747694 8.1999998
-1.4831719 -3.288763 -4.7645297 8.916667
-0.84899926 -3.2229648 -4.5115795 7.833333
0.20691228 -3.4039569 -4.4722819 8.6630001
3.7598002 -3.3561013 -4.4773445 7.8172498
-7.3347263 -2.9916103 -4.6403003 8.5444441
-7.0974102 -2.8927488 -4.6239734 7.1666665
-6.6326828 -2.9761147 -4.5553985 5.75
-6.2001648 -2.8641169 -4.5961041 4.6666665
-5.8119249 -2.9770741 -4.6190567 4.8000002
-5.5084829 -3.0098393 -4.6820545 4.5
-5.1412377 -2.9651482 -4.5866466 4
-4.6116738 -2.9712343 -4.6542435 4.625
-4.1523008 -3.0300159 -4.5461168 4.5
-3.7366292 -2.8661747 -4.6210451 5
-3.4030645 -3.0510511 -4.5326505 4.5
-3.1162367 -2.8819308 -4.589591 5
-2.7192445 -2.8940921 -4.6165977 5
-2.1544583 -2.9633973 -4.5530543 5
-1.6671325 -2.9448769 -4.5942488 9.3366213
-1.4334849 -2.9417863 -4.4993157 10.049017
-0.89119405 -2.9672527 -4.5657482 8.8401966
-0.7927357 -3.0573571 -4.7693014 7
0.28804821 -3.132437 -4.5162044 10.1755
3.8009415 -2.8849902 -4.5594873 10.1345
-7.3417034 -2.5980663 -4.6317739 10.361111
-7.142653 -2.5788496 -4.6072001 10.059091
-6.4960661 -2.7227354 -4.7076306 6
-6.128376 -2.7048657 -4.7140965 6
-5.7878346 -2.6865602 -4.6650181 6
-5.4737816 -2.6694412 -4.5879512 6
-5.162693 -2.6479747 -4.4155569 6
-4.3694077 -2.748888 -4.6424079 6
-3.5043993 -2.7688303 -4.5553961 6
-1.6849583 -2.6633303 -4.6107192 11.891945
-1.4534857 -2.6295502 -4.5736542 12.274483
-0.9103868 -2.6300771 -4.5979228 13.430761
-0.79632473 -2.413682 -4.4724746 8
3.7990685 -2.6439581 -4.5676703 11.1345
-7.3328352 -2.2106307 -4.5920191 12.550212
-7.1827254 -2.2804329 -4.6229305 12.416667
-1.6565307 -2.250802 -4.6390676 12.13631
-1.5388528 -2.1670775 -4.5853992 11.430556
-0.82646036 -2.2248168 -4.5694695 8.833334
-7.284729 -1.7904967 -4.6237912 12.672619
-1.669178 -1.8117076 -4.7309117 11.965279
-1.5022465 -1.8264968 -4.5790696 12.090909
-0.84091264 -1.8817463 -4.5677342 10.833333
-7.3109269 -1.3564653 -4.584424 13.666667
-1.6397047 -1.5366125 -4.732789 13
-1.4414744 -1.4165597 -4.6262093 14.3175
-0.88859546 -1.4635966 -4.5888891 11.233334
-0.51499468 -1.3492899 -4.6432424 7.4264069
-0.17343041 -1.4007565 -4.736105 7.5137501
0.27069569 -1.3663368 -4.5975146 8.0164165
0.57395244 -1.2967197 -4.549695 7.6846151
1.4125348 -1.2502909 -4.6819763 5
1.7767725 -1.2361081 -4.4914808 4
2.3120403 -1.3142056 -4.7640672 5
2.7686329 -1.3683807 -4.5520649 6
4.0826192 -1.3417522 -4.6620255 7.1666665
-7.4156394 -0.8753379 -4.5774841 14.583334
-1.398818 -1.1171139 -4.5852499 15.066
-0.89892811 -1.0803384 -4.5891709 13.585714
-0.52520168 -0.97224373 -4.5760732 10.570779
-0.016019642 -0.92322153 -4.7569323 11.0275
0.27712128 -1.0140576 -4.560956 11.639038
0.60667282 -1.0003729 -4.5700569 11.154798
1.1048715 -1.19199 -4.5464811 6
1.6729759 -1.1618531 -4.6945586 6
2.3246989 -1.1708219 -4.5520101 5
2.6345701 -1.1358697 -4.6229649 5.5
2.9046791 -1.1437413 -4.5966797 4.8888888
3.3662214 -1.1222008 -4.6463237 5
3.8459239 -1.1020907 -4.6149321 6.9004998
4.041831 -0.98887706 -4.59092 8.9401569
5.7347679 -0.8970868 -4.4398055 7.3333335
-0.9679516 -0.62939423 -4.6259212 13
-0.55247933 -0.59035242 -4.6113019 13.416667
0.62789935 -0.65746182 -4.588923 12.886818
3.9795589 -0.66846782 -4.4997272 11.1675
4.0439925 -0.61825138 -4.6403074 13.206965
5.4129019 -0.66279727 -4.743907 8
5.7283802 -0.71425444 -4.4764786 9.25
-0.98054212 -0.29630315 -4.6299744 14.75
-0.56369227 -0.13862875 -4.5567055 14.125
-0.22634816 -0.12317683 -4.4399996 7
1.4603157 -0.11456823 -4.6466551 7
3.0465329 -0.31038997 -4.5508442 8.5
3.2340722 -0.36086017 -4.4335175 8.5
3.6191657 -0.12527576 -4.5214257 7
4.1128817 -0.12359775 -4.4872451 7
5.3259373 -0.26422331 -4.648078 9.375
5.7503719 -0.16965157 -4.6883683 13.32975
-0.97489434 0.21624473 -4.5767574 8.6208334
-0.59522849 0.14150618 -4.6130466 14.75
3.0451384 0.086733565 -4.5545816 10.5
3.2319479 0.045990705 -4.442771 10.5
5.3590837 0.16537584 -4.6399021 10.5
5.7703762 0.25235841 -4.6183815 14.7435
-0.97490823 0.60642308 -4.6166039 10.5625
1.9151694 0.57148182 -4.4077258 10
2.0875332 0.70538265 -4.7978754 10.5
3.0441329 0.48887801 -4.5549994 12.5
3.2306674 0.45863259 -4.4445095 12.5
5.3074369 0.55724221 -4.5513525 11.908333
-0.97687012 0.99454212 -4.5898557 12.5
1.9122163 0.91842258 -4.4062738 11.5
2.0796278 1.0456038 -4.7828169 12
3.0013382 0.91097957 -4.5146594 14.666667
3.2290859 0.88129729 -4.4486523 14.5
5.3036289 0.9732455 -4.6144185 13.933334
-0.97731155 1.3193964 -4.5580902 14.041667
1.9109541 1.3928529 -4.4215388 13.5
2.078697 1.3975475 -4.7955532 13.5
5.4368773 1.4018983 -4.4477687 13
-1.0449727 1.7427726 -4.6137857 14.416667
1.9106556 1.7605295 -4.4375958 15
2.0757465 1.7079147 -4.6220641 15
5.4358788 1.7983203 -4.4468627 14.5
-1.0469307 2.0932868 -4.646594 15
-1.3761786 -5.4863873 -4.3461618 7
-1.7305357 -4.8484769 -4.1525817 7
-7.3471651 -3.283251 -4.1625133 7
-5.0134716 -3.2019904 -4.2430515 6
-4.4599314 -3.257715 -4.2490807 6
-4.2185621 -3.270792 -4.2909513 6
-3.2555909 -3.2158885 -4.122272 5
-3.0414684 -3.2227638 -4.2052388 5
-2.7889395 -3.2243187 -4.3678398 5
-1.0144986 -3.2485929 -4.1702919 7.5
-7.3216429 -2.9784276 -4.1924605 8.2250004
-7.1344538 -2.8865159 -4.2125278 7.2129636
-6.4822621 -2.8800616 -4.1398201 4
-6.1755128 -2.9129801 -4.2840772 4.3333335
-5.8189116 -3.0207233 -4.3308306 4.75
-5.4747319 -3.0363901 -4.3657331 4.5
-4.8593826 -2.8334687 -4.2467227 4
-4.408987 -2.8119178 -4.3092084 5
-4.0480876 -3.0536716 -4.1819072 4.6666665
-3.4737139 -2.9815505 -4.2475553 4.6666665
-3.0058618 -2.8711495 -4.2043519 5
-2.6426005 -2.9591739 -4.3493795 4
-2.1433425 -2.8686526 -4.1467824 5.5
-1.6896224 -2.9176197 -4.2808867 5.75
-1.4072512 -2.9356649 -4.3466163 9.0391159
-0.88299745 -2.9821937 -4.1767488 8.17029
0.11331278 -3.0961769 -4.3775439 10.1505
3.8286858 -3.1169379 -4.2580872 8.6365004
-7.2991271 -2.5935967 -4.2092638 11.21835
-7.1803465 -2.620609 -4.1756973 9.0866308
-5.34235 -2.7843902 -4.2660551 5
-4.7828579 -2.6219807 -4.1596251 6
-4.1854086 -2.7275734 -4.3193073 6
-3.3897598 -2.7543957 -4.201179 6
-2.5866001 -2.7931719 -4.1025758 6
-1.5019492 -2.6302521 -4.3605227 10.166667
-0.89584112 -2.6161165 -4.1858845 13.131232
-0.79003191 -2.5082712 -4.1575055 7.6666665
3.813854 -2.6546409 -4.2746096 10.6365
-7.2883387 -2.2662063 -4.2142935 12.892194
-7.1893177 -2.3656986 -4.2440948 12.909091
-1.4828062 -2.2605312 -4.3812804 11.8
-0.88442743 -2.2203054 -4.2062201 12.102462
-0.78654844 -2.2760406 -4.2673359 9.5625
-7.2916865 -1.8364338 -4.2482495 12.643519
-1.4734885 -1.9096677 -4.3947067 14.5
-0.83752733 -1.8434818 -4.2170734 12.166666
-7.3010368 -1.424037 -4.1845574 13.725
-0.86749214 -1.5000507 -4.1938729 12.172222
-0.5772239 -1.3714823 -4.1734257 7.5454545
0.20584573 -1.3295144 -4.2180886 5.5
0.55869877 -1.3084786 -4.3082676 5.75
1.1176242 -1.3437287 -4.281177 5
1.4234787 -1.2748767 -4.2629786 4.1999998
1.9614134 -1.3274478 -4.1132336 3
2.5199091 -1.4093829 -4.1388092 6
2.9896646 -1.3558793 -4.2411795 6
3.8014059 -1.3797655 -4.2552252 6.5
4.0841703 -1.3209623 -4.1957293 7.1428571
4.728116 -1.3570428 -4.077877 7
5.7598944 -1.3475183 -4.0959902 7
-0.89198285 -1.0740833 -4.1676998 13.9
-0.55260223 -0.97338331 -4.1849113 10.501534
0.38461494 -0.87800252 -4.3095255 9
0.49322823 -0.98818916 -4.3534813 9.2647057
0.9106741 -1.1819477 -4.0790119 6
1.3796973 -1.155776 -4.2775021 6
2.2203536 -1.1315256 -4.1838937 5.5
2.632374 -1.1487043 -4.2923312 4.5
3.0177221 -1.1501677 -4.1619945 3.875
3.3314981 -1.145681 -4.2066259 3.4444444
3.8971798 -1.067582 -4.2567382 7.5163879
4.0617547 -0.98659849 -4.1543736 8.9344864
4.5370626 -1.0523419 -4.0368309 8.5
4.8881788 -0.94537854 -4.0598278 9.166667
5.5169525 -1.0003923 -4.1741219 6.5
5.7358823 -0.9930768 -4.1077666 8
-0.97042489 -0.58432961 -4.2095428 13.5
-0.56532758 -0.61756593 -4.2033038 13.680085
0.51467854 -0.61736643 -4.3397946 11.377273
2.970746 -0.50642651 -4.222352 7
3.9030316 -0.72769183 -4.2719655 11.336333
4.0787721 -0.5977295 -4.1422982 13.274429
4.5495248 -0.56305718 -4.0489159 12.25
4.8963165 -0.58352101 -4.0621581 11.5
5.4497018 -0.57018054 -4.1762123 9
5.7429075 -0.61100239 -4.1397238 10.853061
-1.0154066 -0.15032889 -4.1321349 9.666667
-0.5950523 -0.17812879 -4.234715 13.203704
1.9195873 -0.10854422 -4.0405588 7
2.1065755 -0.078346021 -4.1638002 7
2.9888427 -0.28822479 -4.199017 8.5
4.0600667 -0.33575955 -4.0795341 15
4.5048299 -0.31678295 -4.0237641 14.5
4.9989972 -0.2690849 -4.1129436 11.333333
5.4112172 -0.17062099 -4.1625323 11.714286
5.7592249 -0.13997951 -4.1513119 13.473608
-0.99838626 0.16850445 -4.1539049 8.5076923
-0.61179328 0.19824666 -4.2961674 15
1.9168423 0.22892833 -4.2151985 8.5
2.0994053 0.23259012 -4.3100758 8.5
2.9865818 0.13018 -4.2072396 10.833333
5.3359332 0.096334599 -4.2320089 11.666667
5.766685 0.17990518 -4.1564364 14.858749
-1.0003953 0.58484018 -4.1789923 10.75
1.9173871 0.6857143 -4.0499535 10.5
2.0931835 0.65078866 -4.305316 10.5
2.9858444 0.555309 -4.2063737 13.166667
5.2823129 0.54077774 -4.1827354 12.933333
-1.0003045 1.0015266 -4.1493192 13.299999
1.9165007 1.0320008 -4.0550776 12
2.088973 1.0765181 -4.3081264 12.5
3.0124698 0.84890854 -4.1328669 14.75
5.3188763 0.91558331 -4.1581278 13.958334
-1.0156215 1.3619766 -4.2152233 13.833333
1.9149963 1.3838568 -4.0517101 13.5
2.084363 1.4617697 -4.2545185 14.333333
-1.0534321 1.7602373 -4.2299714 14.5
1.9223554 1.693845 -4.0302868 15
-0.92911959 2.0497205 -4.1657991 15
-7.3460488 -3.3442039 -3.7901294 7
-4.5084515 -3.2432535 -3.7689254 6
-2.9158995 -3.3302822 -3.6907907 6
-2.6903148 -3.3169665 -3.71295 5.1944447
-2.3600087 -3.3175538 -3.6073856 3
-1.3559911 -3.2585559 -3.7544079 4.75
-0.88320625 -3.3276861 -3.8517802 7
-7.3304434 -2.9367518 -3.7537811 8.1750002
-7.142055 -2.8539348 -3.8332813 7.0428576
-6.7565746 -2.9340677 -3.9729576 4.5
-4.974175 -3.1687498 -3.7442136 6
-4.576829 -2.9327011 -3.7551665 3.5
-3.9660017 -3.0055258 -3.8028486 4
-3.4852569 -3.0716565 -3.8350475 3.8
-2.9991961 -2.9021637 -3.7702091 7.0555553
-2.7260149 -2.9956927 -3.7302976 10.060439
-2.2856643 -2.8837938 -3.7890413 5.2222219
-1.7619796 -2.9988441 -3.9572761 4
-1.3286035 -2.9251354 -3.7793717 5.25
-0.89652944 -2.9353116 -3.7825103 8.7969837
-7.2784257 -2.5690036 -3.7917068 11.02195
-7.1815991 -2.6093419 -3.7715328 10.897213
-6.5967755 -2.6211228 -3.7203071 5.6666665
-6.3464847 -2.6904588 -3.779798 5
-5.7995181 -2.6413143 -3.8069503 5.25
-5.0535502 -2.7546196 -3.7961454 4.833333
-4.3019938 -2.7983408 -3.9919431 5
-3.9800267 -2.7000074 -3.8044806 6
-3.3344581 -2.7420421 -3.793488 6
-2.863637 -2.5836494 -3.7306879 14
-2.7483323 -2.6311581 -3.6891327 11.019691
-0.91178685 -2.6740971 -3.747942 12.896046
-0.77920258 -2.5934868 -3.8159051 7.4000001
-7.2829566 -2.2456145 -3.7744203 12.735978
-7.1822634 -2.2068546 -3.7917523 7
-2.8049133 -2.2265 -3.6361878 13.333333
-2.7882328 -2.1774755 -3.6819916 12
-0.90666455 -2.2592716 -3.8068361 13
-0.7963891 -2.3159304 -3.9127989 8.5
-7.3427806 -1.8484229 -3.8620188 13.400649
-7.184659 -1.9504941 -3.9121962 8.5
-5.3484144 -1.7796113 -3.6739881 15
-2.7887318 -1.8132675 -3.7171376 10.75
-0.862589 -1.8069531 -3.8769214 12.115499
-7.3230319 -1.3969947 -3.7927508 14.2
-7.195591 -1.549363 -3.9198322 10.8
-2.7980776 -1.4682435 -3.6664052 9
-0.91845912 -1.435475 -3.8820229 10.333333
-0.56658685 -1.2899916 -3.8356929 7.8880339
-0.23031567 -1.4566674 -3.7648993 5.5
0.21059923 -1.3626878 -3.8377995 5.5999999
0.58419585 -1.4236338 -3.8794196 5
1.3215921 -1.2346011 -3.8628297 4.6666665
1.8076856 -1.2892046 -3.6671085 4.25
2.1613016 -1.3342793 -3.9430485 4
2.6095438 -1.3180009 -3.7351172 4.8333335
2.9947345 -1.3117914 -3.9131751 5.5
3.7586122 -1.2511791 -3.8000889 6
4.7031155 -1.3129309 -3.9867344 7
4.9385281 -1.2596174 -3.9573772 7
5.7909374 -1.280935 -3.8681183 7
-7.3027954 -1.0270035 -3.942322 14.1
-2.8129594 -1.0765179 -3.6739645 11.65
-0.93196011 -1.0849639 -3.8904283 12.5
-0.56533808 -0.99117738 -3.7949722 11.402411
0.83705997 -1.1735284 -3.728291 6
1.2104177 -1.1479142 -3.8783102 6
1.8626819 -1.1463102 -3.8569555 5.3333335
2.2466004 -1.1430473 -3.8655298 4.5
2.6390347 -1.1245612 -3.7552736 4
3.1788712 -1.1767198 -3.7160461 3
3.3456554 -1.0864525 -3.7963548 4.75
3.9464073 -0.95807236 -3.9401202 8.2444439
4.131618 -0.94916064 -3.9386072 8.2847109
4.6113143 -0.95322901 -3.8966649 7.5935187
4.905406 -0.97090524 -3.9230523 7.7272725
5.4937072 -0.99537599 -3.7606649 6.5
5.7143431 -0.98542321 -3.8128481 7.3807688
-7.2055001 -0.7917577 -3.9372749 15
-2.8260081 -0.71298468 -3.7062688 14
-0.98590809 -0.63838649 -3.876853 13.75
-0.60732245 -0.5745942 -3.8318257 12.9375
3.9199214 -0.6772927 -3.9584141 11.55
4.2003026 -0.68480945 -3.9542925 13.077625
4.6328645 -0.64634961 -3.9495449 12.153932
4.913847 -0.6314314 -3.932245 12.291005
5.4865742 -0.64171422 -3.8491936 8.6999998
5.7096219 -0.60160404 -3.8189332 11.322223
-1.2346094 -0.12862225 -3.7598946 7
-1.0597706 -0.26121557 -3.8196993 11
-0.59013957 -0.13518824 -3.7799542 13.083333
2.9886513 -0.180448 -3.7625396 9
3.8358288 -0.31501067 -3.9557266 13.875
4.2003994 -0.35148206 -3.9585052 13.307693
4.6937342 -0.27099067 -3.9784856 13.7
5.3870764 -0.2337039 -3.7997322 10.657143
5.7211637 -0.23270111 -3.8019612 13.9625
-1.2408823 0.224292 -3.766907 8.5
-1.097971 0.20246741 -3.8768151 8.4333334
-0.62408519 0.16777629 -3.8887277 15
1.9441115 0.2016962 -3.787636 8.5
2.1369202 0.21560656 -3.7550046 8.833333
2.9881158 0.2117736 -3.7616634 11.5
5.3340788 0.16291985 -3.8245153 10.375
5.7650046 0.13414061 -3.9404883 15
-1.2419505 0.57838452 -3.7619932 10
-1.0842868 0.61024833 -3.8734813 10.125
1.9429945 0.61856103 -3.7989364 10.5
2.1331608 0.59816623 -3.7487018 11.25
2.9867649 0.61450887 -3.7651448 14
5.3329759 0.57590538 -3.8050466 12.608334
-1.2407373 0.93503559 -3.7518113 11.5
-1.0857676 0.97158712 -3.8718755 11.625
1.9423124 1.0445945 -3.813 12.5
2.1330338 0.99007887 -3.7478778 13.666667
5.2948408 0.83457106 -3.8319302 14.888889
-1.2481868 1.422884 -3.758713 13.5
-1.1013615 1.3923825 -3.862515 13.466665
1.9388171 1.4222383 -3.8092661 14.25
2.1132383 1.3220011 -3.9021554 14.75
5.4362297 1.4318348 -3.9609103 13.5
-1.244998 1.7925225 -3.7437403 15
-1.0707121 1.7585773 -3.8472302 14.833333
5.4378133 1.806854 -3.9673762 15
3.1116741 -4.7613544 -3.4009624 7
-2.7902045 -3.7347796 -3.5174489 7
-0.1732119 -3.8813705 -3.2027428 14.5
-7.3509817 -3.2296569 -3.2558887 7
-5.4431429 -3.2230074 -3.4311068 7
-3.2507863 -3.3491783 -3.5174608 3
-2.8908157 -3.3472779 -3.4067681 7
-2.7297456 -3.3066547 -3.434046 7.4166665
-1.2672718 -3.2427337 -3.3662708 4
-0.90278935 -3.2403307 -3.4425232 8.666667
-7.288641 -3.005198 -3.2883782 7.7249999
-7.1910448 -2.8392253 -3.4341812 7.625
-6.1415024 -2.9847848 -3.3389168 5
-5.344007 -2.9142792 -3.4299543 7.5714288
-5.0504165 -2.9149401 -3.4337327 7.5780883
-4.672142 -2.9868276 -3.4289093 7.3313127
-4.2437644 -2.9414928 -3.3955297 7.0679483
-3.7739637 -2.9025595 -3.3915815 6.8626375
-3.4158728 -2.8907483 -3.3973458 6.8392859
-3.0242145 -2.8980367 -3.392817 7.7097535
-2.7225816 -2.9856272 -3.4169214 11.302273
-2.1084211 -2.8082728 -3.4795303 6
-1.9552989 -2.9857984 -3.5575535 4
-1.4671044 -2.9409504 -3.3648384 5
-0.91258168 -2.9457378 -3.3840151 8.8584499
-7.2330294 -2.5725629 -3.3754447 11.400215
-7.1844144 -2.6412532 -3.388319 8.6107149
-6.6773739 -2.6928842 -3.2948751 4
-6.24189 -2.6736031 -3.369015 4
-5.8307738 -2.6583903 -3.5556602 4.6666665
-5.3409357 -2.5988598 -3.4466603 11.09446
-5.0168638 -2.6383924 -3.442513 12.890778
-4.5988002 -2.6524999 -3.4128935 11.149135
-4.160656 -2.6389775 -3.4110119 12.109836
-3.8001425 -2.6388695 -3.3974428 12.111159
-3.4002848 -2.6690094 -3.3821108 11.654022
-2.9799414 -2.6338809 -3.3973267 11.883574
-2.7758677 -2.6321106 -3.4813621 9.3909092
-0.92117316 -2.6690629 -3.4055083 12.500784
-0.79870415 -2.6304741 -3.4406605 7
-7.2629433 -2.2598805 -3.3783722 12.263383
-5.3496232 -2.2272952 -3.3529603 11.412036
-4.1763453 -2.2446949 -3.4176779 15
-3.9047775 -2.1998019 -3.3907177 14.5375
-3.3442042 -2.2025833 -3.4300389 13.216667
-2.8657229 -2.2617788 -3.4205999 13.509615
-2.784451 -2.3243718 -3.4808536 14
-0.91541326 -2.2222452 -3.4184124 12.797401
-7.3201351 -1.855423 -3.4265599 13.21164
-7.1931229 -1.9554707 -3.4855061 8.5
-5.384748 -1.78151 -3.4007759 12.708333
-2.8449559 -1.9775367 -3.5266945 13.5
-0.84209514 -1.831882 -3.4116988 13
-7.3260169 -1.4072866 -3.4790306 12.95
-5.4256415 -1.4262023 -3.3971925 14
-2.8056908 -1.4683324 -3.2486436 9
-0.93087673 -1.4658061 -3.4515028 10.708333
-0.59298688 -1.3423655 -3.382169 7.4277778
-0.17754102 -1.4332401 -3.5141473 5
0.13832188 -1.3257884 -3.3909459 5
0.579234 -1.3421726 -3.2300897 3.75
0.89075875 -1.4077386 -3.4013515 3
1.3202113 -1.2797076 -3.4626505 4.2222219
1.836409 -1.3803759 -3.4059708 4.5
2.215637 -1.3918295 -3.3979235 5.5
2.5583587 -1.2685684 -3.2580168 4.5
2.9362516 -1.3364949 -3.4318297 5.6666665
3.2879968 -1.3317859 -3.5414042 6
3.7508597 -1.2400146 -3.3597445 6
5.7627487 -1.2663616 -3.4654863 7
-7.2590966 -0.98491859 -3.4981511 14.625
-2.8211322 -1.067508 -3.2509787 12
-0.98321486 -1.0219479 -3.396337 11.75
-0.59218293 -0.99181062 -3.3826594 11.602057
1.1171055 -1.1415091 -3.5344319 6
1.7241178 -1.1352953 -3.4186697 5.5
2.1409481 -1.1301143 -3.4271972 4.5555553
2.7758291 -1.0877225 -3.4118652 5
3.0635846 -1.0954167 -3.5040169 4.6666665
3.3534861 -1.0702487 -3.37814 4
3.7552605 -1.0579801 -3.4990366 4
4.2047157 -1.062939 -3.4183512 3.25
4.6250191 -1.0743821 -3.4125226 4.8333335
4.9121094 -0.99416322 -3.4548681 5.6666665
5.5474834 -0.88187039 -3.4030304 7
5.7113891 -0.95984066 -3.3785725 7.7760415
-2.8398681 -0.71630418 -3.2914658 14.5
-0.99740219 -0.66245329 -3.3989329 14.25
-0.63388735 -0.57887638 -3.4629879 13.018183
3.0547845 -0.63833702 -3.5261562 7
5.4764113 -0.64652419 -3.3200445 8.416667
5.7073865 -0.59581989 -3.4020951 11.158558
-0.9922328 -0.11866368 -3.487999 7
-0.63045478 -0.17459282 -3.3887033 14
1.9539531 -0.10329257 -3.357249 7
2.1442869 -0.068251394 -3.4070988 7
3.0222919 -0.25720379 -3.4226558 8.833333
4.4593573 -0.1083298 -3.2050443 7
5.4258986 -0.24315131 -3.3719256 10.530612
5.7059741 -0.20785028 -3.4020309 14.258334
-0.64424491 0.14777368 -3.484324 15
1.9610928 0.18990338 -3.3189774 8.5
2.1361732 0.20949125 -3.3889129 8.8999996
3.0545921 0.17870086 -3.4177632 10.875
4.3487701 0.20076311 -3.2598953 8.6114998
5.3637457 0.18643835 -3.3893096 10.26
5.7417665 0.13898134 -3.4994221 15
1.9591329 0.58364999 -3.3184652 10.5
2.1360302 0.62099266 -3.3813062 11.7
3.0513561 0.6144613 -3.4387779 13.6
4.346539 0.603468 -3.2536392 10.6115
5.354732 0.64517725 -3.4050994 13.214286
1.9588236 0.98565483 -3.3289781 12.5
2.1344745 0.97372359 -3.3993144 13.98
3.1558957 0.99245417 -3.2663159 12.5
5.4371347 1.0337815 -3.3999872 12.25
1.9573531 1.3988262 -3.334486 14.5
2.0944316 1.3559136 -3.5463452 14.666667
3.1542077 1.4104443 -3.2710557 14.5
5.4347067 1.3700345 -3.3946152 13.75
-0.95281029 1.8948135 -3.5248885 15.07625
5.4349446 1.6584927 -3.3965533 15
-0.1565097 -5.1110511 -3.1618273 8.5
-0.42276061 -4.4741306 -3.0513024 8.5
-0.16168782 -4.7083488 -3.1803367 10.5
-0.42821509 -4.0715733 -3.0631871 10.5
-0.16712344 -4.2991347 -3.1961 12.5
-0.55254996 -3.7135344 -3.0533369 10.5
-2.8290477 -3.3709929 -2.9184694 8.875
-2.7278295 -3.2982347 -2.9845386 7
-2.1702404 -3.3380396 -3.1599777 3
-0.95150417 -3.3772643 -2.9350491 6.875
-0.55834627 -3.3023803 -3.0715759 12.5
-7.2939854 -2.890054 -2.9427304 7.375
-6.9732418 -3.0232284 -2.8812656 6
-6.7902298 -2.9157405 -2.9169738 5
-6.3532691 -3.0660641 -2.8518612 6
-5.809916 -2.9603362 -2.9752917 4
-2.8335025 -3.0453644 -2.9845707 8.6999998
-2.7475252 -2.962101 -2.9715931 11.008058
-2.1988997 -2.9983158 -2.9191189 4.5555553
-1.7206968 -2.9421456 -3.031739 5
-0.92548668 -2.9416027 -2.9935701 9.5799484
-0.68260199 -2.952704 -3.0629859 12.5
-7.2395501 -2.5866606 -3.0181363 9.8530159
-7.1115742 -2.6424398 -2.9318955 6.5555553
-6.7065597 -2.490514 -3.0483088 6
-6.1976233 -2.5048394 -2.9771748 5.5
-5.7993422 -2.5544605 -3.1639152 5
-5.3579369 -2.5469058 -2.9851694 8.8692617
-2.8342569 -2.6252151 -2.9541922 13.871429
-2.7598581 -2.7814059 -2.9609182 13.177083
-0.92199814 -2.6036656 -2.9721019 12.770256
-0.74205768 -2.5983505 -3.1238704 10.75
-7.2853518 -2.2211833 -2.9996984 12.571971
-7.1961432 -2.1064382 -3.0241473 7.5
-5.3645873 -2.2909923 -2.9944005 12.000547
-2.8115931 -2.2580323 -2.9806771 15
-0.96155524 -2.2098596 -2.9764917 12.464286
-7.2825651 -1.8711838 -3.0271127 12.718409
-7.1966839 -1.888531 -2.9665585 9
-5.3777595 -1.8522717 -2.9311891 14.319708
-2.8044386 -1.7215207 -2.9322832 7
-0.97224492 -1.8510036 -2.9950025 13.2
-7.2562456 -1.4528911 -3.0683618 12.727777
-7.1989002 -1.5968802 -2.9679132 11
-2.8118489 -1.4923769 -2.9822736 9
-0.97978354 -1.3915217 -2.9783602 9.25
-0.61773163 -1.2991427 -3.015944 7.7636366
-0.10851509 -1.4677124 -2.9647408 5.1666665
0.29241624 -1.4091563 -3.067786 5.4000001
0.60858166 -1.3613683 -2.926291 4.416667
1.5004179 -1.2106869 -3.0263658 5
1.8674339 -1.3319951 -2.9861538 4
2.123117 -1.3253595 -3.0638032 4.5
2.4945438 -1.3367115 -2.980201 5.3333335
3.1076 -1.3523581 -2.9890594 6
3.3322849 -1.3210417 -3.1847575 6
3.6619663 -1.2325435 -3.0188713 6
5.7435927 -1.2522407 -3.0754809 7
-7.2957492 -1.1565127 -3.0645111 14.3
-2.827199 -1.0971451 -2.9982858 12.142857
-0.99497098 -0.98104954 -2.9929338 12.5
-0.61600405 -0.97959781 -3.0042982 11.374397
0.96755457 -1.1424196 -3.0727658 6
1.5545338 -1.1223757 -2.9941871 6
1.8614889 -1.1576426 -3.0928888 4.6666665
2.189779 -1.1431578 -2.9572399 4.3333335
2.5311532 -1.1190281 -3.0301681 4.5
2.9932024 -1.1390456 -3.0039995 4.1111112
3.3696578 -1.1542584 -2.8231192 5
3.9678407 -1.080593 -3.1567183 3
4.5852203 -1.0751941 -3.038322 4.75
5.0887594 -1.014981 -3.1373553 5
5.4502273 -0.97358656 -3.1620073 6.3333335
5.7057495 -0.96465999 -3.0139673 7.5999999
-2.8379545 -0.77480805 -3.0324218 14.583334
-1.005805 -0.68124384 -3.009212 14.75
-0.63032132 -0.58306211 -3.044524 12.666667
5.4531517 -0.57696939 -3.0091159 8.6000004
5.6896901 -0.62327892 -3.0411673 10.890476
-0.91224325 -0.051721219 -2.8157392 7
-0.64084345 -0.18521835 -3.0091782 13.761905
2.1359103 -0.064720497 -2.9237955 7
3.0292664 -0.23110972 -3.0070574 9
5.3841305 -0.26535717 -2.9989591 10
5.6900744 -0.22675124 -3.0481439 13.883334
-0.9159078 0.20728047 -2.9948997 9.3000002
-0.66046262 0.13717848 -3.0973067 15
1.9823561 0.17129418 -2.8961172 8.5
2.1371927 0.19796297 -2.9559882 8.9666662
3.0274296 0.15737498 -3.0131135 11.875
5.3722653 0.17465617 -2.9718614 10.4
5.7175641 0.12677245 -3.1070347 15
-0.91753083 0.61554283 -2.9846332 12.74762
1.9806796 0.53609741 -2.8978357 10.5
2.1356399 0.5577206 -2.9560113 11.672223
3.0252485 0.50774378 -3.0210605 14.375
5.3702617 0.57587367 -2.9817564 13.05
-0.91728735 0.87848479 -3.0163424 14.75
1.9811971 0.95671636 -2.9134712 12.75
2.1353035 0.92496747 -2.9718878 14.340742
5.4358139 0.96788651 -2.8796096 12.333334
-0.9551838 1.2137764 -2.9846053 15
1.9801526 1.3396901 -2.9137154 14.75
2.1052856 1.2645705 -2.9447825 15
5.4338269 1.4274119 -2.913115 14.5
-0.26130709 -5.1145992 -2.6303995 8.5
-0.48793575 -4.4771609 -2.5058947 8.5
-0.26613933 -4.7496901 -2.6457145 10.5
-0.4931061 -4.1121359 -2.5241237 10.5
-0.27280945 -4.2859578 -2.6527989 13
-2.8175123 -3.7080894 -2.7787762 7
-0.60210407 -3.7545652 -2.5072157 10.5
-0.27791229 -3.9041042 -2.6677454 15
-2.8313181 -3.3470004 -2.5199258 9.0277777
-2.7222059 -3.3189435 -2.5925126 8
-2.2547326 -3.4102707 -2.7141516 5
-0.91929406 -3.3080251 -2.5936222 7.4375
-0.60749531 -3.3820493 -2.5243766 12.5
1.9769928 -3.3016701 -2.4954967 8.5
-7.2770896 -2.8492496 -2.5728509 8.666667
-7.1983676 -2.8740184 -2.5320866 6.5
-6.6957378 -2.9532413 -2.6389208 5.5
-6.2466607 -2.8750958 -2.4456542 5
-5.409883 -2.8472047 -2.681541 5.1666665
-4.989675 -2.8375232 -2.5570138 3
-2.8377357 -2.9614246 -2.5481944 11.928572
-2.7453279 -3.0040088 -2.6136017 10.422972
-2.2316084 -3.0493202 -2.4203687 5
-1.8443376 -3.0464408 -2.5416791 4.5555553
-1.4777431 -3.0596225 -2.5853643 4.3333335
-0.93299693 -2.960537 -2.6336567 9.782671
-0.71719742 -3.0307484 -2.5202765 12.5
1.9779503 -3.0168355 -2.4675725 10.5
-7.2426929 -2.55319 -2.5771098 9.6705599
-7.0146947 -2.6253455 -2.6039736 6
-6.5868254 -2.4727731 -2.6350954 5.5
-6.0361662 -2.6419287 -2.4396114 3.5
-5.7320805 -2.5921173 -2.6932428 4.2222219
-5.3534184 -2.5600152 -2.6108701 8.0078793
-2.846137 -2.6450596 -2.5204146 14.222221
-2.7634168 -2.7542911 -2.5494494 13.373851
-0.92887741 -2.632319 -2.6258817 12.131445
-0.72241676 -2.6506658 -2.5334086 14.5
1.9616971 -2.6000066 -2.492465 13.375
-7.2634878 -2.2508481 -2.6031868 11.796422
-7.1950717 -2.1619422 -2.4660735 7
-6.1687708 -2.3870258 -2.6278102 6
-5.3722053 -2.2773485 -2.6195104 11.950857
-2.820765 -2.3468962 -2.5480361 15
-0.97759986 -2.1393099 -2.5178142 13.125
1.9627869 -2.3513629 -2.5279508 15
2.2182019 -2.3751781 -2.4319263 15
-7.2728887 -1.8488356 -2.5520215 12.404761
-5.3855777 -1.8407477 -2.6589105 14.472222
-2.8214149 -1.7019067 -2.4037156 7
-0.99971461 -1.6949937 -2.4999962 11
-7.2734313 -1.4502236 -2.5359352 13.291667
-2.8209808 -1.442842 -2.6045098 9.5
-0.95616454 -1.4565891 -2.5871813 9.166667
-0.64871025 -1.3442045 -2.5792956 7.6957169
-0.14689934 -1.4866012 -2.6527083 5
0.21610475 -1.4626623 -2.5715449 4.0833335
0.6076526 -1.2987012 -2.5930519 5
0.98143685 -1.287771 -2.5457332 4.6666665
1.4578681 -1.2767391 -2.5905747 4.333333
1.8782852 -1.3722079 -2.6075239 4.5
2.2601871 -1.3276035 -2.5122058 6.8333335
2.4886153 -1.282236 -2.5449648 6
3.1567984 -1.3407359 -2.7073169 6
3.4162605 -1.2670444 -2.6520386 6
5.7282233 -1.2394862 -2.694113 7
-7.2226205 -1.1212454 -2.7020984 14.5
-2.8389008 -0.98095286 -2.6006138 13.6
-0.97177297 -1.0400752 -2.585861 12.595238
-0.64243698 -0.989299 -2.5877485 11.663545
1.0553397 -1.1285429 -2.6148293 6
1.5020671 -1.1191944 -2.4796462 6
1.7684913 -1.1968037 -2.7872062 5
2.2629797 -1.0289792 -2.5093265 9.8000002
2.4656017 -1.0352527 -2.5054402 8.704545
3.002919 -1.1154069 -2.5681095 4.3333335
3.4191797 -1.0194989 -2.6703691 5
3.7187171 -1.0103419 -2.7381444 5
4.1884041 -1.0457461 -2.7436523 5
4.5452862 -1.0254643 -2.547137 4.9166665
5.1916652 -1.0084375 -2.7754304 5
5.4277239 -0.98809505 -2.7090979 6.25
5.6811566 -0.92527974 -2.6423688 7.6809521
-2.8500605 -0.77455515 -2.7148211 15
-0.95349324 -0.75464356 -2.6168118 14.5
-0.64267182 -0.61288345 -2.5741508 13.234375
2.2540383 -0.63463199 -2.5071836 13.55
2.4399438 -0.76891446 -2.4434376 15
3.0177805 -0.4298391 -2.6462622 7
4.0039401 -0.41811824 -2.454833 7
5.5102959 -0.54691762 -2.5939302 10.333333
5.6704936 -0.55962843 -2.6084888 11.891736
-0.93835485 -0.060964145 -2.5155663 7
-0.6715005 -0.14208443 -2.5600951 13.914016
1.99813 -0.099943548 -2.7200871 7
2.1515412 -0.15884547 -2.5364745 10.875
3.0583735 -0.24156815 -2.6034467 9.166667
3.9638989 -0.15698013 -2.555223 9.5
4.0678124 -0.12272043 -2.4604535 9.875
4.4449134 -0.31280613 -2.5306118 8
5.398632 -0.25583255 -2.6816115 10.285714
5.6680412 -0.22930336 -2.6604135 14.068666
-0.94622582 0.187685 -2.6307168 9.0555553
-0.68602443 0.13622445 -2.6568232 15
1.9971122 0.24136215 -2.7260985 9
2.1408918 0.25563052 -2.5014265 9.666667
3.0557957 0.15444575 -2.6126788 12.333333
3.9622209 0.21927378 -2.5600166 13
4.0645733 0.20283532 -2.4580679 13
4.4428339 0.28449157 -2.5409746 13.5
5.3701744 0.17384695 -2.5748405 11.2
5.7003088 0.13598335 -2.7182651 15
-0.94856811 0.58101732 -2.6309013 12.055555
1.9965566 0.58742636 -2.734231 11
2.1289916 0.63523507 -2.5446591 12.6
3.0543687 0.45913568 -2.6172237 14.666667
5.3461223 0.50432873 -2.6632712 14.455556
-0.98504931 0.96893883 -2.6293514 13.150001
1.9942614 1.0285702 -2.7378182 13.5
2.1329963 0.89990115 -2.5946186 14.520833
-1.0038164 1.3367143 -2.6586647 14.5
1.993319 1.3020788 -2.7420959 15
5.4336629 1.3348844 -2.4419003 14.6
-0.90329528 1.698441 -2.7088103 15
-0.34854859 -5.1176686 -2.1777952 8.5
2.7234836 -5.0424395 -2.0471222 8.5
-0.54174805 -4.4796896 -2.0525532 8.5
-0.35413736 -4.7003431 -2.1954124 11
2.6272469 -4.5299149 -2.1059752 9.5
-0.54763055 -4.0619888 -2.0701718 11
-0.36166942 -4.1422434 -2.2169359 14.25
2.6246443 -4.1320429 -2.1227484 11.5
-2.8285556 -3.6826096 -2.0636363 7
-0.64432561 -3.7024975 -2.0576544 11
2.2715282 -3.7013919 -2.3186142 7.75
2.617311 -3.7271814 -2.1326489 13.5
-2.8410218 -3.3285184 -2.2622066 9.1999998
-2.7691038 -3.3468394 -2.1706138 7.6845236
-2.189419 -3.4171772 -2.2672634 3
-1.3987406 -3.5785522 -2.1734381 6
-0.91753089 -3.3253384 -2.2358692 7.0250001
-0.6490292 -3.3627119 -2.0687709 13
1.9812509 -3.3776941 -2.2423925 7.9499998
2.2676098 -3.3555787 -2.1379781 8.7857141
2.5181429 -3.2069328 -2.1873994 14.5
-7.22402 -2.9174907 -2.2385371 7.1944442
-7.1925335 -2.8375719 -2.3326955 7
-6.5519643 -2.9874122 -2.2810745 6
-5.7539482 -2.8431916 -2.3098783 5
-5.3420978 -2.8355675 -2.3116698 5.25
-2.8543324 -2.9572749 -2.2525201 11.972727
-2.7733295 -2.9983702 -2.195776 10.578908
-2.20825 -3.1031868 -2.1795673 4.7222219
-1.7945298 -3.0222576 -2.172739 5
-1.4248005 -3.0049772 -2.1682415 5.3333335
-0.9481287 -2.9785814 -2.2202284 10.370125
-0.74596673 -2.9269445 -2.0536985 13.5
1.9730735 -2.8262708 -2.1689882 12
2.3112082 -2.9920547 -2.1908762 10.571428
-7.2491903 -2.5510032 -2.1972401 8.9735823
-6.9169011 -2.4711576 -2.2298679 5
-6.4612131 -2.4872699 -2.2344761 4.5
-6.0769458 -2.4400465 -2.2032418 5
-5.7251024 -2.4281082 -2.1842003 5
-5.3791337 -2.5058806 -2.218559 7.9720626
-2.8575313 -2.6145957 -2.2074969 14.416667
-2.7683115 -2.6568983 -2.1640415 13.455916
-0.9329434 -2.6322985 -2.1937597 11.251089
-0.74919879 -2.6655812 -2.0590596 15
1.9682126 -2.4846113 -2.1385972 14.5
2.2783544 -2.635361 -2.1736562 13.071428
-7.2663035 -2.2331762 -2.1909456 12.472303
-7.1999707 -2.1593428 -2.3839884 7
-5.3841128 -2.239099 -2.1918631 11.920586
-2.8403544 -2.3879511 -2.3319721 15
-0.95271653 -2.2214785 -2.1977072 14.009889
2.3368967 -2.3125298 -2.1550198 14.333333
-7.2817326 -1.8263379 -2.2174289 12.416667
-5.3984542 -1.8116293 -2.1346469 14.622223
-2.7618504 -1.6186442 -2.1433504 7
-1.5431229 -1.7057549 -2.0203815 6
-1.0002462 -1.7465407 -2.1776168 9.5555563
-0.58679706 -1.6165261 -2.2367575 6
-0.3206811 -1.6069105 -2.2024329 6
-7.3214169 -1.4435023 -2.1804461 13.619048
-2.8291638 -1.4257176 -2.1705129 9.8000002
-2.7733166 -1.3851799 -2.2809739 9.1999998
-0.98379886 -1.4320056 -2.1833999 9.4333334
-0.67404187 -1.3322598 -2.1886735 7.8800049
-0.18309481 -1.439069 -2.2012708 4.8571429
0.13179126 -1.4320017 -2.2359853 4.75
0.59440976 -1.4460613 -2.2996202 5
0.966847 -1.3582989 -2.1725931 5.3333335
1.3255033 -1.3606563 -2.2248683 4.375
1.7576885 -1.3346366 -2.2107692 4.5
