# .PCD v0.7 - Point Cloud Data file format
VERSION 0.7
FIELDS x y z intensity
SIZE 4 4 4 4
TYPE F F F F
COUNT 1 1 1 1
WIDTH 1222
HEIGHT 1
VIEWPOINT 0 0 0 1 0 0 0
POINTS 1222
DATA ascii
-6.6100492 -2.1615982 1.7664324 10.035589
-6.1736751 -2.176719 1.7278662 13.619641
-5.8061867 -2.1497521 1.7398442 9.1566591
-5.3799858 -2.1445937 1.7653198 10.655395
-5.0105839 -2.1377134 1.7952169 8.9123783
-4.6023555 -2.1799443 1.8140537 9.1905766
-4.1914248 -2.1583493 1.8148432 9.8956547
-3.7998962 -2.121639 1.8467709 10.338417
-3.3951287 -2.1296525 1.8584135 11.078122
-3.0034809 -2.1289804 1.8601531 11.074948
-2.6183629 -2.1218176 1.8758985 11.411111
-2.2293136 -2.1230431 1.8969966 12.854167
-1.8805764 -2.1484413 1.8903595 11.65
-1.3833765 -2.1712837 1.8931918 13.255074
-1.0433885 -2.1826117 1.7853881 9.837779
1.9261894 -2.266263 1.818555 14.62963
-7.6749878 -1.7384371 1.620994 14.75
-7.3331766 -1.760021 1.7265422 12.468993
-7.0022388 -1.7735043 1.7436225 12.490333
-6.5813322 -1.738385 1.7640268 12.563438
-6.162219 -1.7613206 1.7627875 11.931602
-5.8235984 -1.8031533 1.7447995 10.467521
-5.3852539 -1.7829522 1.7686033 10.596277
-4.9970617 -1.799137 1.7751405 9.9290562
-4.5852971 -1.8104318 1.793517 9.7492151
-4.2121701 -1.8156407 1.7868205 8.8317299
-3.8021388 -1.7948197 1.8035898 9.1027164
-3.4190781 -1.780064 1.8171381 8.9370556
-3.0037382 -1.782493 1.8208524 8.397336
-2.595541 -1.7702293 1.8373284 8.4042206
-2.2101598 -1.7530321 1.8220158 7.5863214
-1.8334936 -1.7542493 1.8448687 7.6393375
-1.4044411 -1.7522644 1.870932 8.3611288
-1.0433598 -1.7456044 1.7593488 9.4193497
-7.368618 -1.3860166 1.7355114 12.919126
-7.0080533 -1.4170914 1.7342263 12.091335
-6.5947971 -1.4216728 1.7341537 12.12954
-6.1894388 -1.404961 1.7512733 11.765867
-5.8337197 -1.4269956 1.745033 11.660481
-5.3662024 -1.4267255 1.7668507 11.958354
-4.9975495 -1.4309242 1.7788732 11.702208
-4.6039739 -1.4380083 1.7979213 12.285781
-4.196701 -1.4262048 1.7924414 11.778163
-3.7977045 -1.4247961 1.7938353 12.114403
-3.4125791 -1.4354984 1.8019049 11.669255
-2.988714 -1.4238867 1.799432 11.802337
-2.5858157 -1.4133778 1.8041868 11.38262
-2.2117376 -1.3825339 1.8079082 10.954646
-1.8034335 -1.351977 1.8132826 10.03317
-1.396311 -1.3870912 1.8300184 10.276526
-1.0358019 -1.3796746 1.7549868 10.538488
-0.73545492 -1.4074887 1.8031235 6.5483336
-0.19190638 -1.40872 1.8426515 6
0.28294227 -1.4258168 1.8596089 6.0714288
0.64225757 -1.3657689 1.7671247 6.92735
0.95011699 -1.2944148 1.6944973 6.8029413
2.137846 -1.3181701 1.8064055 7
-7.3483787 -1.0205327 1.70635 11.654055
-6.9949484 -0.99651271 1.695742 12.672499
-6.5938311 -1.0284574 1.7258536 11.814912
-6.23174 -1.013929 1.7346519 11.997369
-5.8061318 -0.99270606 1.744769 12.295506
-5.3874259 -1.0141271 1.7467749 12.01075
-5.003778 -0.99128693 1.7512242 12.251148
-4.5960097 -0.99695402 1.760218 12.677519
-4.1921244 -0.9715327 1.7669222 12.169704
-3.7869167 -1.015909 1.7571021 12.358144
-3.4161963 -1.0502412 1.7792175 12.678029
-2.9808497 -1.0420195 1.7978078 12.779946
-2.5788071 -1.0417609 1.7828274 11.955985
-2.1853261 -1.0385522 1.7736143 11.509605
-1.805385 -1.0073953 1.7987803 11.277862
-1.3755227 -1.049222 1.831234 13.548054
-0.99988604 -1.0068054 1.7718129 11.710592
-0.78258532 -1.0174645 1.8073951 11.410998
0.37928808 -1.0490773 1.8508759 7
0.64019483 -1.0202816 1.8227009 9.9401131
0.96712601 -1.0029589 1.7793319 8.8944931
1.9589044 -0.91825074 1.7785169 8.416667
2.1327801 -0.99318755 1.8302639 8.8274622
3.2998288 -0.82532227 1.6992708 6.8571429
4.2408347 -0.81915963 1.8339778 4.7241378
4.5190163 -0.82445902 1.7429988 4.8846154
4.9248123 -0.83745193 1.8448339 6
5.2374201 -0.82057649 1.8788809 6
5.6448426 -0.839001 1.816367 7
-7.3737254 -0.58246177 1.6911687 12.972839
-6.996789 -0.60647386 1.7177304 13.326984
-6.5955548 -0.61277771 1.7100117 13.101191
-6.1668577 -0.60230058 1.7210367 13.08642
-5.7801237 -0.6089251 1.7260106 13.435954
-5.4034233 -0.5607549 1.7408516 13.386564
-4.9956408 -0.60298783 1.7419322 13.762774
-4.6044955 -0.587762 1.754523 14.091157
-4.2046657 -0.57594419 1.7560006 13.765266
-3.8124664 -0.56911278 1.7674863 13.877451
-3.4327574 -0.61094141 1.7553101 13.494739
-2.9756811 -0.65439188 1.7673827 12.940786
-2.5766275 -0.62675458 1.7510809 11.93177
-2.1919556 -0.63393492 1.7562876 11.487459
-1.8103052 -0.5984453 1.7595302 11.735304
-1.375122 -0.60372114 1.8048756 12.264706
-0.9495877 -0.61224383 1.7735715 12.03
-0.7252903 -0.46905464 1.913264 10
0.6855827 -0.63287026 1.786468 12.338953
0.9929322 -0.58280373 1.7917688 11.689295
1.9689847 -0.54812616 1.7974401 12.045455
2.1201565 -0.57194352 1.7969379 12.191668
3.2705803 -0.5827288 1.8131894 8.1093683
4.2405128 -0.49109837 1.8185514 3.6862745
4.6121655 -0.5940783 1.8229403 3.7994149
4.9953766 -0.63804388 1.7933097 4.3518519
5.481853 -0.58493483 1.8132864 7.187561
5.638411 -0.598068 1.8140814 8.7777777
-7.6001792 -0.13489592 1.6143734 15
-7.3809838 -0.20713638 1.6719493 13.801755
-6.9725294 -0.23288909 1.7214111 13.933334
-6.5922494 -0.16649596 1.74289 14.019608
-6.1849957 -0.20023836 1.7324944 14.266666
-5.7957821 -0.18970732 1.7481724 14.305556
-5.4129186 -0.1474015 1.7540485 14.648719
-5.0014963 -0.1828613 1.7588744 14.858974
-4.6465626 -0.2072902 1.7528653 14.796297
-4.2400331 -0.21753345 1.7323891 14.618182
-3.8026195 -0.20962496 1.6533502 14.7
-3.3580933 -0.36403579 1.6888821 14.3
-2.9381411 -0.34109157 1.7845408 11.4825
-2.5597911 -0.24125326 1.769866 11.860869
-2.1888309 -0.21551792 1.7320842 12.512405
-1.7671738 -0.14787106 1.7612665 9.5406961
-1.3971398 -0.11887842 1.822302 8.007247
-0.94163018 -0.17062509 1.741572 9.9460201
-0.59927952 -0.12395018 1.7027235 5.7819591
-0.18934122 -0.14135022 1.7210079 4.6264362
0.16173753 -0.13403293 1.7482251 4.8154764
0.58644474 -0.15384015 1.8090647 4.6875
0.98382258 -0.16928951 1.7974788 5.0764508
1.4439887 -0.14937079 1.8247663 4.9673204
1.8343225 -0.1889468 1.8211038 6.765986
2.1762183 -0.1427699 1.8152139 8.912056
2.5800805 -0.11802578 1.8794941 5.9156528
3.1417234 -0.1568162 1.8189176 6.9396801
3.2669771 -0.22224626 1.8203423 10.836158
3.8224456 -0.16956393 1.8026609 4.9166665
4.2129011 -0.17796449 1.7940274 4.71875
4.606286 -0.16979036 1.7939299 4.7829714
4.9283447 -0.23650734 1.9013979 5.6733332
5.4899001 -0.19089258 1.8069259 9.6859961
5.6231012 -0.19004743 1.811242 11.819048
-7.3739514 0.19608836 1.6992905 14.677083
-7.0151114 0.16785605 1.7520148 14.805556
-6.6110525 0.2289865 1.7252624 15
-6.2111149 0.17697604 1.7242769 15
-5.8698287 0.16518839 1.7290822 15
-2.9023297 0.097468279 1.8711114 11.25
-2.5731916 0.20191163 1.799516 12
-2.181833 0.18800484 1.7717868 12.772727
-1.7695788 0.17319401 1.7732797 11.134967
-1.322674 0.33461085 1.6962698 13.733335
-0.9045155 0.17030089 1.7682846 12.055015
-0.60529172 0.16200887 1.7919322 11.231932
-0.19105977 0.13304712 1.7365632 11.093399
0.04851139 0.14924483 1.7659301 10.561226
1.8927509 0.24566002 1.7992128 13.944444
2.2198982 0.16601641 1.8181928 12.68747
2.5743768 0.17039241 1.8717804 12.455401
3.1289253 0.18695512 1.7894365 12.59885
3.2497137 0.1368532 1.8316445 14.591622
5.4894567 0.17780317 1.7931626 11.916245
5.6184273 0.16660905 1.8239971 14.661904
-7.4592385 0.49955237 1.6838278 15
-2.9086106 0.52961653 1.8590916 12.75
-2.5985169 0.58250231 1.8425674 13.227273
-2.2095926 0.62443376 1.7929283 13.909091
-1.7466023 0.55626231 1.7887019 13.378732
-1.2820045 0.62693995 1.7130882 14.444446
-0.98291665 0.59094572 1.7909731 14.647058
-0.68899566 0.48718753 1.9475273 14.399786
1.8462811 0.51666921 1.8320359 14.833333
2.1212878 0.54866314 1.6941922 13.8125
2.7439241 0.4333362 1.7553562 14.25
3.0000665 0.42918712 1.8472633 14.386667
5.4658628 0.49190247 1.8226528 13.530692
-2.9178994 0.94639331 1.8505415 14.166667
-2.6166544 1.0145611 1.8538108 14.647058
-2.2330813 0.97314358 1.8764758 14.7
-1.7243013 0.94408524 1.7855598 13.84821
-1.3551488 0.81394041 1.8217931 15
-0.98248684 0.83820266 1.8547283 15
5.461843 0.9521451 1.8162683 14.062857
-2.9390845 1.238292 1.8897038 15
-1.7514484 1.2588358 1.8098904 14.850879
5.4483881 1.2531196 1.8271079 15
-1.493976 -5.6177826 2.2107646 3
-2.0707736 -5.3187766 2.1650085 6.6588125
-1.8951628 -5.3383503 2.1415882 5.5185184
-1.4500332 -5.4000587 2.2551091 3
0.34969151 -5.3098125 2.113404 5.9779778
0.49068585 -5.2999539 2.3341594 5.8437114
0.89268655 -5.3327312 2.3161602 5
1.865483 -5.3042283 2.2506278 6.5119052
-2.0498435 -4.9722624 2.1718197 10.910431
-1.9238449 -4.9563804 2.198966 6.7989345
-1.4233478 -5.0278978 2.3749595 3
0.36365914 -5.0008774 2.1214297 10.43892
0.47341692 -4.9890079 2.2984202 9.6535816
0.93394172 -5.0984187 2.3572345 5
1.9117047 -4.9777231 2.2546489 8.1241131
-2.0304482 -4.6367974 2.2462342 13.909302
-1.922627 -4.5750837 2.2072392 9.8569269
-1.3726014 -4.6559834 2.3458867 3
0.39166275 -4.6720676 2.1533198 11.725677
0.48500502 -4.573823 2.2726243 9.9100437
1.0210003 -4.5912547 2.3388247 5
1.9433852 -4.6035266 2.2499633 10.39975
2.0049345 -4.4564404 2.1474357 6.5416665
-2.0082741 -4.3417187 2.3777273 15
-1.8886603 -4.1893363 2.206836 11.009401
-1.2711838 -4.0972586 2.0135248 5.5714293
0.53112006 -4.2024961 2.2243381 10.115099
1.0395789 -4.2047691 2.3116136 5
1.9788743 -4.1917539 2.2194674 11.023255
2.0205264 -4.2078171 2.151051 9.045455
-1.8523974 -3.8038099 2.2112715 11.30057
-1.2751995 -3.7781994 2.1784892 4.7098217
-0.92113453 -3.7630119 2.2975049 3.6296294
-0.53438556 -3.8421631 2.2448916 3.1818182
-0.067173913 -3.6243391 2.3365901 4
0.0019213855 -3.6054833 2.1254368 4
0.5573979 -3.8082986 2.2257769 10.213922
1.1000537 -3.8242536 2.2755363 5
1.9987526 -3.9805815 2.1725314 10.25
2.0340488 -3.7952106 2.1483383 10.200475
-1.8506186 -3.44118 2.2041178 13.48429
-1.0325195 -3.4953716 2.1652579 6.5999999
-0.58375859 -3.5177181 2.1550648 5.0138888
-0.16995734 -3.5169501 2.1676199 5.125
0.26115984 -3.4309733 2.1511579 5.9807692
0.58935004 -3.4801059 2.1541018 12.330079
1.5739553 -3.551645 2.0257969 6
1.9342346 -3.3404973 2.1518271 6.9375
2.0389776 -3.4112489 2.1584775 11.400549
-7.2128153 -2.8226738 2.1549473 7
-6.9077358 -2.8190207 2.1815276 7
-6.6889601 -2.8009193 2.1703849 7
-3.4135518 -3.0211136 2.0329483 7.2142859
-2.9647458 -3.0112057 2.0666978 7.125
-2.631907 -2.9638767 2.0800133 7.2563496
-2.2447963 -2.9479308 2.0928266 7.2066665
-1.8407321 -3.0531156 2.140527 10.46192
-1.4410337 -2.9546969 2.1028082 7
-1.0827324 -2.8994949 2.1199369 8.333333
0.36726683 -3.0233376 2.0806201 11.588573
0.43269721 -3.0405605 2.0453827 12.731445
1.9317366 -2.9966488 2.1981759 8.8334684
2.0413289 -3.0512779 2.2108631 13.092445
-7.2561178 -2.6640866 2.177623 7
-7.062099 -2.5740848 2.1704826 7.6923075
-6.626246 -2.5770535 2.1830654 7.6509814
-6.3628654 -2.6006031 2.1830297 7
-5.7496262 -2.570456 2.1936703 7.3166671
-5.3925662 -2.5480072 2.200073 7.3214288
-4.9664693 -2.4761136 2.1880624 7
-4.7740221 -2.4120827 2.1329083 7
-3.4202528 -2.6837778 2.0357757 8.9518518
-2.9983065 -2.6563613 2.1012595 8.6104164
-2.6044199 -2.640064 2.1157763 8.3594198
-2.2056551 -2.6408069 2.1024132 8.5650797
-1.847614 -2.6773427 2.1124399 8.2566671
-1.4401723 -2.6624384 2.1078901 8.320714
-1.0751379 -2.591064 2.0997045 8.1682549
-0.26578784 -2.5336018 2.2523081 7
0.34810185 -2.6936839 2.0936079 13.722222
0.46192053 -2.7336781 2.0360434 12.527333
1.9291692 -2.5859859 2.2211297 12.481614
2.0150855 -2.6414149 2.2065575 14.030612
-7.3021021 -2.274579 2.0857961 8.9499998
-7.0300932 -2.248518 2.13363 9.014286
-6.6132474 -2.220283 2.141006 9.1547098
-6.1921382 -2.1895835 2.1570475 9.268116
-5.7699351 -2.181181 2.1823657 9.1490192
-5.3577528 -2.2214167 2.1563358 8.6198874
-5.0172615 -2.1938426 2.1563234 8.4945574
-4.7488904 -2.1175015 2.0808487 8.6999998
-3.3595703 -2.3020954 2.0419493 10.9
-2.9634948 -2.2826991 2.088202 10.464198
-2.5786486 -2.2666609 2.10464 10.236111
-2.2111411 -2.296103 2.0980487 10.208957
-1.8181818 -2.2521954 2.1054144 10.296429
-1.3941236 -2.2664621 2.0970812 10.344506
-1.0615512 -2.2256513 2.1066601 9.4464283
1.8935878 -2.2382689 2.2315342 14.448958
-7.3181572 -1.8818985 2.1005125 11.03125
-7.0046844 -1.8517163 2.1247838 11.093427
-6.6012688 -1.8285223 2.1344023 11.176666
-6.1907697 -1.8290794 2.1456172 11.022222
-5.7489023 -1.8588865 2.171946 10.600477
-5.3533211 -1.838678 2.1488786 10.733083
-5.0309782 -1.7975199 2.1379244 10.7
-4.7525482 -1.7236255 2.0504684 11.125
-3.3225102 -1.8893579 2.0381203 13
-3.0042133 -1.8313577 2.0816035 12.630252
-2.6050494 -1.8487303 2.0878477 12.228
-2.2027237 -1.8325703 2.0755856 12.653986
-1.8339611 -1.8305345 2.0892828 12.366071
-1.4081105 -1.8105345 2.0755773 12.873939
-1.0729961 -1.8098695 2.0843313 11.417708
-7.3045278 -1.4346621 2.0779951 13.341027
-7.0165191 -1.4432914 2.1157305 13.246378
-6.6241045 -1.4210579 2.1149414 13.339999
-6.2266393 -1.4343269 2.1329122 13.075
-5.7866354 -1.4571581 2.1618788 12.808124
-5.3506355 -1.4365598 2.1351073 12.854591
-5.021543 -1.3844182 2.1290855 12.971605
-4.7617078 -1.3369019 2.0427108 13.5
-3.3150938 -1.5758312 2.034513 14.5
-2.9925199 -1.4459444 2.0770013 14.25641
-2.613678 -1.4501219 2.0790455 13.925757
-2.2264824 -1.4351841 2.0843134 13.866667
-1.8217491 -1.4451373 2.089731 13.735001
-1.3899261 -1.433991 2.0828669 13.933333
-1.1021202 -1.4093996 2.0712802 13.211538
-0.58072817 -1.467136 2.1983535 6
-0.21764237 -1.4839175 2.2755561 6
0.15800804 -1.4710624 2.1894183 6.0222225
0.54405421 -1.4198825 2.0951509 6.5
1.9850812 -1.3359034 2.2592189 7
2.1308875 -1.3062453 2.2081027 7
-7.3355827 -1.1349705 2.0863316 14.75
-7.0382185 -1.114825 2.1251302 14.779762
-6.6372247 -1.113957 2.1248016 14.791667
-6.2144003 -1.0983012 2.1315708 14.685087
-5.7788858 -1.0970695 2.1468096 14.566349
-5.3785467 -1.0707958 2.1279287 14.663095
-5.020833 -1.0378489 2.130651 14.723223
-4.7633667 -1.0783966 2.042105 15
-2.9644442 -1.0697041 2.0879245 15
-2.6332228 -1.0078964 2.0814252 14.863636
-2.2128599 -1.0021352 2.0826492 14.771429
-1.7839324 -1.0423496 2.0868609 14.4
-1.344504 -1.0566534 2.1048069 12.81
-0.97679406 -1.0711658 2.1895466 9.7058821
-0.70461679 -0.98714197 2.3150263 7.75
0.49411234 -0.91733551 2.069037 12.607143
1.0437866 -0.96697199 2.0354559 7.855072
1.2282166 -0.96350628 2.0934052 7.80475
1.9708809 -0.95826817 2.2615223 8.791667
2.1299882 -0.9951576 2.2019594 8.7247458
3.4635403 -0.817195 2.1393912 5
4.2290297 -0.81222403 2.0757194 3
4.5766873 -0.83465117 2.2075028 6
4.8841796 -0.82314348 2.1807048 6
5.2159033 -0.8054471 2.1609886 6
5.6317835 -0.84635174 2.1843817 7
-1.7740656 -0.76252002 2.0735805 15
-1.3436874 -0.73168153 2.0711989 15
-1.0028145 -0.56028354 2.0590682 12
-0.73036003 -0.4396708 2.2161548 10
0.62062204 -0.74643922 2.0629821 11.568251
1.0516319 -0.58967125 2.0197127 9.5372591
1.2382767 -0.62726271 2.0756669 9.6151257
1.9398987 -0.62333715 2.2335758 11.022727
2.1349256 -0.5827204 2.1895628 11.511682
3.2751298 -0.56802797 2.2036564 7.8648753
4.2576728 -0.60778302 2.2367585 3.5714285
4.5823312 -0.65160954 2.1771591 3.7172413
4.9226942 -0.65220535 2.2175431 4.861702
5.5281129 -0.55118912 2.211535 7.4720688
5.6213861 -0.5919981 2.218111 8.7857141
-1.7271869 -0.074086435 2.1644211 6.8346667
-1.3756541 -0.13630238 2.0768495 6
-0.92247885 -0.10014186 2.0676117 11.5
-0.75091326 -0.14146513 2.1308463 11.25
-0.22699136 -0.21948957 2.170145 3
0.20506512 -0.14226246 2.2352169 5.565556
0.62533325 -0.14444429 2.2398443 5.2758622
1.02154 -0.14817743 2.176837 5.4857144
1.3592346 -0.16982868 2.1890798 5.6711392
1.8400627 -0.19070232 2.1917989 7.1659422
2.1622572 -0.1892592 2.2008271 9.9092951
2.6025779 -0.1620748 2.2092936 5.1488099
3.0651996 -0.16361563 2.1834912 5.4150944
3.2685528 -0.24615216 2.1957917 11.428794
3.8350794 -0.17312194 2.1935494 4.3141026
4.2081366 -0.16661601 2.1721134 4.3373017
4.5762372 -0.25537434 2.1753824 5.6230526
4.9320793 -0.25553134 2.1720448 5.7192984
5.524117 -0.16650715 2.2148261 9.8711901
5.6215124 -0.17803726 2.2083287 11.45
-1.7380754 0.17688735 2.1797464 9.6678591
-0.88447142 0.30772316 2.0986047 13
-0.62995052 0.32705459 2.2958691 11.207438
0.11552481 0.089883156 2.2273431 10.730649
1.8948206 0.25018033 2.1662951 13.625
2.1136742 0.19155191 2.1882458 14.519608
2.4341938 0.10856891 2.3069329 12
3.1854177 0.19958276 2.1042049 11.927101
3.2617271 0.16433783 2.1934378 14.357177
5.5063486 0.15544951 2.2032213 11.422317
5.6137042 0.20636772 2.2114036 14.166667
-1.7306811 0.55821502 2.1680167 13.14262
-0.92253411 0.55667245 2.0530043 14
-0.58934414 0.52587557 2.3322923 13.368183
1.8903885 0.53153205 2.208926 14.625
2.1234739 0.606107 2.1173029 15
2.4252906 0.4524976 2.3039837 13.5
3.1839573 0.41695708 2.2161119 14.081401
3.259629 0.42136753 2.2937286 15
5.4786491 0.50328892 2.222671 13.522776
-1.7308908 0.95235771 2.1702883 13.50295
-0.95803809 0.80404472 2.0036156 15
-0.61769462 0.8599872 2.3655927 14.611111
2.4159267 0.80227423 2.294898 15
5.4566894 0.93904907 2.1969621 14.083773
-1.745265 1.2664531 2.2004173 14.890693
5.4398475 1.2731444 2.2214763 15
-2.1469374 -5.3189836 2.5479045 6.5
-1.8809637 -5.3471608 2.577769 5
-1.4781156 -5.3406224 2.6159067 4
0.48985004 -5.396728 2.402189 5
0.90875769 -5.3344817 2.521296 5
1.8234578 -5.3010387 2.6281722 6.5
-2.1189809 -4.9616432 2.6145358 9.9469404
-1.817391 -4.9948196 2.6817114 5.0599999
-1.3869296 -5.0110707 2.6008012 3.4871795
0.57727456 -4.959137 2.4567451 5.3802385
0.96957207 -4.975461 2.5272124 5
1.8562551 -4.9804277 2.6429379 8.0592594
-2.0844707 -4.6176739 2.6766465 12.692768
-1.8894404 -4.5800776 2.5473006 6.7186155
-1.3000005 -4.6127138 2.5380347 3.2
0.61155003 -4.6410151 2.4312124 7.8022928
1.0515151 -4.5998406 2.5542951 5
1.8942137 -4.6030769 2.6328406 10.222566
2.0005438 -4.4115677 2.5192857 6.5
-2.0414109 -4.2652593 2.7456243 14.618717
-1.8975823 -4.1809192 2.4967749 9.381402
-1.2851993 -4.2026939 2.5371122 3
-1.1883709 -4.0468297 2.5007668 3
0.66742027 -4.1770377 2.4221983 5.2907147
1.0813766 -4.1961465 2.5194983 5
1.9458323 -4.2086291 2.603832 11.434031
2.0044284 -4.1870751 2.5080245 7
-1.873469 -3.8127096 2.5369706 10.277484
-1.30958 -3.7357404 2.5812182 4.4743586
-0.99534726 -3.7624528 2.5750704 3.8135417
-0.60307068 -3.7009759 2.5870256 4.090909
-0.032904249 -3.6533258 2.6210923 4
0.28878537 -3.6452415 2.6505439 4.5
0.69395858 -3.7799203 2.5473182 4.7439485
1.0873545 -3.8008571 2.5768533 4.9807692
1.9854592 -3.808605 2.5387647 13.061378
2.0231051 -3.7856317 2.548445 7.8139534
-1.8825796 -3.4190009 2.5390739 13.088537
-0.94466716 -3.450485 2.7206509 6
-0.60254866 -3.4780309 2.5615895 5.6666665
-0.29198012 -3.4797871 2.577033 5.6666665
0.1827675 -3.5203521 2.5145917 5.5
0.58978963 -3.4924471 2.5955677 6
0.87310272 -3.5496762 2.7931933 6
1.9714496 -3.4034498 2.5616264 12.145039
2.032706 -3.3902829 2.5638692 10.975316
-1.8793253 -3.0982633 2.6130877 14.596409
1.9127184 -2.9939077 2.6350863 8.6950006
2.0310602 -3.0803776 2.5995853 12.843253
1.9053793 -2.562464 2.6347516 12.069048
2.0162563 -2.6516387 2.5112903 13.366666
1.8784534 -2.1968768 2.6042624 14.138638
1.8992403 -1.8711734 2.7374458 15
-0.99361324 -1.2025937 2.7098565 7
-0.68830597 -1.5047573 2.4099243 6
2.1496503 -1.2785379 2.5954432 7
-0.87822014 -1.1794742 2.5169904 7
-0.58275199 -1.116806 2.6240423 7
-0.2654222 -1.1289477 2.6023548 7
0.20532179 -1.122947 2.6854234 7
1.9373142 -0.89690572 2.5451553 8.3571424
2.1410542 -0.96792191 2.62149 8.6332741
2.474369 -0.99466324 2.5445156 7
3.3055725 -0.96057177 2.4084215 7
4.3412285 -0.82080543 2.6903131 6
4.5682979 -0.81456119 2.5844293 6
4.8598804 -0.81206357 2.4620371 6
5.4750595 -0.88041294 2.5696273 7
5.6267338 -0.87254143 2.508765 7
1.9763739 -0.52759391 2.6382306 11.3
2.1293697 -0.56106913 2.6327956 11.048858
3.2854958 -0.56598878 2.6064827 8.1089373
4.2837405 -0.66639066 2.6000574 4.4204545
4.5611477 -0.6561904 2.6032495 5.011364
4.9485102 -0.6158796 2.5541196 5.5925927
5.5338039 -0.55827028 2.6170764 7.3698359
5.6096539 -0.6297769 2.5834014 8.3199997
-1.753195 -0.055991448 2.6179581 7
-0.10999882 -0.20674159 2.719955 5
0.21299873 -0.16116419 2.5601287 5.51507
0.58800024 -0.16499397 2.6390121 5.1199999
0.97915816 -0.17061457 2.6285288 4.7931032
1.366966 -0.17981423 2.6219831 5.1428571
1.8312793 -0.20496419 2.5645292 6.7762961
2.1587675 -0.17239776 2.6011641 9.78897
2.609236 -0.17726891 2.5552943 4.9227643
2.9748397 -0.17938639 2.5683289 4.9807692
3.2862761 -0.21678083 2.6082845 11.360456
3.8084695 -0.16965477 2.5597858 4.3095236
4.2047768 -0.17022201 2.6028664 4.8222218
4.605123 -0.19321081 2.5916619 5.3916669
4.9039998 -0.16634202 2.5957315 5.5769229
5.5405846 -0.16378048 2.6170223 9.4920349
5.6090555 -0.21504347 2.6217432 11.23125
-1.722163 0.18109922 2.5978348 9.4265881
-0.60899526 0.24778809 2.4603646 9.7774162
-0.1132654 0.10941704 2.6262045 9.0024996
0.12610692 0.08215221 2.4888773 9.9853592
1.8787154 0.18503211 2.571779 13
2.0849271 0.23109548 2.6238952 14.404762
3.2837534 0.1210487 2.5821364 14.327046
5.5249424 0.1653707 2.6093886 11.348601
5.6095004 0.2046957 2.4770403 13.8
-1.7076699 0.59826231 2.6011782 12.975001
-0.62301838 0.55787277 2.4163735 12.091384
1.8574964 0.58475018 2.5698221 14.75
2.0474727 0.58652121 2.6631269 14.416667
5.5023108 0.57009816 2.5954523 13.79625
5.6036806 0.47506642 2.6684756 14.5
-1.7182662 0.8945238 2.590204 14.210543
-0.66072178 0.91407323 2.4128575 14.459687
1.6846375 0.82616305 2.7064521 15
5.4642258 0.96067071 2.614073 13.911966
-1.7329317 1.2425574 2.6190858 14.799688
5.446651 1.3315951 2.6316483 14.837962
-2.2294528 -5.3115168 2.9548087 6.5
-1.7854837 -5.3568606 2.9984746 4.9250002
-1.4171293 -5.3239036 3.1142399 4.2333331
0.463548 -5.3235688 2.8437796 4
0.86739856 -5.3161693 2.8972399 5
1.7444592 -5.2901907 3.0091126 6.4909091
-2.1937499 -4.9716454 3.0133595 9.5281944
-1.7490841 -5.0159011 3.0969911 5
-1.4616072 -5.0251737 3.0225465 4.28125
0.53462327 -5.0013762 2.9330292 4
0.94166082 -4.9944878 2.970794 5
1.784566 -4.9770055 3.0304742 8.0090904
-2.1353662 -4.6026964 3.0460682 11.865561
-1.8170704 -4.5185056 2.8529153 5.652174
-1.3097168 -4.5753765 2.8345926 4
0.62018597 -4.5992517 2.9262376 4
1.0302129 -4.5966706 2.9413574 5
1.8334759 -4.5899563 3.0276315 10.065316
-2.0711317 -4.233952 3.1186533 13.490426
-1.8663404 -4.1760383 2.8679276 7.5430622
-1.2798164 -4.200738 2.8848081 4
-1.1885922 -4.1969328 3.1869187 4
0.67154342 -4.1989307 2.8930182 4
1.0803707 -4.2011104 2.8975232 5
1.9128797 -4.1988101 2.9738572 10.217526
-2.0145586 -3.9184411 3.1611886 14.518818
-1.90074 -3.8004332 2.89817 10.232478
-1.2933125 -3.84499 2.9062779 4.2098484
-1.0190171 -3.7490234 3.0455065 4.1805558
-0.53688824 -3.6554096 2.9874184 4.7777777
-0.07594306 -3.6698403 3.0170598 4.4285712
0.24278522 -3.6466465 2.9788158 5
0.62881643 -3.7854559 2.9640903 4.3466668
1.0243562 -3.8234789 2.9544194 4.875
1.4871104 -3.6272297 3.1018186 6
1.9506543 -3.7990661 2.9265401 10.9
2.0208156 -3.7589252 2.9743452 6.5282054
-1.9035387 -3.4224679 2.9418688 12.570989
-1.3920727 -3.5599527 3.0055308 6
-1.0527527 -3.5335307 2.9944193 6
-0.68672383 -3.5075371 2.9630556 6
-0.25209248 -3.5121794 2.9661696 6
0.19894615 -3.5357132 3.0123417 6
0.57125413 -3.5457931 2.9123328 6
1.0100521 -3.5775127 3.0226493 6
1.9699994 -3.4315062 2.8964171 13.410256
2.0213897 -3.4149358 3.0058203 9.8912735
-1.890696 -3.0717072 2.9710524 14.285714
1.9504377 -3.1640375 2.9772947 9.333333
2.0220559 -3.0429757 3.0200269 13.804688
-0.0056276321 -2.7176514 2.8956769 7
0.04852581 -2.7594192 3.138603 7
1.8729888 -2.3127625 2.8115354 14.5
-1.3195292 -1.2441189 2.9590297 7
-0.98934728 -1.223309 3.0876312 7
2.1746953 -1.2681825 2.9381406 7
-0.55614543 -1.1836733 2.9533114 7
-0.26661924 -1.1382554 2.8761148 7
0.17746663 -1.138587 2.9572937 7
0.557621 -1.0883856 2.8986948 7
1.1293495 -1.0544609 3.0488691 7
1.404129 -1.0673018 3.1271546 7
1.8902879 -1.0506442 3.0839188 7.5833335
2.1392305 -0.95472383 2.999418 8.5047617
1.8782668 -0.63637692 2.9515417 9.363636
2.1495752 -0.55686116 3.0195696 10.940953
3.290818 -0.54350656 3.0092163 8.0501776
4.3083572 -0.7284469 2.8379145 5
4.6252027 -0.5575121 2.9763353 6
4.9750924 -0.55891258 3.0022421 6
5.5290523 -0.56046295 3.0206976 7.1738563
5.6085911 -0.56785256 3.0775402 8.104167
-1.7167673 -0.14697519 3.1113133 7.1999998
-1.0651565 -0.22259116 3.1870708 6
-0.45808998 -0.18566608 2.974263 6
-0.13859025 -0.20152657 2.9779918 5.2857141
0.24461916 -0.18688701 2.9942713 5.1538463
0.62561774 -0.18367982 2.9973471 4.890625
1.0045251 -0.17747174 3.0183697 4.8965516
1.4049268 -0.17876047 2.9792826 4.590909
1.8139335 -0.1793088 3.0128584 5.937037
2.1646228 -0.17860405 3.0174417 8.847888
2.6051679 -0.1812975 2.9760284 5.2058825
3.0356548 -0.17679299 2.9919791 4.5882354
3.3011842 -0.18564604 2.9979348 11.887459
3.7952831 -0.17402849 2.9822159 4.5833335
4.1900744 -0.16908592 2.990267 4.9250002
4.5765824 -0.16384166 2.952487 5.348485
5.0242848 -0.12126127 3.0561216 6.5977015
5.542623 -0.16246457 2.9935892 9.0866299
5.6097231 -0.18616082 3.0978019 9.1530533
-1.7017202 0.16468248 3.0174656 9.0529757
1.8612131 0.30406079 2.9489186 13.285714
2.0681665 0.20898494 3.0230718 14.355556
3.2926216 0.10426355 3.0042684 14.213907
5.0897527 0.17984855 3.0905774 8.9254255
5.5341988 0.17026615 3.0014112 11.642142
5.6088867 0.27201495 3.0604317 12.431876
-1.6918478 0.57969218 3.004143 12.463923
1.8357928 0.66001999 2.9757428 14.625
2.0423007 0.53099221 3.0199828 14.8
3.2327108 0.47271875 3.0820003 14.5
5.0575094 0.48335987 3.0818224 11.07522
5.5052381 0.59187156 2.9739218 13.39654
5.6112056 0.5801636 3.0347922 14.594442
-1.7047734 0.90835762 3.0127802 14.036352
1.7587219 0.91613281 3.07461 15
5.4858489 0.94621974 3.01421 13.826437
-1.7237084 1.2561318 2.967289 14.758333
5.4584923 1.3132402 2.978178 14.800316
-2.3071136 -5.3068085 3.3422863 6.5
-1.614079 -5.3779387 3.3940513 5
-1.3777223 -5.3164263 3.4610751 4.6923075
-0.82293278 -5.3356838 3.4894383 4
-0.5697754 -5.3222613 3.5334837 4
-0.34349447 -5.3067784 3.5371959 4
0.14494273 -5.3181162 3.3354933 4.020833
0.58000839 -5.3144979 3.3000836 4.7592592
1.6544971 -5.2787194 3.4412904 6.5060606
-2.260397 -4.961957 3.4047387 9.0274506
-1.7059494 -4.8385706 3.2102113 5
-1.4240831 -5.0293784 3.3813577 4.5957446
-1.1643347 -4.9703007 3.4027729 4.1190476
-0.75240976 -5.1349015 3.558908 4
-0.24426967 -5.1361952 3.5674701 4
0.21738267 -4.9996686 3.4265835 4
0.61270541 -5.0350008 3.3620348 4.6666665
0.81102335 -4.8883247 3.399482 5
1.7041781 -4.9709449 3.4463592 8.0238085
-2.177532 -4.603725 3.4104557 10.320362
-1.6416366 -4.6393862 3.2176878 5
-1.420226 -4.576046 3.2562048 4.5714288
-1.083812 -4.6025438 3.3507614 4
0.2928966 -4.5927277 3.4499655 4
0.6240443 -4.611177 3.3526909 4.4375005
0.88749498 -4.6026878 3.3507419 5
1.7618599 -4.588316 3.4396152 10.099893
-2.0999789 -4.2443027 3.4680495 11.800064
-1.9871851 -4.1437268 3.3012304 7.4461074
-1.4588281 -4.1974187 3.3077686 4.7551022
-1.0124857 -4.2051411 3.4066937 4
0.36108723 -4.2592654 3.4334767 4
0.60657227 -4.1822629 3.3587158 4.3162394
0.95801443 -4.1986666 3.3115118 5
1.8554571 -4.2034869 3.3903224 10.361732
-2.033968 -3.7616835 3.4830487 14.793249
-1.9518254 -3.7796266 3.2982185 10.053982
-1.4047577 -3.8723109 3.309334 4.8448277
-0.98925173 -3.8293533 3.392766 4.3066664
-0.54360896 -3.7176909 3.4227099 4.5999999
-0.15289508 -3.7223959 3.414537 4.2727275
0.18286945 -3.7335134 3.4796433 4.5714288
0.59789944 -3.8403003 3.3647931 4.3963962
0.98741853 -3.8168831 3.3375411 5.1750002
1.3967745 -3.6355782 3.3780472 6
1.9212904 -3.8068831 3.3309436 10.270777
2.0100079 -3.7584779 3.2026927 6.5
-1.927285 -3.4213941 3.3244882 11.882565
-1.4242159 -3.5894806 3.3024833 6
-1.0455768 -3.5793271 3.3704255 6
-0.59925145 -3.5698133 3.3845916 6
-0.21862333 -3.5679982 3.396476 6
0.11602079 -3.5694935 3.3874061 6
0.57258034 -3.5826602 3.3844304 6
0.81938243 -3.5798521 3.2265258 6
1.9500306 -3.4235563 3.3078761 12.881585
2.0204782 -3.4234724 3.4224696 8.7753544
-1.9009769 -3.0299602 3.4074869 13.946756
-0.13768756 -2.8241389 3.3223257 7
1.9841304 -3.1469457 3.4039631 13.885417
2.0135257 -2.9764748 3.4173696 13.581361
2.0112081 -2.6889431 3.4483149 15
1.9852164 -1.6493611 3.4225965 15.105
2.0132048 -1.7423768 3.2746701 15.10375
-1.3187958 -1.2365552 3.5064318 7
-1.1484847 -1.2407799 3.2991867 7
-0.65174156 -1.2187494 3.3917513 7
2.193013 -1.2181824 3.4621806 7
-0.21057969 -1.1943228 3.3515711 7
0.10835826 -1.1692901 3.3419077 7
1.068415 -1.1096559 3.3289986 7
1.3432829 -1.1248119 3.4300051 7
1.7434002 -1.1004972 3.2888794 7
2.111814 -0.92961115 3.4233227 8.3500004
1.8765645 -0.66390556 3.4635627 8.909091
2.1162539 -0.57065123 3.40939 10.372904
3.3064833 -0.55123001 3.3868673 8.0801954
4.6509848 -0.61162025 3.4729307 6
4.9867167 -0.65166986 3.4305031 6
5.5373302 -0.56500548 3.3700929 7.3764653
5.6114569 -0.54968691 3.4298623 7.4699597
-1.6846511 -0.1866736 3.4548919 7.318182
-0.9223761 -0.22620092 3.4399481 6
-0.60688621 -0.20683272 3.4639733 6
-0.18836673 -0.18178798 3.3828864 6
0.21868709 -0.18772955 3.3700812 5.5714288
0.59031636 -0.18861686 3.4009378 5.3703704
1.043467 -0.13445893 3.4323263 5.8883338
1.3903426 -0.14513551 3.4377675 5.6195765
1.8152461 -0.19031167 3.4048138 5.956028
2.1461709 -0.17584479 3.4218433 8.1692019
2.5822899 -0.18265244 3.4063962 4.4947371
3.0125535 -0.18149197 3.3711178 4.9266663
3.3144326 -0.18936038 3.4033399 11.171382
3.7847466 -0.1739977 3.3485954 5
4.1907911 -0.16885117 3.378675 5.2586207
4.5506783 -0.17116176 3.343585 5.7692308
5.0263872 -0.10280151 3.3995099 6.8348913
5.5053663 -0.14862375 3.4197519 9.0746384
5.612946 -0.18822977 3.4305806 9.8519678
-1.6825736 0.12745135 3.3632462 8.9975958
1.8093487 0.14465289 3.4401798 12.083333
2.0833583 0.20528172 3.3933568 14.123809
3.1848609 0.068822622 3.5517795 12
3.2946875 0.10981 3.4195936 14.110302
5.0774813 0.18593335 3.4638648 9.8797979
5.5159345 0.17866637 3.384161 11.63556
5.6112509 0.19249058 3.4277608 12.960351
-1.6875265 0.55430478 3.358758 12.173139
1.8513645 0.60804951 3.4353492 14.090909
2.0260031 0.57423097 3.4037457 14.45
3.1746445 0.40329784 3.5484316 13.5
3.257957 0.43315634 3.2901473 14
4.983973 0.45956385 3.4008491 12.815204
5.4981308 0.56318307 3.3738437 13.025751
5.6140571 0.55937541 3.413826 14.737556
-1.7019849 0.91314584 3.3679664 13.852228
1.8428054 0.87697202 3.4396777 15
2.0253296 0.84176129 3.4429171 14.5
5.5150709 0.91003245 3.36993 14.136825
5.6024017 0.99506038 3.5664868 13.60025
-1.7239588 1.2663983 3.3932025 14.734694
5.4787145 1.3667326 3.3921797 14.67999
5.4034081 1.6437824 3.5197515 15
-2.4168622 -5.3931756 3.7367814 6.5
-2.3853583 -5.287992 3.7658088 6.5
-1.2490923 -5.3242207 3.7331252 5
-0.85058862 -5.312511 3.9086697 5
-0.4687323 -5.3131156 3.9554169 5
-0.032534201 -5.3214259 3.8502338 4.9375
0.21282423 -5.3017502 3.651202 4.7708335
0.40308395 -5.3010998 3.6365414 5
1.5219553 -5.2838326 3.8351767 6.5333328
-2.4192922 -5.0429344 3.693996 11
-2.3288693 -4.9841166 3.847254 8.0039682
-1.3654853 -4.9822683 3.6791282 5
-1.0955579 -4.97577 3.8070843 4.8170733
-0.67234212 -4.9764185 3.7111809 4.1904764
-0.28988168 -4.9859233 3.7204075 4.1666665
0.10739989 -5.0272565 3.7946863 4.6756759
0.47501335 -4.9726787 3.7434728 5
1.5705426 -5.0358667 3.8315339 8.3605051
1.6337732 -4.9052787 3.8861532 7.1309195
-2.4174423 -4.7900338 3.6719773 14.188
-2.2526867 -4.5863562 3.805902 10.51285
-1.380782 -4.5982342 3.6231372 5
-1.0257955 -4.6032491 3.7949462 4.75
-0.58289808 -4.6009059 3.6543157 4
-0.19426626 -4.5940447 3.6718388 4
0.23253055 -4.5728836 3.8391519 4.7236843
0.58746672 -4.5959706 3.7308111 5
1.5692278 -4.611125 3.8388884 13.764108
1.7030413 -4.5855398 3.8627839 8.8039675
-2.1244419 -4.1769938 3.7698774 11.021426
-1.3122952 -4.1991014 3.6782424 5
-0.9415006 -4.1994371 3.8375189 4.75
-0.51470667 -4.2027588 3.6782665 4
-0.11779632 -4.196187 3.682189 4
0.30828705 -4.1922388 3.8567777 4.7659574
0.67746168 -4.1991954 3.6992986 5
1.7863508 -4.1957006 3.8124321 10.230322
-2.0471282 -3.8354955 3.7186208 12.273955
-1.9106539 -3.7466102 3.7410009 6.9575763
-1.3076997 -3.8283987 3.6974678 5.2777777
-0.90850019 -3.8472159 3.8119152 4.897059
-0.55437404 -3.8119249 3.7372196 4.5999999
-0.12094181 -3.8065515 3.7491999 4.590909
0.29860544 -3.8309736 3.8372092 4.9473686
0.62678123 -3.8161383 3.7014408 5.0902781
1.0016149 -3.6362801 3.7671623 6
1.314787 -3.6503856 3.8663514 6
1.8624643 -3.7927544 3.760843 9.8596935
2.0068293 -3.6301095 3.827282 7
-2.0225646 -3.4857111 3.7211928 14.34503
-1.9289985 -3.4089348 3.7472365 10.468313
-0.66538787 -3.593152 3.6452975 6
-0.29622304 -3.5911427 3.6653323 6
0.073044658 -3.5903988 3.6320586 6
1.9302942 -3.4289718 3.7752979 11.810067
2.0120523 -3.4150233 3.7980464 8.6279421
-1.9118822 -2.9935291 3.7750568 13.455556
-0.16826101 -2.8860195 3.8452377 7
1.9726524 -3.0551932 3.8206954 13.326298
2.0059507 -2.9262185 3.8001823 13.396971
-1.9212551 -2.6289239 3.842226 15
1.9879879 -2.6165478 3.8592465 14.8
2.0034962 -2.6748724 3.7835684 15
2.002697 -1.6070457 3.9076071 15.10025
-1.2240876 -1.2085741 3.7534318 7
-0.93825746 -1.2256689 3.6324885 7
-0.62248248 -1.2097096 3.7773631 7
-0.26782906 -1.2057517 3.8076451 7
1.9719654 -1.4659573 3.9116826 11.05125
2.309 -1.2160827 3.8220773 7
-2.5525377 -0.81830847 3.9894686 8
-1.8559155 -0.84609097 3.8122959 8
-1.237224 -1.1773567 3.953037 7
-0.63070536 -1.1866004 3.951422 7
-0.099755585 -1.193158 3.7927718 7
0.23560357 -1.1897326 3.8753853 7
1.1202559 -1.1545386 3.7447832 7
1.4102196 -1.1560502 3.8371117 7
1.8706303 -1.0632958 3.8225112 7.8000002
2.0896223 -0.96476942 3.796603 8.123188
3.2622972 -0.96460223 3.8531861 7
-2.3512697 -0.4655129 3.8447199 9.25
-1.8418615 -0.51300746 3.8727119 9.083333
1.9428527 -0.61440963 3.8554626 9.6607141
2.0645256 -0.57053268 3.8137383 9.9571428
3.3070202 -0.49271655 3.7832642 9.1526279
4.6593227 -0.70257479 3.6792154 6
4.9866304 -0.7305038 3.6066949 6
5.5611162 -0.51657796 3.8156579 8.1851091
5.6228719 -0.54581511 3.8319952 7.4026484
-2.478157 -0.36467507 3.7871044 9.5
-2.3985326 -0.026531816 3.973794 10.5
-1.6746981 -0.17623898 3.7984793 7.257576
-0.82344365 -0.22730118 3.6295745 6
-0.57651478 -0.20203216 3.8257341 6.2587304
-0.15688726 -0.16704282 3.8683436 6.4695649
0.21921653 -0.14142892 3.8747332 6.622436
0.63132101 -0.11372121 3.8478444 6.6211596
1.0335757 -0.13622977 3.8019619 6.4361544
1.404052 -0.13204694 3.76122 6.212254
1.8154294 -0.12072045 3.8617871 7.1252723
2.1695771 -0.11766154 3.8345885 8.0586491
2.6218348 -0.11474312 3.8296301 6.3502779
3.0553565 -0.12879458 3.8015277 6.129127
3.338011 -0.13152303 3.7807255 10.593968
3.7623229 -0.12977803 3.8254144 6.2545457
4.247087 -0.11699902 3.8323059 6.7027025
4.583087 -0.12799858 3.8765945 6.625
4.9965391 -0.11399072 3.8074944 6.8523393
5.4570527 -0.12666066 3.7886927 8.5854759
5.62362 -0.22613288 3.8237989 9.4829321
-2.5013018 0.12159407 3.7876961 11
-2.353493 0.22152615 3.7127156 11.5
-1.6866701 0.12694776 3.7819846 9.1146183
-1.5943962 0.12443823 3.951057 9.636364
-0.91126442 0.1001986 3.9837277 9.5999994
-0.54280597 0.11337427 3.9583859 9.7507257
-0.14202215 0.12658234 3.9301457 9.7114944
0.25720724 0.16205646 3.8908572 9.3426285
0.63191313 0.1810122 3.8861675 9.4680891
1.0074977 0.1818465 3.8878911 9.4400682
1.3937402 0.18582778 3.8862822 9.3596153
1.8029797 0.18630905 3.8830729 10.002997
2.1506257 0.21014525 3.8440533 10.675868
2.6079922 0.1779563 3.8773673 8.9740715
3.0305719 0.18198518 3.8765104 9.0129175
3.3453941 0.19803327 3.8503861 11.818438
3.8521049 0.18500841 3.8668442 8.6465702
4.2389579 0.199661 3.877573 8.6592102
4.6112652 0.1925454 3.8850455 8.6956673
4.9945278 0.23354611 3.7816734 9.8620758
5.4728789 0.18399057 3.7749903 10.521501
5.6211491 0.20530903 3.8480616 13.506926
-2.4669936 0.58157933 3.8495724 12.4
-2.365154 0.70933819 3.6984947 13
-1.6924394 0.58934045 3.7932203 12.27307
-1.2289002 0.73177344 3.8735609 13.079875
-1.0419146 0.68336624 3.9184062 12.9256
-0.56438953 0.66153342 3.9208124 13.301243
-0.12844466 0.62800038 3.916399 13.59234
0.2436427 0.56573987 3.8907526 13.003985
0.63183671 0.57401747 3.8848803 12.957947
1.0043768 0.58988047 3.8841476 12.951305
1.3985858 0.56332254 3.8873687 12.631282
1.8040158 0.58968115 3.882628 12.865562
2.1733272 0.59260416 3.8737481 12.778877
2.6048567 0.5874365 3.8808627 12.143708
3.0161352 0.60154712 3.8823371 11.884115
3.4134867 0.57436162 3.8742015 11.60175
3.8453641 0.58490038 3.8701134 11.036759
4.2211952 0.60535878 3.8771532 10.965541
4.609189 0.61010045 3.8837693 11.131357
4.977191 0.54552531 3.8254719 11.609095
5.4876699 0.57802427 3.76401 12.323052
5.6241541 0.5733673 3.8116291 14.493647
-2.5478222 1.011309 3.7701232 13.666667
-2.3814466 1.0433633 3.7012446 14
-1.692919 0.95123005 3.7851532 13.831162
-1.3053527 0.91084665 3.8812428 14.821042
-1.034554 0.96586454 3.8961439 14.648081
-0.5844866 0.94780719 3.8932059 14.631525
-0.13762331 0.93742847 3.8880537 14.700406
0.23921749 0.9238472 3.8703578 14.670231
0.62195063 0.93543911 3.8685763 14.620833
1.0267185 0.95440525 3.8694942 14.6125
1.4402972 0.93376929 3.8694441 14.365385
1.8301092 0.93481827 3.8804131 14.406483
2.199764 0.95848978 3.8677299 14.285354
2.6073461 0.95352626 3.869308 14.11832
3.0332775 0.96478581 3.8743784 14.011168
3.4383779 0.97313654 3.8666551 13.666094
3.849649 0.97151661 3.8742535 13.265689
4.2296448 0.99960691 3.8770421 13.059792
4.6078591 1.0312449 3.8746779 13.071726
4.9780769 0.97761893 3.8893723 12.946095
5.4751458 0.92134649 3.7662563 13.739301
-1.7201154 1.2706209 3.8029771 14.637178
2.2660358 1.2118357 3.9109342 15
2.620131 1.2543383 3.8975472 15
3.0359862 1.2922432 3.8725271 15
3.4632177 1.3242854 3.8775284 14.81884
3.8624222 1.3374652 3.8732314 14.690902
4.243165 1.3675051 3.8701267 14.674019
4.6273012 1.3863112 3.8689466 14.528333
4.9747987 1.358806 3.8689277 14.219047
5.3936424 1.3711082 3.7733858 14.329496
4.6806808 1.6343781 3.9125464 15
4.9835324 1.6762141 3.8800457 15
5.3776712 1.6994437 3.7797556 15
-2.4636986 -5.2959251 4.1311278 6.9166665
-2.1376011 -5.321877 4.2130671 6
1.1692545 -5.2968988 4.2030339 6
1.5050875 -5.2547841 4.1770258 7
-2.4531469 -4.9996557 4.1238308 9.3989878
-2.2092979 -5.005312 4.2889304 6.5402784
-0.7142579 -4.9504719 4.0507488 5
-0.34732664 -4.9571309 4.0768518 5
0.091103084 -4.8851347 4.0111032 5
1.1939733 -5.1769104 4.1999521 6
1.4239147 -4.9963856 4.2102447 7.3924146
1.632475 -4.8864298 4.2330818 7
-2.4646182 -4.6038647 4.1493855 13.725
-2.2417619 -4.6011438 4.2378659 7.943954
-0.61571389 -4.60432 4.0638933 5
-0.21783713 -4.5975552 4.083293 5
0.13447502 -4.7234182 4.0134654 5
1.4713849 -4.5966825 4.1910863 9.30721
1.6899701 -4.5822463 4.2115088 8.192193
-2.1728015 -4.2160015 4.2126184 10.001114
-0.51240867 -4.2056689 4.0888634 5
-0.12401108 -4.1995988 4.0918365 5
1.5337819 -4.2239256 4.1561985 6.7931819
1.7689928 -4.1902924 4.1455412 9.8693142
-2.0670438 -3.8072057 4.1121726 11.017858
-1.8735238 -3.730535 4.1817865 6.560606
-1.3951747 -3.6959636 4.1804571 6
-1.0375772 -3.6810842 4.2720976 6
-0.50300223 -3.8639405 4.0875726 5.125
-0.13532047 -3.8229225 4.1071911 5.2380953
0.268832 -3.6489263 4.2062511 6
0.69241148 -3.6508322 4.2238684 6
0.98543727 -3.654866 4.1705532 6
1.4485689 -3.8279862 4.2082405 6
1.8443828 -3.808121 4.1059179 9.8542538
2.0003846 -3.6007874 4.1789122 7
-2.0459585 -3.4296894 4.0984569 13.897193
-1.9332061 -3.4065921 4.170485 9.5358686
1.9208026 -3.4242082 4.1455131 10.811809
2.0209775 -3.4019682 4.1758685 8.1203699
-1.9249504 -3.000453 4.1576953 13.431367
1.9214511 -2.9627898 4.2345057 11.592732
2.0477102 -3.0498393 4.3032579 9.8163271
-1.920454 -2.6128294 4.198494 14.865152
1.9082935 -2.5831568 4.2571001 12.810498
2.0604458 -2.5979917 4.2746558 12.379261
1.7983544 -2.1905589 4.2752905 12.25
2.0391879 -2.1934192 4.3485823 13.625
1.8141084 -1.8291949 4.2766666 14.153846
2.0041962 -1.6027406 4.2472515 14
-1.800987 -1.2452801 4.330019 7
1.918889 -1.5004263 4.2556014 12.650625
-2.4014642 -0.81330836 4.3140545 8
-2.3633244 -0.88234091 4.1696415 8
-1.8856833 -0.86814797 4.1888723 8
-1.3707289 -1.0690984 4.1651726 7.3333335
-0.66147447 -1.1361868 4.2465839 7
-0.16922957 -1.1356449 4.2775459 7
1.5332848 -1.150995 4.0753908 7
1.8704283 -0.99838334 4.1782565 8.2600002
2.0508828 -0.97995549 4.1678104 8
-2.437933 -0.48118606 4.2203999 9
-2.2957432 -0.53855175 4.1673369 9
-1.7576309 -0.60072613 4.0672188 8.75
1.8749398 -0.65820605 4.1723723 9.5743589
2.0330701 -0.52533358 4.1654267 10.03125
3.1985323 -0.49338126 4.3119888 9
3.2939491 -0.47938251 4.1960034 9.0781136
5.5605502 -0.55020314 4.1863046 8.0723581
5.6346149 -0.5074681 4.2379088 7.5344615
-2.5011647 -0.13417776 4.3183045 10
-2.3608158 -0.049385011 4.2834425 10.5
-1.6779224 -0.16979642 4.1344819 7.4226189
-1.3879645 -0.14942515 4.188755 7
-0.98012453 -0.15974945 4.1972585 7
-0.61477828 -0.13434793 4.168375 6.947917
-0.18977496 -0.15002413 4.1966567 6.8650002
0.18636654 -0.13939381 4.1515059 6.7434111
0.57174718 -0.13896279 4.1367879 6.622436
0.95336437 -0.14421479 4.0915141 6.6138892
1.450067 -0.12605493 4.1281095 6.7714257
1.8140397 -0.13770954 4.1448097 7.7209601
2.1620493 -0.12238558 4.1409488 7.5936351
2.603833 -0.12591784 4.0964808 6.4534779
3.0123668 -0.11934467 4.1105442 6.6709638
3.3440652 -0.10298832 4.1568894 9.2730894
3.8110027 -0.11584696 4.1058111 6.693212
4.2169209 -0.11113174 4.1097507 6.7748585
4.6114874 -0.10645031 4.1258998 6.8058443
5.0376778 -0.11218482 4.202023 7.1079836
5.4287128 -0.16406149 4.191071 8.592598
5.6378746 -0.21284787 4.212388 9.655714
-2.5041926 0.20394647 4.2248673 11
-2.2345688 0.23258871 4.106566 11.5
-1.6667113 0.11906917 4.1108961 9.0835257
-1.3961904 0.11966339 4.206315 8.9812088
-0.99386585 0.11722225 4.2194247 9.0223656
-0.5939461 0.12468379 4.2046585 9.2570429
-0.20972925 0.13154674 4.2037249 9.4089117
0.20018946 0.16078782 4.1749458 10.151296
0.6064375 0.18490508 4.172195 10.657692
1.007363 0.20113111 4.1613278 11.171391
1.4140327 0.20520167 4.150753 11.411542
1.7950245 0.21681125 4.1497335 11.969435
2.1776788 0.22086334 4.1425891 11.911583
2.602741 0.2068148 4.1415319 11.534531
2.9950144 0.20917812 4.1398449 11.530031
3.3697531 0.20697105 4.1631899 11.81206
3.8142424 0.17297456 4.1173868 10.40143
4.2055502 0.15493104 4.1290278 9.6959391
4.5852022 0.1596649 4.1323686 9.5586777
5.0206146 0.16729863 4.2076073 9.5907593
5.4150376 0.20408052 4.1859946 11.464087
5.6352344 0.2187935 4.2133551 13.256727
-2.4876981 0.57113105 4.1776061 12.2
-2.2857821 0.74638796 4.1987882 13
-1.682301 0.56192374 4.106884 12.038815
-1.3964437 0.55863023 4.1913571 12.410632
-0.98969156 0.54905266 4.2176752 12.471958
-0.599226 0.52407557 4.2044444 12.631857
-0.20227207 0.51370525 4.2055464 12.804508
0.19443013 0.52363706 4.1992679 13.324903
0.59906203 0.52366579 4.2067537 13.312227
1.0096768 0.52847683 4.206378 13.463927
1.3935167 0.54137194 4.2158241 13.586101
1.8292912 0.52611476 4.2008505 13.684845
2.1862102 0.51223618 4.1781116 13.706466
2.583179 0.51423442 4.1659498 13.607241
2.9923971 0.51239592 4.1463132 13.686858
3.3998945 0.53472799 4.1448121 13.600975
3.8211474 0.50235528 4.1148949 13.897343
4.2028127 0.53640717 4.1234441 13.514215
4.585259 0.55011916 4.1235704 13.353428
5.0204606 0.53321564 4.2108922 12.405259
5.4322309 0.59967917 4.2182307 13.115502
5.6305285 0.54367471 4.2119198 14.537992
-2.5117579 0.93383032 4.2389631 13.166667
-2.3058114 1.0993185 4.16434 14
-1.6866879 0.94881034 4.1312385 13.478008
-1.39308 0.93226016 4.2321072 13.859168
-1.0026478 0.93696445 4.2620006 14.002326
-0.57507855 0.95674247 4.2627168 14.315392
-0.20087349 0.92720956 4.263341 14.412085
0.17184459 0.91451722 4.2730727 14.44246
0.57121694 0.86283135 4.2697897 14.424604
0.94938213 0.85459727 4.2658877 14.59762
1.397545 0.83726275 4.2687931 14.45
1.7733608 0.88991958 4.2134275 14.639684
2.177855 0.86318308 4.2098918 14.613726
2.5009501 0.87788463 4.232511 14.527273
2.8612165 0.86095035 4.205441 14.682052
3.3922174 0.86707628 4.2117572 14.704
3.7983577 0.84201413 4.036612 14.621428
4.2034984 0.86850464 4.1293674 14.604408
4.5831361 0.93293804 4.212944 14.624032
5.0183477 0.96694028 4.320539 14.319877
5.448576 0.99074894 4.2887268 14.321976
-2.5507417 1.2472084 4.2344913 14
-1.6555591 1.2894424 4.1848073 14.64035
-1.3782505 1.2585073 4.281086 14.666666
-0.9971723 1.2401592 4.3084269 14.826388
-0.71076065 1.2317405 4.3154693 15
1.4913737 1.273031 4.2292614 15
1.9740038 1.2610984 4.3434725 15
5.0361409 1.2229922 4.0450125 15
5.3766346 1.2505897 4.1483154 15.06325
-2.5505369 -5.2767596 4.5311031 7
-1.7439035 -5.3142815 4.5311198 6
-1.3359704 -5.3096142 4.7368441 6
0.23010476 -5.2931352 4.7769203 6
0.67413527 -5.2924714 4.5829296 6
0.88960862 -5.2944093 4.4559693 6
1.4115963 -5.2548623 4.6162858 7
-2.5056868 -5.0018229 4.5903091 8.2712688
-2.2904406 -4.8488979 4.6692162 6.75
-1.752427 -5.0094428 4.5750842 6
-1.4946657 -4.984067 4.7409697 6
0.30377847 -5.1523924 4.7802286 6
0.73809761 -5.0927463 4.622735 6
0.91840094 -4.977715 4.5692596 6
1.4691544 -4.9759459 4.6272817 7.9756098
-2.5104806 -4.6054783 4.5800114 12.266481
-2.3355231 -4.5694294 4.7238178 8.4697847
-1.8753895 -4.5946407 4.4574065 6
-1.453244 -4.590395 4.7502079 6
0.634534 -4.4043508 4.7979717 6
1.0013844 -4.6185756 4.6013408 6
1.4805988 -4.5970502 4.6205187 10.24468
1.6693259 -4.5307302 4.6374254 7.4166665
-2.4832761 -4.2991614 4.6760392 14.076923
-2.1876349 -4.1485457 4.5905886 9.4502707
-1.752092 -4.191052 4.5444808 6
-1.3407935 -4.3183861 4.7819085 6
0.66846079 -4.335032 4.7919765 6
1.083503 -4.198473 4.5840549 6
1.4292855 -4.2216554 4.5571804 10.375
1.752659 -4.1859622 4.5693731 8.6388893
-2.1352623 -3.8204048 4.5300813 11.361368
-1.818621 -3.7976975 4.5495276 6.4691367
-1.4024919 -3.7758484 4.6141911 6
-1.0578041 -3.7342381 4.6928544 6
-0.68394661 -3.6954961 4.6282659 6
-0.34747899 -3.6809204 4.6209283 6
0.22054718 -3.6743436 4.5946932 6
0.68981296 -3.7329941 4.6711812 6
1.0328739 -3.8349247 4.6045594 6
1.2812892 -3.8761663 4.4479871 6
1.8088154 -3.8054593 4.5455041 10.082191
-2.0731962 -3.4286308 4.507782 13.083201
-1.9274694 -3.3833365 4.5316472 8.9556398
1.894462 -3.4114974 4.5585585 10.583542
2.0424707 -3.4394739 4.6282649 7.4545455
-2.0137725 -3.1804202 4.5134835 13.738095
-1.9335885 -2.9900219 4.5687985 12.428893
1.8977813 -2.9875619 4.5982533 11.369253
2.0490835 -2.9805675 4.5597081 9.999157
-1.9213027 -2.5690348 4.5607901 14.494048
1.9162958 -2.6164155 4.5956097 12.992592
2.026875 -2.6174035 4.6028132 10.908334
1.8119276 -2.1817918 4.5572848 12.395238
2.0450239 -2.2217093 4.5958128 13.833334
1.7990532 -1.7946553 4.5800338 14.191667
2.0063393 -1.7174718 4.4894981 13.25
-1.8664117 -1.3044192 4.6296229 7
-1.3504869 -1.2531668 4.5895848 7
-0.75607646 -1.2282338 4.7277803 7
-0.25671005 -1.2115221 4.7840128 7
1.8862598 -1.3695676 4.5940838 11.75
-2.5456138 -0.82750964 4.7935853 8
-2.2076464 -0.94820905 4.7594042 8
-1.8747305 -0.95829427 4.6167636 8.3823528
-0.685745 -1.1886432 4.4258795 7
-0.20762099 -1.1640427 4.5856938 7
0.38184962 -1.1581287 4.660634 7
1.4825132 -1.1259372 4.639689 7
1.9062639 -0.94481444 4.6377816 8.2777777
2.057034 -0.95016617 4.5916514 8.1759262
4.6316538 -0.92167956 4.7902403 7
-2.5036345 -0.51835442 4.6310248 8.833333
-2.1847279 -0.51230317 4.6445594 9.2857141
-1.8827541 -0.54122579 4.6111989 9.7600002
1.9046203 -0.63009292 4.6014967 9.5740747
2.0431235 -0.54570198 4.5526266 9.8684206
3.1932409 -0.46844661 4.6944919 9
3.2794874 -0.47354642 4.5562825 8.9482756
5.1490383 -0.41578645 4.7433681 7
5.5173583 -0.51722264 4.638721 7.4748535
5.6523323 -0.56571621 4.5466671 7.5
-2.4977787 -0.13431813 4.7045794 9.8999996
-2.2113297 -0.087312296 4.6460323 10.6
-1.8747343 -0.14637384 4.6096306 11.521739
1.5185916 -0.33247638 4.566431 9.5
1.9068586 -0.23475818 4.5911632 11.142105
2.0542712 -0.15145074 4.5810456 11.969697
2.7402163 -0.028172173 4.5209813 8.5
2.9961302 -0.045040388 4.6048732 8.5853662
3.3480792 -0.06559775 4.6041532 10.652173
4.6875768 -0.090685993 4.5394144 8.0058823
5.0642571 -0.12241849 4.4945374 7.7358708
5.3625488 -0.16972114 4.6327648 8.9123993
5.647634 -0.22607085 4.6353822 9.345336
-2.5698764 0.21491532 4.7120323 10.833333
-2.2045157 0.2424193 4.6409988 11.6875
-1.9109433 0.22640209 4.613297 13.100001
1.509794 0.11110222 4.4958048 11
1.9243799 0.19690791 4.5810118 12.805129
2.0620589 0.15180218 4.5847034 13.291667
2.6934917 0.15195499 4.5274334 9.2023811
