# .PCD v0.7 - Point Cloud Data file format
VERSION 0.7
FIELDS x y z intensity
SIZE 4 4 4 4
TYPE F F F F
COUNT 1 1 1 1
WIDTH 1377
HEIGHT 1
VIEWPOINT 0 0 0 1 0 0 0
POINTS 1377
DATA ascii
4.0098062 0.31335026 -2.6709919 11
5.0343566 0.62436604 4.7563071 11
3.0975733 0.10995511 -0.59348345 11
3.1588855 0.1306507 1.1429489 11
5.3985434 0.196257 0.39043197 11
5.3792048 0.20321198 -0.51213872 11
5.4819403 0.37980613 2.5934446 11
5.3649654 0.22855854 -1.0182043 11
5.3752632 0.21387906 -0.74967718 11
5.4410601 0.25349912 1.3539454 11
5.4256802 0.22655708 1.0041264 11
4.0101161 0.41891521 -2.6808131 12
3.0951509 0.12901005 -0.40355471 12
4.3918905 0.42612711 -2.6615915 12
5.0381441 0.79347759 4.7698069 12
3.0945902 0.18502302 -0.90146768 12
3.0967233 0.14610326 -0.5705663 12
5.4489126 0.37285912 1.7832682 12
5.3279753 0.4316974 -2.2704406 12
5.3544497 0.3296347 -1.3397975 12
5.4252834 0.2954776 1.0608341 12
5.3446546 0.38519934 -1.865182 12
5.3674283 0.30145773 -1.0213001 12
3.1018488 0.155031 -0.34404442 13
4.0090141 0.5229727 -2.6726494 13
4.3890791 0.53102797 -2.6512566 13
5.0372114 0.96196353 4.7663932 13
3.1048687 0.18218872 -0.56108522 13
5.4279399 0.3151173 0.10699171 13
5.3263445 0.53774846 -2.2697122 13
5.4717617 0.57185006 2.509418 13
5.3814507 0.31759715 -0.29967603 13
5.4570847 0.38474095 1.2299901 13
3.0900965 0.21392383 -0.77148318 13
5.3892193 0.31188682 -0.12687838 13
5.3504343 0.42760974 -1.480157 13
5.4058781 0.31933653 0.53177202 13
5.3399868 0.47859773 -1.86048 13
5.4604926 0.50086516 2.0813253 13
5.423182 0.35549694 1.0015656 13
3.1009431 0.18815045 -0.34515712 14
4.0088544 0.63043225 -2.6766167 14
3.0992374 0.19632758 -0.40028325 14
3.1439655 0.22030427 0.99487662 14
5.0382013 1.1344159 4.7698669 14
5.4121156 0.38832584 0.6541428 14
5.418426 0.37590238 -0.03657943 14
3.1518598 0.26721019 1.2365693 14
5.420804 0.373667 0.15422952 14
5.4272218 0.38238487 0.48622897 14
5.3697863 0.40965095 -0.68655777 14
5.3508401 0.51315463 -1.4820048 14
5.4686537 0.62532598 2.2551415 14
5.4239717 0.42162696 1.0011909 14
3.1441455 0.25609609 0.99407732 15
5.0335073 1.3041338 4.7529821 15
3.0806553 0.31560129 -0.81882155 15
5.4240794 0.45410275 0.65629017 15
3.1631148 0.37661168 1.5108246 15
5.4513445 0.61361432 1.7397724 15
5.42765 0.4442749 0.48553759 15
5.3460908 0.5981617 -1.4781636 15
5.4147849 0.43343371 0.1066435 15
5.3833227 0.43209139 -0.12709513 15
5.3683276 0.48569787 -0.74932432 15
5.4785376 0.79846573 2.5854492 15
3.1018798 -0.099104643 -0.32186037 5
3.1473093 -0.083750375 0.93543231 5
3.1021056 -0.067444257 -0.32196766 6
3.1414704 -0.052311584 0.94091302 6
3.1589036 -0.064813562 1.3829188 6
3.0965495 -0.036148243 -0.32713258 7
3.1338029 -0.020443555 0.94826174 7
5.3430405 -0.079331987 -1.901612 7
5.4684792 -0.025110018 2.3386531 7
3.1036758 -0.041423343 -0.54070187 7
3.1536269 -0.020338556 1.1712904 7
3.1560743 -0.020677805 1.3512285 7
5.4135752 -0.042111255 -0.28718591 7
5.4163132 -0.028353222 0.77980012 7
5.4056673 -0.03215646 0.36574414 7
5.3498034 -0.068926416 -1.5037308 7
5.3818722 -0.059796482 -1.1262736 7
5.4372458 -0.025916386 1.2736959 7
5.4464316 -0.025221702 1.5593703 7
3.1361613 0.011795273 0.94532222 8
3.0979333 -0.0044456488 -0.32622653 8
5.0391026 0.13267666 4.794775 8
3.0991917 -0.0044781491 -0.54640204 8
3.09267 -0.0041020308 -0.77793044 8
3.1497889 0.015679078 1.099588 8
5.4924107 0.086482145 3.0219569 8
5.4614744 0.064480081 2.2136402 8
5.3612604 0.014164725 -1.1499262 8
5.3820033 0.01624014 -0.52068341 8
5.3480873 0.013918711 -1.5553625 8
5.4143977 0.029587207 0.67769808 8
5.3464198 0.014290038 -1.9079506 8
3.1342835 0.044184543 0.94672525 9
3.0944071 0.027427925 -0.32962048 9
4.0103083 0.10743472 -2.6584594 9
5.0368738 0.29606244 4.7867332 9
5.4045281 0.087800831 0.67460054 9
5.415442 0.078399546 -0.086602628 9
5.4000444 0.081621692 0.38734657 9
5.448432 0.12705614 1.6773412 9
3.1468036 0.051973313 1.1028286 9
5.3741384 0.07834892 -0.51765949 9
5.401783 0.077992275 -0.28476638 9
5.3552074 0.097259887 -1.512603 9
5.3681316 0.088112891 -1.1165476 9
5.4836683 0.17653164 2.6166131 9
4.0093236 0.20994027 -2.6516888 10
5.0398793 0.46157479 4.7974539 10
3.1039953 0.06944152 -0.54126281 10
3.1596518 0.10823707 1.3427308 10
5.4858403 0.31175816 3.0098305 10
5.3979197 0.13840637 0.38649854 10
5.3449965 0.18239801 -1.554554 10
5.4183149 0.15567888 0.88299775 10
5.4210901 0.13731585 0.0090034902 10
3.1469593 0.088238075 1.1020086 10
5.3669167 0.15399823 -0.92706269 10
5.3631392 0.16351026 -1.1539671 10
5.4429283 0.19003426 1.4803774 10
5.4552364 0.21649383 1.8541305 10
5.414196 0.14307572 0.53000695 10
3.1458063 0.107101 0.93389124 11
4.0087037 0.3130239 -2.6495912 11
5.0352945 0.62519139 4.7809644 11
3.1602011 0.15562822 1.3765063 11
5.437192 0.27128839 1.5874925 11
5.3741574 0.2037206 -0.51946527 11
5.3816967 0.19773228 -0.33144033 11
5.4624567 0.33475554 2.2124248 11
5.4540234 0.29752037 1.8522286 11
5.4803553 0.37950793 2.6104593 11
5.3359327 0.31395885 -2.1080384 11
5.3573856 0.23789413 -1.1499476 11
5.4405713 0.21141323 0.70727813 11
5.4014935 0.19566187 0.36268628 11
5.4094634 0.19559008 -0.086844057 11
3.1415589 0.14040621 0.93770981 12
3.1060953 0.12321866 -0.33751494 12
4.0090814 0.41862974 -2.6603184 12
5.0340624 0.79131359 4.7764964 12
3.0903177 0.17316601 -0.78283447 12
3.155231 0.20202355 1.3844178 12
5.4544048 0.39094645 1.9447353 12
5.4159594 0.2544359 0.0082938671 12
5.4427571 0.27291003 0.70712382 12
5.3814631 0.25870395 -0.33220059 12
5.4106121 0.26071087 0.55203736 12
5.4438176 0.34800363 1.5919702 12
3.1364989 0.17473002 0.94234461 13
3.1063766 0.15575336 -0.33757222 13
4.0085216 0.5238952 -2.6591117 13
5.0347943 0.96063513 4.7790651 13
3.0900786 0.21846732 -0.78353518 13
3.1562638 0.20840599 1.1635607 13
5.3480511 0.43373045 -1.51004 13
5.3566499 0.39487046 -1.1932759 13
5.4908075 0.64338624 2.9299686 13
5.3357186 0.51766539 -2.1113477 13
5.4660311 0.52888244 2.271939 13
5.4178362 0.33461642 0.77606452 13
5.369215 0.36747548 -0.93205041 13
5.4489698 0.43657583 1.6747739 13
5.4080396 0.31978494 0.55088949 13
5.4583578 0.4773041 1.9478791 13
3.1023443 0.18997023 -0.34153169 14
3.133606 0.20928271 0.94475389 14
4.0084181 0.63171476 -2.6638439 14
5.0360584 1.1331074 4.7835426 14
3.1474788 0.2460576 1.1487651 14
5.3650599 0.43913183 -0.92999607 14
5.4214144 0.40715399 0.88128787 14
5.3338614 0.60774577 -2.0373878 14
5.4695559 0.63700104 2.3343754 14
5.4414926 0.49534905 1.5503774 14
5.3549466 0.52274597 -1.51933 14
3.1454396 0.23889135 0.93213928 15
5.0343351 1.3057443 4.777308 15
3.1521819 0.28357789 1.141659 15
5.3981519 0.43141502 0.38288364 15
5.43118 0.55682415 1.4681613 15
5.4859548 0.87382007 2.9207587 15
5.4008203 0.44794104 -0.28954166 15
5.3335571 0.71087086 -2.0387611 15
5.4645133 0.72088951 2.2684968 15
5.4056816 0.43945897 0.52510345 15
5.3592224 0.55432492 -1.1981821 15
5.4337177 0.52491403 1.2657593 15
5.4328208 0.4585554 0.70236647 15
3.1405873 -0.083638474 0.94200933 5
3.1391828 -0.052028686 0.94290149 6
3.0954545 -0.069762863 -0.34501255 6
3.1475847 -0.054567143 1.0531241 6
3.0917296 -0.085237034 -0.63994384 6
3.1593261 -0.066045783 1.4380153 6
3.1028285 -0.076138668 -0.47755408 6
3.1393936 -0.020381782 0.94218326 7
5.3473454 -0.077814698 -1.8242295 7
5.4693356 -0.025117006 2.3577654 7
3.09584 -0.044555053 -0.63471335 7
3.1609776 -0.020613898 1.361111 7
5.3594685 -0.054675218 -0.89979744 7
5.4145365 -0.028158054 0.82320744 7
5.443018 -0.025277976 1.5374407 7
5.3770299 -0.049227279 -0.64717841 7
3.1403394 0.01117025 0.94073367 8
5.0387039 0.13264133 4.8108864 8
3.0979517 -0.0043620691 -0.66028774 8
3.1484342 0.013919416 1.0509734 8
5.4267244 0.040506709 1.2530395 8
5.335032 0.014446612 -2.0825834 8
5.4553657 0.057659455 1.9668673 8
5.4904804 0.084040962 2.9515502 8
5.3464079 0.014007001 -1.7023404 8
5.441021 0.047039792 1.5352235 8
5.4243078 0.035567343 1.0143862 8
5.4215999 0.021832608 0.12459192 8
5.4040914 0.018210672 -0.24045384 8
3.1432695 0.042491857 0.93731016 9
4.0099339 0.10703685 -2.6314368 9
5.0374594 0.296195 4.8063736 9
3.1687787 0.087804109 1.7440505 9
3.0922971 0.039726321 -0.7607851 9
5.4900513 0.19436289 2.9500782 9
5.4679289 0.1608087 2.3544803 9
5.4223566 0.079563886 0.123763 9
5.3355412 0.11374667 -2.0851371 9
5.4252338 0.098336317 1.0140913 9
5.4540262 0.14020957 1.9647727 9
5.432766 0.10749228 1.2558331 9
5.4491653 0.12525521 1.6558621 9
5.3475542 0.10277707 -1.7053103 9
5.4192805 0.09208294 0.82334709 9
3.1366434 0.074895717 0.94339418 10
4.0091848 0.20946573 -2.6276844 10
5.0416574 0.46221071 4.8213663 10
3.1706064 0.14227207 1.7386034 10
3.0899801 0.09299659 -0.90894091 10
5.324975 0.21652134 -2.1462917 10
3.1586635 0.10842852 1.3626772 10
5.4119101 0.13870816 -0.24469113 10
5.3652954 0.15379252 -0.90738153 10
5.4340334 0.17469637 1.2558539 10
3.0962687 0.066681787 -0.46427524 10
5.4527431 0.20686571 1.7396216 10
3.0972466 0.091063179 -0.30953574 11
4.0097289 0.31399676 -2.6404715 11
5.0369854 0.62599748 4.8045683 11
3.1606665 0.16000129 1.4312907 11
3.0943141 0.12760377 -0.75835371 11
3.0973146 0.099154048 -0.42156434 11
5.3591509 0.22766767 -0.97665179 11
5.3300314 0.3195127 -2.156122 11
5.4431238 0.21528459 0.80339807 11
3.0840993 0.11429299 -0.59772396 11
5.3438172 0.28088686 -1.703578 11
5.4289269 0.23480357 1.1596875 11
5.4663382 0.3355377 2.2349601 11
5.4186873 0.19535632 0.12264127 11
5.3852592 0.19816257 -0.31444132 11
5.4063993 0.19673002 0.40461063 11
3.0988379 0.12302572 -0.3084501 12
3.1445661 0.14209287 0.97165823 12
4.0099578 0.41965765 -2.6493237 12
5.0348182 0.79172617 4.7967472 12
3.0806699 0.15517268 -0.60242951 12
3.0994697 0.13372466 -0.41963607 12
5.4001918 0.25128174 0.24063812 12
5.3299804 0.42267454 -2.1579032 12
5.4535484 0.38489923 1.9149144 12
5.4274492 0.30350864 1.1885167 12
5.37498 0.26726878 -0.50240546 12
5.4663682 0.42715499 2.2341995 12
5.3494105 0.36608881 -1.6541889 12
5.4495869 0.35362282 1.6539589 12
5.4084134 0.25670928 -0.14338726 12
3.1473851 0.1744765 0.96815592 13
4.0084219 0.52291119 -2.6356199 13
3.0913091 0.16159835 -0.35104245 13
5.0338883 0.95984286 4.7933578 13
3.146616 0.22688323 1.2818811 13
3.0893302 0.24079819 -0.91105509 13
3.0946317 0.20339616 -0.66654211 13
5.4087567 0.32102343 0.59333336 13
5.4804564 0.63940579 2.9319425 13
5.4416575 0.39627126 1.3898729 13
5.3353143 0.47717959 -1.817548 13
5.4669752 0.53873819 2.3501246 13
5.4034982 0.31296521 0.4029721 13
5.4096999 0.31770572 -0.14455792 13
5.3757682 0.33163473 -0.50372088 13
5.4530649 0.46873236 1.9136659 13
5.4337702 0.3379491 0.79911572 13
5.4631519 0.43481597 1.6642044 13
3.1010752 0.18789949 -0.30711561 14
4.0077262 0.62888151 -2.632746 14
3.1501994 0.26786602 1.2755826 14
5.0361953 1.1331201 4.8015718 14
3.1043508 0.21315929 -0.47835571 14
3.083847 0.29356152 -0.920928 14
5.4104786 0.38194638 0.59291983 14
5.4217625 0.43800157 1.1839819 14
5.4085331 0.37086415 0.23884454 14
5.36905 0.40945289 -0.64919192 14
5.4667406 0.6358974 2.3490181 14
5.4538155 0.47252628 1.3971025 14
5.3533082 0.49888915 -1.3508828 14
5.365591 0.44867709 -0.98522234 14
5.3608112 0.55144435 -1.6714251 14
5.0340867 1.3053507 4.7939577 15
3.1595585 0.32947406 1.3570565 15
3.1001537 0.2484874 -0.46160448 15
5.4268222 0.50477612 1.1556592 15
5.4564567 0.70508724 2.2203872 15
5.4830337 0.87227106 2.9342389 15
5.3550801 0.58392924 -1.354105 15
5.4485168 0.60458934 1.7321286 15
5.3832674 0.44701806 -0.31715518 15
3.1342063 -0.052467264 0.96958524 6
3.1000118 -0.071164377 -0.35713518 6
3.0931807 -0.089902923 -0.70436358 6
3.0916181 -0.079620168 -0.5154075 6
3.1418676 -0.020493709 0.96139729 7
3.1478906 -0.020465763 1.1189966 7
5.4096503 -0.044612762 -0.384987 7
5.3924394 -0.032815468 0.33159462 7
5.4202776 -0.027456507 0.94871503 7
5.3925409 -0.048981573 -0.60910386 7
5.3534918 -0.064271435 -1.2810544 7
3.0884233 -0.047332428 -0.71171343 7
5.4151249 -0.038641676 -0.049369127 7
5.4235444 -0.035116799 0.1901807 7
5.3610001 -0.058300726 -1.0346547 7
3.1363697 0.011585617 0.98499137 8
3.0999012 -0.0046623638 -0.35785693 8
5.0457892 0.13276207 4.8310766 8
3.1500025 0.014858087 1.1157275 8
3.0824347 -0.0036271596 -0.98243678 8
3.0907583 -0.0042435732 -0.74058795 8
5.3931513 0.022390861 0.23825265 8
5.3976035 0.016012598 -0.6129567 8
5.3549876 0.014060711 -1.1521971 8
5.3974042 0.017131116 -0.38059896 8
5.4552097 0.055376869 1.8903279 8
5.3695216 0.014746063 -0.8572427 8
5.4140806 0.021007307 0.071404368 8
5.4224768 0.035037 1.0035592 8
3.1378365 0.04271999 0.96440822 9
4.0070853 0.10752045 -2.6262662 9
3.1013567 0.028513145 -0.35673577 9
5.0481477 0.29726493 4.8394699 9
3.164793 0.070986308 1.4875294 9
3.1484485 0.04910196 1.0942185 9
3.0889716 0.040808331 -0.77715206 9
5.4963036 0.19968343 3.0578518 9
5.336195 0.10767409 -1.8639731 9
5.3907437 0.077632368 -0.27161598 9
5.4632831 0.14594468 2.0889862 9
5.4105968 0.084921464 0.56622946 9
5.3757691 0.078268498 -0.45509887 9
5.44768 0.12514549 1.6717042 9
5.4241805 0.09834516 1.0314348 9
3.1349597 0.074858911 0.96676719 10
3.1024728 0.059931058 -0.31906766 10
4.006124 0.21023986 -2.6198173 10
5.0414391 0.45975664 4.8155909 10
3.0939498 0.070345454 -0.5138799 10
3.1486733 0.083964974 1.0933505 10
3.163861 0.1173334 1.4884012 10
5.3784447 0.13668732 -0.26796842 10
3.0883768 0.086003877 -0.77841115 10
5.3382778 0.19453922 -1.7415962 10
5.4935732 0.31270915 3.0527079 10
5.4064803 0.14187235 0.54106534 10
5.3520374 0.16451338 -1.1518451 10
5.3306746 0.21793896 -2.143728 10
5.4782934 0.27115119 2.5722933 10
5.3763242 0.14052019 -0.45625818 10
5.4527254 0.2128699 1.8420422 10
5.4424868 0.18138504 1.3762645 10
5.4179821 0.15689911 0.94575334 10
5.4257221 0.14067891 0.40065128 10
5.3646021 0.15402167 -0.89116359 10
3.1428108 0.10550832 0.95841104 11
4.0061898 0.31451482 -2.626667 11
3.0977273 0.095868565 -0.36091626 11
4.3877535 0.3201597 -2.604938 11
5.0393291 0.62397152 4.8080797 11
3.1035457 0.10642707 -0.50267678 11
3.153543 0.14146294 1.294881 11
3.07988 0.15144178 -0.9881295 11
3.0903542 0.12511213 -0.7101512 11
3.1459913 0.1220917 1.1189492 11
5.4713035 0.36937383 2.5622404 11
5.4222612 0.19612013 0.18729456 11
5.3676109 0.20197415 -0.45294356 11
5.4333253 0.19989285 0.40031034 11
5.3320866 0.29528812 -1.8615232 11
5.3658705 0.20970789 -0.6280849 11
5.40521 0.20047277 0.56400514 11
5.3634081 0.22414875 -0.89133048 11
5.4656401 0.31858614 2.0899243 11
5.440114 0.25615919 1.4422117 11
5.4485369 0.27667242 1.6709193 11
3.135289 0.13921428 0.9653945 12
4.0056601 0.41895753 -2.6258721 12
3.1003079 0.12928592 -0.35869384 12
5.0428863 0.79280835 4.8207369 12
3.1041 0.14381948 -0.5023284 12
3.0948212 0.16765116 -0.70386779 12
5.3306284 0.37553927 -1.7346539 12
5.3238764 0.4220767 -2.1366925 12
5.3700314 0.26522508 -0.45501512 12
5.4942865 0.54219234 3.0522418 12
5.3531771 0.33005488 -1.2871214 12
5.4789724 0.47182813 2.5716007 12
5.4164925 0.25452772 0.067970335 12
5.3826389 0.25814268 -0.2711826 12
5.3619237 0.30770627 -1.0411639 12
5.4038472 0.25200853 0.23479745 12
4.0064311 0.52750176 -2.6420479 13
3.1353717 0.17468986 0.98335892 13
5.04004 0.9596833 4.810606 13
5.3446136 0.46382022 -1.6944194 13
5.4409504 0.33966932 0.81912643 13
5.3743258 0.34377518 -0.63506442 13
5.429853 0.39752728 1.433807 13
5.4126925 0.31622085 -0.053589404 13
5.3517046 0.41046607 -1.2869313 13
5.4765077 0.57287776 2.5675285 13
5.3805742 0.31921273 -0.27128208 13
5.328968 0.52807409 -2.1466675 13
5.3776298 0.33049083 -0.45960891 13
5.3643894 0.36327702 -0.85876894 13
3.1392651 0.2036749 0.96036923 14
4.0054541 0.63362205 -2.6355889 14
3.097764 0.1934461 -0.32468539 14
4.3859391 0.64101279 -2.6056883 14
5.0385046 1.1294461 4.8051405 14
3.1550889 0.26553017 1.2902131 14
3.0885699 0.26418015 -0.74588966 14
5.342062 0.55576891 -1.6927345 14
3.0974016 0.22239019 -0.51102656 14
5.3980837 0.36949444 0.32657522 14
5.3832912 0.39676967 -0.46328479 14
5.4239264 0.4187699 1.0277666 14
5.4034867 0.37702444 0.5377931 14
5.3804317 0.38145012 -0.27209651 14
5.3283744 0.63387847 -2.1476526 14
5.4657927 0.6028344 2.192616 14
5.4525414 0.53800434 1.8388141 14
5.4368114 0.4629758 1.3697243 14
3.0974102 0.22794349 -0.32533759 15
3.1369326 0.24179602 0.98065579 15
3.1478815 0.26354066 1.0912664 15
5.0409975 1.305936 4.8140097 15
5.4280448 0.48336154 1.0008789 15
5.4380465 0.46686473 0.81677228 15
5.3517647 0.65413803 -1.7068121 15
5.405714 0.4397912 0.56118751 15
5.4602222 0.69437754 2.1856174 15
5.4529819 0.6310001 1.8828737 15
3.1017158 -0.10453388 -0.33622485 5
3.1005139 -0.071293831 -0.33770758 6
5.4280753 -0.09431091 1.4214993 6
3.1624303 -0.066233575 1.4746386 6
3.0918064 -0.092079982 -0.72021139 6
5.4380388 -0.091349073 1.1738234 6
3.1001573 -0.038035367 -0.33836222 7
5.3540154 -0.078159861 -1.7969995 7
3.1751881 -0.021800626 1.7748301 7
3.1017442 -0.041758135 -0.48497093 7
3.1641836 -0.020993564 1.4705713 7
3.0866356 -0.05246684 -0.87306976 7
5.4302144 -0.025356323 1.4564004 7
5.3622832 -0.05827317 -1.013922 7
5.4603953 -0.024818208 2.0558038 7
5.4202161 -0.028549291 0.81001425 7
5.4347901 -0.026484393 1.1714739 7
5.3937073 -0.039053652 -0.073508263 7
3.0926428 -0.0046750801 -0.27298772 8
3.1400084 0.011542988 0.99958855 8
5.0403242 0.13266137 4.8451014 8
3.1599367 0.017926563 1.2483652 8
5.3674936 0.014711558 -0.7996062 8
5.3416567 0.014047273 -1.7818732 8
5.4279175 0.038573369 1.1971333 8
5.3747883 0.016357411 -0.40511811 8
5.3516846 0.013850219 -1.3044324 8
5.4527903 0.053080074 1.8183789 8
5.3915877 0.018939946 -0.073759079 8
3.1460419 0.043239787 0.99288845 9
3.1003749 0.026796408 -0.26653421 9
4.0091715 0.10742017 -2.6081522 9
5.0395775 0.29622921 4.8424311 9
3.1617045 0.053291671 1.1918453 9
3.0866594 0.044458322 -0.87365901 9
5.4911461 0.20425113 3.1593518 9
5.4665947 0.16375226 2.4478636 9
3.0975642 0.033871509 -0.53989291 9
5.343874 0.1008485 -1.6063507 9
5.3821416 0.077098124 -0.27426064 9
5.4243364 0.10218497 1.1647859 9
5.4368644 0.11437666 1.4594905 9
5.4544282 0.13131316 1.8190887 9
3.1040692 0.058064416 -0.26360613 10
3.1444814 0.075460069 0.99396253 10
4.0078502 0.20981073 -2.5971491 10
5.0393882 0.46056312 4.8417563 10
3.0790303 0.10571898 -1.065702 10
5.4889622 0.31972897 3.154954 10
3.1526411 0.083865725 1.1073358 10
3.0992885 0.068375535 -0.46551776 10
5.4704876 0.25923142 2.4519629 10
5.342947 0.18806079 -1.6066896 10
5.3827138 0.13720991 -0.27531898 10
5.4445739 0.19478604 1.6091135 10
5.4647536 0.22800456 2.0579875 10
3.0966589 0.090817071 -0.2703914 11
3.1428087 0.10804339 0.99514574 11
4.0081592 0.3142924 -2.6071937 11
5.0404372 0.62663591 4.8455219 11
3.1552434 0.11839872 1.1035783 11
3.0993061 0.10711168 -0.48914301 11
5.3396602 0.27530605 -1.6041045 11
5.4300694 0.19662309 0.13456668 11
5.4749861 0.36284852 2.5203514 11
5.3306222 0.32701299 -2.2010539 11
5.4051862 0.19395809 0.27819547 11
5.4651451 0.31826034 2.1077652 11
5.3992958 0.20252936 -0.36348677 11
3.1002159 0.12238673 -0.26758587 12
3.1375179 0.14191711 1.0000159 12
4.0069952 0.4175103 -2.5982563 12
5.0379381 0.79229987 4.8365669 12
3.1035118 0.14142397 -0.46122319 12
3.1557493 0.17434607 1.2516792 12
5.4717455 0.46054611 2.5153732 12
3.0883403 0.17318806 -0.72741449 12
5.3286514 0.4321211 -2.1997781 12
5.4238715 0.25476351 0.13454455 12
5.4598298 0.39777988 2.0514064 12
5.3528557 0.33390275 -1.3108861 12
5.4012375 0.26557407 -0.36521292 12
5.368041 0.28954905 -0.8041712 12
3.1567931 0.20803548 1.4796817 12
5.4381227 0.32338464 1.4238113 12
5.347899 0.37897778 -1.7342341 12
5.3664794 0.30791846 -1.0232379 12
3.0924847 0.15671079 -0.27466685 13
3.1454291 0.17289114 0.99140292 13
4.0060964 0.52178311 -2.5927799 13
5.0358715 0.95964658 4.829164 13
3.0812836 0.27122441 -1.0621523 13
3.1724148 0.30927944 1.7744131 13
3.0963602 0.21109235 -0.6836946 13
5.3736596 0.32693788 -0.40903723 13
5.3219528 0.54924637 -2.2738104 13
3.1564136 0.20476329 1.1964473 13
5.3391514 0.46958393 -1.7243063 13
5.4132175 0.31432495 0.015084714 13
5.4790568 0.56256509 2.5239966 13
5.4051285 0.31034216 0.2767103 13
3.0981295 0.18831423 -0.27003813 14
4.0070386 0.63224477 -2.6113114 14
5.0359697 1.1308746 4.8295221 14
5.3751655 0.38914034 -0.38303149 14
3.0973179 0.25511974 -0.68260598 14
3.1530137 0.25574639 1.2542148 14
5.4180851 0.37617958 0.013322324 14
5.3229699 0.660092 -2.2775874 14
5.4416966 0.40698594 0.88964653 14
5.4362922 0.46683523 1.4211227 14
5.4494319 0.52921999 1.8108642 14
5.4602637 0.58131695 2.1002672 14
3.102423 0.22035232 -0.26659375 15
5.0370235 1.306084 4.8333049 15
3.0921774 0.27362797 -0.54869014 15
5.3562169 0.58430052 -1.3184818 15
5.4200125 0.4585571 0.80428773 15
3.1699023 0.42576817 1.7778909 15
5.3871689 0.45744756 -0.38935441 15
5.4324808 0.46935976 0.88582343 15
5.3258047 0.75583863 -2.2011056 15
5.3716755 0.50462425 -0.81003106 15
5.4366093 0.57063907 1.5992631 15
5.4289322 0.50476533 1.1926273 15
3.1028574 -0.11293731 -0.42730483 5
3.1003661 -0.077058822 -0.4304401 6
5.3567085 -0.14959222 -1.3826702 6
3.1576166 -0.057062589 1.1867377 6
3.0920782 -0.036848806 -0.26194528 7
5.3434987 -0.077573091 -1.7596024 7
5.4771128 -0.025114521 2.4188678 7
3.167434 -0.021624133 1.6469928 7
5.3748655 -0.049812768 -0.62105596 7
5.4454446 -0.02491498 1.787292 7
5.4136486 -0.041628852 -0.18798867 7
5.3648863 -0.056489829 -0.92011952 7
5.4011374 -0.033822563 0.29793841 7
5.4574356 -0.024830636 2.0698771 7
5.3937426 -0.038248733 -0.007537961 7
5.4346404 -0.030960031 0.58245683 7
5.361918 -0.068035811 -1.3897592 7
3.139147 0.010850416 0.99483502 8
3.0992546 -0.0048329514 -0.25596294 8
5.0357547 0.13242888 4.8554993 8
3.0993302 -0.0045610396 -0.70136476 8
3.1547322 0.018677495 1.2970458 8
5.3198938 0.015492159 -2.6070306 8
3.1625078 0.028673712 1.6563202 8
5.3540068 0.013787401 -1.239766 8
5.4863009 0.081615336 2.9154832 8
5.3800745 0.016080122 -0.44589767 8
5.471097 0.067917854 2.4107544 8
5.426178 0.021588918 0.15423229 8
5.4277916 0.02442326 0.39068687 8
5.3461189 0.014085912 -1.8292249 8
5.4522676 0.051046886 1.7511977 8
5.3713989 0.014378062 -0.9264431 8
3.1341136 0.043004189 0.99932027 9
3.104949 0.02662614 -0.25127348 9
4.0147943 0.10698905 -2.5848999 9
5.0377011 0.29647279 4.8625469 9
3.1547289 0.052294567 1.1886663 9
3.1677272 0.087833978 1.8012458 9
5.3879838 0.076682881 -0.0078109503 9
5.34092 0.10734159 -1.8236333 9
5.4451518 0.12665199 1.744495 9
5.330183 0.12323031 -2.340585 9
5.471858 0.16440286 2.4722013 9
5.3838716 0.076670535 -0.17982635 9
5.3560905 0.095594406 -1.3860642 9
5.4662843 0.14618164 2.1277037 9
5.4212165 0.081565857 0.38979992 9
3.1386592 0.074493133 0.99428511 10
3.0967717 0.059069745 -0.2587482 10
4.0147104 0.21031518 -2.5898144 10
5.0357285 0.46030799 4.8555021 10
3.0905304 0.095631681 -0.90132725 10
5.4660568 0.25870171 2.4641426 10
5.3673091 0.15356669 -0.85237491 10
5.3605261 0.17095108 -1.2489102 10
5.4374533 0.14436291 0.5807215 10
5.408011 0.13982002 -0.29402968 10
5.4878054 0.297658 2.9161842 10
5.3916931 0.13470277 -0.0094128251 10
5.4259119 0.15735972 0.9834727 10
3.0934954 0.079885706 -0.6478616 10
3.1096368 0.089338779 -0.24776492 11
3.1386409 0.10654601 0.99378216 11
4.0141382 0.31384635 -2.5885773 11
5.0373082 0.62659311 4.8612309 11
3.1533928 0.12607712 1.1891539 11
3.1651866 0.17968757 1.6476352 11
5.3732891 0.20306918 -0.44522849 11
5.3471456 0.28067398 -1.6488649 11
5.4235749 0.19559565 0.15226153 11
5.3299484 0.34145144 -2.3442986 11
5.4105368 0.19876713 -0.19029388 11
5.4768567 0.36353615 2.5406396 11
5.4633965 0.31808454 2.1231291 11
5.3744664 0.22476944 -0.85887969 11
5.3626204 0.25763831 -1.346651 11
3.1402264 0.13849269 0.99168503 12
3.1012082 0.12282602 -0.25546947 12
4.0135126 0.41799524 -2.5867031 12
5.0364542 0.7933231 4.8582101 12
3.0895693 0.19673423 -0.90368652 12
3.0963378 0.16463266 -0.64441597 12
5.3842883 0.25545362 -0.18243954 12
5.3353152 0.43253183 -2.1852362 12
5.3726635 0.27763852 -0.62457812 12
5.4575233 0.40377161 2.1161637 12
5.3523173 0.37218851 -1.6570245 12
5.4266047 0.28246966 0.98232985 12
3.1027126 0.15504301 -0.25445887 13
3.1415968 0.17068698 0.98979795 13
4.0143428 0.52646744 -2.6034529 13
5.0351295 0.96148068 4.8534951 13
3.0912993 0.2473069 -0.90089405 13
3.0956273 0.18852371 -0.50896049 13
3.1689425 0.31022507 1.7936734 13
5.3745375 0.34513837 -0.62672198 13
5.4678807 0.53866851 2.4029355 13
5.4908805 0.62880915 2.9184163 13
5.4437094 0.34535253 0.93405974 13
5.4523077 0.44272283 1.7887543 13
4.0131841 0.63197792 -2.5949271 14
3.1384912 0.20466961 0.99233496 14
3.1074879 0.18659337 -0.25057599 14
5.0306368 1.1288618 4.8373947 14
3.0922856 0.22951034 -0.51343536 14
5.3168993 0.72565079 -2.6151597 14
5.4243393 0.38103074 0.57599378 14
5.4066777 0.36973426 0.29260457 14
5.4016623 0.38892373 -0.295037 14
5.3636684 0.4627209 -1.0429952 14
3.1064663 0.22017528 -0.25179133 15
3.1368575 0.23893058 0.99340308 15
3.150924 0.30396926 1.2976017 15
5.0311751 1.3032492 4.8393826 15
3.0948107 0.26913598 -0.51063657 15
3.0970378 0.30882773 -0.70712936 15
5.4164596 0.43272504 0.29148954 15
5.4170194 0.44057444 0.57423741 15
5.3587303 0.53904206 -1.0398815 15
5.466258 0.76177484 2.5237308 15
5.4455051 0.47570452 0.93321097 15
5.3423095 0.67129046 -1.7711071 15
5.3340311 0.75737596 -2.1891556 15
5.4587231 0.66139275 2.0650423 15
5.451055 0.6049087 1.786122 15
5.3606062 0.59320921 -1.3500334 15
3.1140702 -0.099752158 -0.24500537 5
3.1039624 -0.068986133 -0.25441658 6
3.0870097 -0.11239917 -1.0296791 6
5.3888845 -0.11350784 -0.55210102 6
3.1029708 -0.075859845 -0.39146531 6
3.1597352 -0.070963018 1.631629 6
3.1501215 -0.056343663 1.1627014 6
3.1383955 -0.020997128 1.0104226 7
3.1101966 -0.036764212 -0.24909377 7
5.4748912 -0.025185093 2.4306536 7
3.1668391 -0.021620478 1.6162479 7
3.0859737 -0.058134627 -1.0320432 7
3.1491389 -0.020883661 1.1633232 7
5.4386373 -0.032132622 0.50140476 7
5.3863544 -0.041671824 -0.19009137 7
3.1562731 -0.021185853 1.4033749 7
5.4009733 -0.033612251 0.33564389 7
5.3790088 -0.045657814 -0.4016431 7
5.4261479 -0.036972187 0.12156671 7
5.3641257 -0.06236076 -1.1451516 7
5.460413 -0.02495937 2.03883 7
3.1329536 0.010921665 1.0153198 8
3.109252 -0.0051176427 -0.25024402 8
5.0369954 0.13246422 4.8734136 8
3.1544919 0.013204456 1.1114154 8
3.0959127 -0.0046417601 -0.72613043 8
5.3789167 0.017958097 -0.11263818 8
5.4477863 0.057242725 2.0254893 8
3.103106 -0.0051054647 -0.41381413 8
5.3875117 0.019566339 0.055517882 8
5.3554516 0.013737991 -1.419874 8
5.3482924 0.013937256 -1.7528067 8
5.3743358 0.014405296 -0.87717777 8
3.1425102 0.042160869 1.0052979 9
3.1035376 0.026910506 -0.25570256 9
4.0142937 0.10634616 -2.5578415 9
5.0386562 0.29657227 4.8794403 9
3.151001 0.047523592 1.1149628 9
5.395339 0.081468157 0.49640203 9
3.1627581 0.076125443 1.6225595 9
5.3433704 0.10371177 -1.6858282 9
3.1047943 0.030154075 -0.39037478 9
5.4484863 0.13283594 1.8884561 9
5.4010463 0.079458207 0.33420259 9
5.4335809 0.10733816 1.3229598 9
5.3391275 0.11586486 -2.0911713 9
5.3909006 0.082203217 -0.68254954 9
5.4267764 0.096390396 1.0262613 9
3.145963 0.073368646 1.0013523 10
4.0150523 0.2100344 -2.5734186 10
5.03722 0.46070766 4.8743377 10
3.0983765 0.082833275 -0.68944341 10
5.3175583 0.25512591 -2.6978779 10
5.4308114 0.13871533 0.30929092 10
5.3427372 0.19747184 -1.7485285 10
5.3931961 0.13452932 0.052893549 10
5.4790425 0.27708963 2.6937206 10
3.1455002 0.086263113 1.1660407 10
5.3624015 0.16676183 -1.1472015 10
5.3828769 0.14046265 -0.4061771 10
5.4005375 0.13873482 0.49612534 10
5.447403 0.19765919 1.6808045 10
3.1462958 0.10498369 1.0005062 11
3.1055017 0.08977773 -0.23719341 11
4.0146227 0.31370547 -2.5740478 11
5.0377293 0.6266191 4.876225 11
3.1041627 0.10297909 -0.41354024 11
3.0981913 0.12697084 -0.69004184 11
3.1527379 0.11596422 1.1117468 11
5.467452 0.36140698 2.5429738 11
5.3335485 0.31912994 -2.0861225 11
5.4433289 0.28291073 1.7970636 11
5.3470011 0.28559023 -1.6937535 11
5.3857899 0.19619855 -0.19320804 11
3.101027 0.12268817 -0.24142975 12
3.1392677 0.13853626 1.0069563 12
4.0130262 0.41606095 -2.5599108 12
5.0341625 0.79163903 4.863461 12
3.0940921 0.17658129 -0.73026568 12
3.0970826 0.14604533 -0.46830273 12
5.4705696 0.46053195 2.546217 12
5.3510451 0.34249103 -1.3699067 12
5.387413 0.25416875 -0.1184147 12
5.4061227 0.258531 0.61321247 12
5.448535 0.34858721 1.6802208 12
3.1103737 0.15300536 -0.2335223 13
3.1388073 0.17128624 1.0068812 13
4.0136557 0.52362353 -2.5740898 13
5.0328674 0.95948565 4.8588696 13
3.1601121 0.2332073 1.3922846 13
5.3331904 0.51505381 -2.0135498 13
5.4060392 0.31772038 0.61248273 13
5.3195553 0.6219632 -2.7091405 13
5.4236054 0.31369314 0.30728126 13
5.4500098 0.44207627 1.8013175 13
3.1497478 0.19394805 1.1588595 13
5.42487 0.3478668 1.0226727 13
5.3946552 0.34422442 -0.56213683 13
4.0134559 0.63127601 -2.5778389 14
3.1035404 0.18757536 -0.23984241 14
5.0343676 1.1320066 4.8643198 14
3.1035104 0.22145548 -0.4611975 14
3.0935185 0.26988009 -0.73182112 14
5.4088492 0.37953737 -0.10123545 14
5.4228215 0.44547707 1.3131313 14
5.334888 0.61919188 -2.0180333 14
5.445868 0.53550315 1.8822913 14
5.4311495 0.37896469 0.4956964 14
5.47894 0.6911189 2.6903925 14
5.3514404 0.51999921 -1.4238214 14
5.4155302 0.37326974 0.11771162 14
5.4237127 0.41227645 1.0214834 14
3.1004853 0.22204658 -0.24284852 15
5.0367236 1.3088003 4.8728456 15
3.09794 0.26298764 -0.46824479 15
3.0908966 0.31874305 -0.73630005 15
5.3968592 0.43895185 -0.098666906 15
5.3707247 0.51894498 -0.88218194 15
5.3529081 0.59921408 -1.3762326 15
5.4691663 0.73532194 2.4173899 15
5.3493505 0.66168821 -1.7033818 15
5.3779483 0.4917759 -0.68029815 15
3.0979531 -0.10751499 -0.3196564 5
3.101629 -0.072971746 -0.31624779 6
3.1054096 -0.03892719 -0.31272921 7
5.3475232 -0.077945694 -1.7363049 7
3.1051915 -0.042251341 -0.44207332 7
5.381227 -0.041209817 -0.1484901 7
5.3743787 -0.046819434 -0.44197521 7
5.3741069 -0.050678313 -0.62329948 7
5.3588305 -0.066870242 -1.3084848 7
5.4005127 -0.035283379 0.23370491 7
5.4371648 -0.026201721 1.3405051 7
3.1357596 0.010695238 1.0281436 8
3.1069272 -0.0052461959 -0.23752591 8
3.1051216 -0.0052775275 -0.31332311 8
5.0364189 0.13210149 4.880733 8
3.1055026 -0.0052478751 -0.4420065 8
5.4074922 0.025398975 0.53588128 8
5.4034476 0.023113767 0.37243167 8
5.4234324 0.034211591 1.0397791 8
5.3343849 0.014578441 -2.2301769 8
5.3578458 0.013651514 -1.3087654 8
5.4382339 0.040609509 1.3404216 8
3.1460409 0.041767739 1.0173972 9
3.1091661 0.026441155 -0.23580369 9
4.014914 0.10680505 -2.5579751 9
5.0406137 0.29657057 4.895864 9
3.0967236 0.034478389 -0.52882183 9
3.1635685 0.073341735 1.5934463 9
5.4167595 0.09560658 1.0364009 9
5.4235296 0.10189054 1.2093711 9
5.3311472 0.12313872 -2.3135784 9
5.4304562 0.083362877 0.51359326 9
5.4795146 0.17573623 2.708324 9
5.3773851 0.078084596 -0.41663852 9
5.3478165 0.10223797 -1.6179224 9
5.4651108 0.15121071 2.2596598 9
3.14556 0.073353104 1.0173613 10
3.1115618 0.058006726 -0.23393914 10
4.0134072 0.20885463 -2.5449445 10
3.1020756 0.062543452 -0.31701502 10
5.0365009 0.45977375 4.8811674 10
3.1028142 0.071958572 -0.49512604 10
3.086113 0.10169595 -0.96915579 10
5.3744555 0.14105861 -0.44474706 10
5.4138789 0.1438815 0.6782093 10
5.4938021 0.31282625 3.1197884 10
5.4328113 0.14159483 0.51306826 10
5.3466787 0.19794013 -1.7400156 10
5.3345385 0.22706367 -2.2344248 10
5.3861246 0.13815004 -0.28326252 10
5.363801 0.16895081 -1.178322 10
5.4555278 0.20975806 1.8644778 10
3.1380253 0.10645264 1.024326 11
3.1050596 0.09086515 -0.24011353 11
4.0145869 0.31429306 -2.5659997 11
3.0970905 0.09748093 -0.32237312 11
5.036716 0.62525702 4.8820105 11
3.1015556 0.11555069 -0.55014956 11
3.163969 0.16887754 1.59077 11
5.4888086 0.425771 3.1110148 11
5.45294 0.22475481 1.0495416 11
5.3588114 0.24971361 -1.2197155 11
5.387105 0.19557998 -0.15370944 11
5.376369 0.22067992 -0.76119339 11
5.4688249 0.33549911 2.3174877 11
3.139441 0.13849068 1.0223937 12
3.1049032 0.1233527 -0.24055997 12
4.0128193 0.4165611 -2.5496857 12
5.0343008 0.79069734 4.8734088 12
3.1041546 0.15565801 -0.5469439 12
3.0876532 0.20819664 -0.96679485 12
5.404212 0.25993964 0.6750294 12
5.4465756 0.36655429 1.8550409 12
5.4186049 0.25531328 0.036364347 12
5.4629149 0.41836354 2.254909 12
5.4032555 0.25484002 0.53264356 12
5.432157 0.30376625 1.2718844 12
5.3756375 0.27589205 -0.56652546 12
5.3594398 0.32522625 -1.1765792 12
5.3517408 0.37191352 -1.6275839 12
5.4210038 0.26988703 0.8264904 12
5.3738074 0.29861793 -0.86697137 12
3.1419425 0.17042579 1.0193814 13
3.1051984 0.1560936 -0.24060109 13
4.0141611 0.52594644 -2.5730221 13
3.1038404 0.16546617 -0.3161557 13
5.0348535 0.95981055 4.8754659 13
3.0947258 0.19566794 -0.53271914 13
5.4132133 0.31193012 0.36873794 13
5.3224282 0.56079727 -2.3067555 13
5.4162679 0.31367281 0.43901789 13
5.421773 0.31613284 0.03489393 13
5.3381901 0.48589063 -1.7978381 13
5.4315853 0.37128317 1.270852 13
5.3745079 0.34228233 -0.56684327 13
5.3699021 0.3703593 -0.86504209 13
5.4155517 0.32997778 0.82428777 13
5.3857088 0.32348725 -0.2857168 13
5.4024539 0.30928618 0.22905397 13
3.1367223 0.20511962 1.0240151 14
3.1033802 0.18986681 -0.24255875 14
4.0130868 0.63166004 -2.5656557 14
3.1026416 0.20101161 -0.3176882 14
5.0351734 1.1313378 4.876688 14
3.1001124 0.23064402 -0.49984649 14
5.4128056 0.37140179 0.36798507 14
5.4111648 0.3721976 0.43808201 14
5.3531628 0.49038842 -1.217944 14
5.3379846 0.58330852 -1.7992803 14
5.4791994 0.69076818 2.7039456 14
5.3710308 0.43089005 -0.76060176 14
5.4637775 0.60172307 2.2542984 14
5.3938169 0.36802742 0.13531327 14
5.4369507 0.44917187 1.3353653 14
5.4426465 0.41695434 1.0432391 14
3.1019764 0.22420627 -0.24414775 15
5.0337615 1.3040907 4.8716931 15
3.0991032 0.27717429 -0.5276134 15
5.4147811 0.4960629 1.2006712 15
5.4104652 0.43130258 0.36723298 15
5.4121079 0.43297824 0.43735832 15
5.3667412 0.57041079 -1.187729 15
5.394074 0.42857593 0.13447587 15
5.4615965 0.70632696 2.3060253 15
5.4480348 0.61145955 1.8540294 15
5.3468361 0.64871085 -1.6261293 15
5.4188766 0.45570347 0.82373685 15
5.3753781 0.48665705 -0.63213718 15
5.3879213 0.46540585 -0.42748293 15
3.1455219 -0.085135378 1.0522959 5
3.1055512 -0.099961057 -0.20610142 5
3.1444018 -0.053167477 1.052917 6
3.1058478 -0.068303451 -0.20614153 6
3.1436319 -0.055865742 1.1550058 6
5.3598728 -0.15015492 -1.3422415 6
3.0956655 -0.078010313 -0.39238477 6
3.159174 -0.061538458 1.3654881 6
3.1407242 -0.021256374 1.0561587 7
5.4763718 -0.025364775 2.461288 7
5.3500557 -0.076493464 -1.662328 7
3.1086957 -0.043538965 -0.47237474 7
3.1607261 -0.021274799 1.362343 7
5.3970294 -0.032050967 0.50378853 7
5.3985839 -0.034071788 0.34165233 7
5.3968763 -0.037061598 0.13134995 7
5.4473696 -0.028199242 1.01015 7
5.4593163 -0.025171274 1.973449 7
5.430882 -0.027045999 1.1708548 7
3.1043224 -0.0053546689 -0.20807421 8
3.1407392 0.010844884 1.0556149 8
3.1431246 0.01336248 1.1544266 8
5.0335484 0.1318879 4.889792 8
5.4400873 0.026385339 0.57786214 8
5.3273716 0.015028691 -2.4761796 8
5.4081235 0.017191697 -0.24864882 8
5.3420396 0.013940426 -1.9161596 8
5.3569975 0.013524819 -1.2927334 8
5.3721914 0.014315067 -0.77475244 8
5.442235 0.04135035 1.3897374 8
3.1459653 0.042532712 1.0497413 9
3.1040559 0.026201935 -0.20860684 9
4.0138841 0.10595155 -2.5257123 9
5.0350051 0.29548001 4.8951144 9
3.0864482 0.0538214 -1.1075754 9
3.0960886 0.03096691 -0.39283317 9
5.4698257 0.17092061 2.6422582 9
5.3216801 0.12832414 -2.4678235 9
5.3972101 0.077104881 -0.14054006 9
5.3685703 0.082365878 -0.73856026 9
5.4556055 0.13539898 1.9684718 9
5.3419638 0.11349641 -1.9905853 9
5.3840079 0.077528968 -0.32093996 9
5.35782 0.094132476 -1.2949495 9
5.353528 0.10251311 -1.6099801 9
5.4304533 0.10020411 1.1692591 9
3.1018598 0.058876961 -0.22826576 10
3.1452577 0.074599989 1.0499387 10
4.01439 0.20929947 -2.5381684 10
5.0325527 0.45873976 4.8863826 10
5.399931 0.14179337 0.66654766 10
5.3949986 0.13523808 0.33959919 10
5.3377438 0.20835784 -1.9133232 10
5.3962898 0.13446063 0.1291683 10
5.4122944 0.13851701 -0.17236751 10
5.3729486 0.151108 -0.7427277 10
5.3824806 0.13886398 -0.32113904 10
3.1046991 0.090804733 -0.22600365 11
3.1430411 0.10720181 1.0516723 11
4.0150347 0.31426755 -2.5524738 11
5.0381017 0.62658429 4.9064169 11
3.0866885 0.15939789 -1.0024185 11
5.4140849 0.20199715 -0.25360686 11
5.3637795 0.22074197 -0.77175456 11
5.3464718 0.28021714 -1.6040802 11
5.4342241 0.2465501 1.4152639 11
5.4299088 0.19709589 0.3849487 11
3.1558881 0.15224889 1.4646764 11
5.450592 0.29202682 1.9177928 11
5.4334855 0.20121902 0.57497776 11
5.3408141 0.31358308 -1.9924872 11
5.4754009 0.34930992 2.4570296 11
5.3997693 0.19330104 0.055911422 11
3.1089416 0.12245004 -0.22247303 12
3.1368961 0.14122047 1.0574056 12
4.0146446 0.41914186 -2.5537257 12
5.0355644 0.79230368 4.8973804 12
3.0844209 0.22902888 -1.1127713 12
3.1460228 0.16857637 1.267796 12
3.1592102 0.19521704 1.4581945 12
5.4295263 0.31486365 1.411639 12
5.4178886 0.26791486 0.81535029 12
5.4509239 0.37268505 1.9173446 12
5.3453512 0.37014979 -1.6042135 12
5.4763336 0.47106737 2.6485984 12
5.4097667 0.25938985 -0.14720368 12
5.4675188 0.41957915 2.2753849 12
5.3649139 0.31784245 -1.0801442 12
3.1062562 0.15574177 -0.22520763 13
3.1494448 0.17085208 1.0440671 13
4.0134029 0.52321035 -2.5441945 13
5.0361066 0.9617573 4.899416 13
3.1494703 0.20621583 1.2624042 13
3.1062405 0.18848179 -0.47736382 13
5.3707647 0.35940215 -0.74435705 13
5.4411039 0.38376653 1.3854702 13
5.3238215 0.5903703 -2.4807956 13
5.3966837 0.30937284 0.1267828 13
5.4716978 0.57126528 2.6416359 13
5.3387108 0.51670825 -1.9929872 13
5.4190907 0.32904279 0.81494617 13
5.4456611 0.34760696 1.0052619 13
5.4281769 0.31477603 0.3834604 13
3.1104469 0.18769932 -0.22172672 14
3.1417785 0.20647663 1.0513321 14
4.0131178 0.63061094 -2.5469174 14
5.0312653 1.1289226 4.8820992 14
3.0947914 0.2241454 -0.44243968 14
3.1471622 0.24627222 1.2648578 14
5.4777312 0.67666602 2.6488609 14
5.4166994 0.39022791 0.81360638 14
5.3451362 0.56388408 -1.6670721 14
5.4028296 0.37054777 0.12497598 14
5.4050756 0.37181917 0.49932104 14
5.4621 0.60119474 2.2677641 14
5.4488425 0.53619218 1.9139144 14
5.353858 0.51250696 -1.3466952 14
5.4118433 0.38005698 0.66570473 14
3.1126289 0.2204604 -0.22006541 15
5.0372591 1.3091124 4.9037371 15
3.0989721 0.26228625 -0.43772799 15
3.1508393 0.33455652 1.469835 15
3.0816379 0.38717434 -1.0137177 15
5.4014502 0.4468337 -0.17292494 15
5.3971677 0.45194933 -0.25047404 15
5.3562489 0.55147177 -1.0758698 15
5.4525704 0.62154227 1.9165318 15
5.4065142 0.43508789 0.051271498 15
5.3496952 0.66160107 -1.6747568 15
3.1020834 -0.10157613 -0.20980242 5
3.1480305 -0.084678419 1.0645701 5
3.10519 -0.069189079 -0.20730761 6
3.1426752 -0.053226244 1.0695659 6
3.1422241 -0.054771654 1.1289767 6
3.0831652 -0.10747275 -0.89344847 6
3.0944526 -0.084611543 -0.49850413 6
5.3748455 -0.13054159 -0.91180968 6
5.4177217 -0.088471413 0.8071444 6
3.1611805 -0.065653481 1.510746 6
3.1466272 -0.059839077 1.3126867 6
3.0867543 -0.093731813 -0.6578337 6
3.1076713 -0.037246983 -0.20537195 7
3.137126 -0.021367554 1.0747544 7
3.1464655 -0.021225447 1.1236514 7
5.3466573 -0.075142778 -1.5914912 7
3.0969825 -0.048821036 -0.64254093 7
3.1610019 -0.021632051 1.5102159 7
3.0825043 -0.056005921 -0.89497721 7
5.3618584 -0.054453745 -0.75640333 7
3.1490359 -0.021370638 1.3085747 7
5.3798671 -0.045539606 -0.33404669 7
5.4147258 -0.028947432 0.88094479 7
5.4287462 -0.031581435 0.61363804 7
3.10128 -0.0055134827 -0.21142688 8
3.1378565 0.010780155 1.0734714 8
5.0461373 0.13250344 4.9222651 8
3.0969338 -0.005426147 -0.49587378 8
3.1625378 0.022244826 1.5066463 8
3.1649108 0.0294374 1.7610352 8
3.0780196 -0.0039141038 -1.1039078 8
5.3846116 0.017211221 -0.14983526 8
5.4831548 0.076865137 2.8101795 8
5.4691591 0.065874815 2.4029851 8
5.4255271 0.023108099 0.37577933 8
5.3835225 0.016042888 -0.33662781 8
5.4186373 0.020819124 0.18685263 8
5.447505 0.048617586 1.7233257 8
5.3921013 0.018502902 -0.0013934076 8
3.105252 0.026274599 -0.20814714 9
3.1358533 0.043113191 1.0750009 9
4.0103579 0.10651849 -2.5300245 9
5.0433912 0.29580227 4.91255 9
5.3883085 0.076758608 -0.15194973 9
5.4527168 0.13725492 2.0229535 9
5.3652115 0.084222771 -0.83247876 9
5.3542256 0.091666915 -1.189147 9
5.4734497 0.15767333 2.4072824 9
3.1353331 0.075553745 1.0750014 10
3.0976081 0.058985777 -0.21533963 10
4.0085535 0.20831388 -2.5130293 10
5.0406399 0.45914346 4.9028182 10
3.1535084 0.086373106 1.2239445 10
5.4095507 0.14911132 0.87737715 10
3.0951612 0.084531434 -0.67963839 10
3.1617453 0.12099261 1.625127 10
5.3673677 0.13895607 -0.35871443 10
5.4179363 0.13667203 0.089011639 10
5.4867868 0.29007363 2.8882389 10
5.3405166 0.19388072 -1.6481318 10
5.4376121 0.18883564 1.6023276 10
5.4535284 0.21898092 2.02299 10
5.407722 0.13881773 0.51475191 10
5.4317145 0.17392346 1.3626502 10
5.3665161 0.15805657 -0.90945697 10
5.3612952 0.17107226 -1.1976095 10
3.1403632 0.10720363 1.0692991 11
3.1056981 0.090246186 -0.20834538 11
4.008996 0.31264216 -2.5249224 11
5.0443134 0.62616897 4.9159765 11
3.1002793 0.11282402 -0.49241802 11
5.3610187 0.2251471 -0.83139908 11
5.4364958 0.20243052 0.61173975 11
5.4861379 0.39633682 2.8865154 11
5.3796935 0.20279132 -0.36556634 11
5.4441924 0.27183145 1.718527 11
5.3466578 0.28098062 -1.5976853 11
5.4204187 0.19583139 0.37367129 11
3.1361082 0.14080459 1.0731262 12
3.1007476 0.12358122 -0.21311763 12
4.0084243 0.41671255 -2.523829 12
5.0419264 0.7918936 4.9075432 12
3.0994151 0.15297429 -0.49386713 12
3.1572931 0.15793575 1.2177784 12
5.3770099 0.25531945 -0.15052626 12
5.4059653 0.26482785 0.80011612 12
5.4011583 0.25103661 0.18616341 12
5.3666091 0.27463746 -0.5359087 12
5.4528332 0.37835279 1.9751701 12
5.3989978 0.25310719 0.51274526 12
5.4297762 0.3089523 1.3601012 12
5.3517618 0.33329692 -1.2368771 12
5.4415531 0.33467737 1.6037047 12
5.481904 0.48170662 2.7339573 12
5.3464317 0.37142232 -1.5989697 12
5.3678346 0.29198408 -0.76613677 12
5.470603 0.42005917 2.2895188 12
3.1070814 0.15496455 -0.20770618 13
3.1392012 0.17307773 1.0694088 13
4.0082269 0.5226602 -2.5276356 13
4.3890777 0.53120571 -2.5086136 13
5.0404882 0.95973516 4.9024892 13
3.0948422 0.22130229 -0.68108428 13
3.0821531 0.28799534 -1.0964656 13
3.1675234 0.28991094 1.7498811 13
5.4190898 0.315317 0.086393386 13
5.3370285 0.46010327 -1.5885117 13
5.3677254 0.34129536 -0.53756058 13
5.4792604 0.59696871 2.8007843 13
5.4384336 0.4077315 1.6007212 13
5.4642296 0.50936574 2.2816489 13
5.4119463 0.32635829 0.80084383 13
5.3822498 0.3215875 -0.23164889 13
5.3588943 0.41703105 -1.2456946 13
3.1357956 0.20767967 1.0723445 14
4.0073771 0.62839878 -2.5230825 14
3.1004086 0.19255669 -0.23190239 14
4.3874235 0.63818777 -2.5039649 14
5.0456715 1.1356652 4.92103 14
3.0930796 0.26258615 -0.65070236 14
5.4040265 0.37038809 0.18420355 14
5.3926582 0.37368199 -0.0063755214 14
5.4070311 0.39191493 0.87382364 14
5.3867211 0.3856335 -0.23432449 14
5.3914857 0.41177478 -0.5217545 14
5.4504404 0.54412591 1.9713932 14
5.3623657 0.45238426 -0.91065407 14
3.1629298 0.31525242 1.6189201 14
3.0995357 0.22723538 -0.23303345 15
5.0390263 1.3036337 4.8974266 15
3.0880916 0.31134969 -0.65866077 15
5.4188223 0.43526572 0.18136013 15
5.3965492 0.43653041 -0.0082173944 15
5.355803 0.51490074 -0.83183813 15
5.3825521 0.4779973 -0.51762164 15
5.4788685 0.79703897 2.7273884 15
5.4643488 0.69537878 2.2801833 15
5.3415523 0.66003537 -1.6576672 15
3.1036782 -0.070218354 -0.20577925 6
3.108134 -0.037710261 -0.20193768 7
3.1292853 -0.021396574 1.0898062 7
5.3517752 -0.078122482 -1.6770427 7
5.2616348 -0.028277189 4.1385965 7
4.9999552 -0.02813061 4.256403 7
3.1591833 -0.021939604 1.6897591 7
5.4200668 -0.027235437 1.1622568 7
5.4354601 -0.025270009 1.7606272 7
5.3584251 -0.068142019 -1.2935665 7
5.3860731 -0.046574302 -0.35681218 7
3.0917563 -0.0054687057 -0.1817193 8
3.1390011 0.01025741 1.0797484 8
5.00875 0.13198048 4.9435587 8
4.9957571 0.1112415 4.243082 8
5.2524204 0.10997847 4.1150794 8
3.1559103 0.024425659 1.6109476 8
5.4522882 0.060194079 2.220387 8
5.3720016 0.01409368 -0.79863429 8
5.3523474 0.013660586 -1.6794322 8
5.4228592 0.036500804 1.2198919 8
5.4704523 0.075207561 2.7834427 8
5.4403462 0.033210821 1.0322649 8
5.4190035 0.021448433 0.27114403 8
3.0922449 0.026542414 -0.18159354 9
3.1363933 0.042000804 1.0817921 9
4.0183969 0.1061835 -2.4966052 9
5.0122805 0.29611403 4.956645 9
4.9902182 0.24964668 4.225563 9
5.2536087 0.24860169 4.1175613 9
3.1032677 0.029098853 -0.30390918 9
3.0887778 0.046559703 -0.86652744 9
3.1582098 0.070342705 1.605775 9
5.4684286 0.18418773 2.9273615 9
5.4486713 0.14522493 2.2157826 9
5.437048 0.088291302 0.79821825 9
5.3428173 0.11801122 -2.0959003 9
5.4028196 0.078458712 0.31897688 9
5.3716259 0.084366754 -0.79943657 9
3.1044774 0.057422053 -0.17114788 10
3.1305513 0.07452938 1.086998 10
4.017343 0.20842224 -2.4895608 10
5.0125799 0.46071187 4.9578733 10
4.9896927 0.38906422 4.2237501 10
5.2487378 0.38641044 4.1049023 10
3.1021488 0.064069316 -0.30541652 10
3.1589127 0.13735422 1.8327992 10
5.4393468 0.14797604 0.79801178 10
5.4448562 0.15710144 1.0324738 10
3.0843258 0.082135394 -0.61115658 10
5.4281702 0.17240871 1.3715072 10
5.4672737 0.27129164 2.7081244 10
5.4062052 0.13757023 0.48169664 10
5.44559 0.20653172 1.8881629 10
5.3799171 0.14796896 -0.59981573 10
5.4552932 0.22787218 2.171546 10
3.1080997 0.088617772 -0.16826344 11
3.1368716 0.10562001 1.0802845 11
4.0175734 0.31246048 -2.4984267 11
5.0098796 0.62500674 4.9480906 11
5.2402577 0.52291954 4.0832272 11
3.1558626 0.17390411 1.6924579 11
5.343997 0.28929183 -1.673079 11
5.4674697 0.39572361 2.9244058 11
3.0820668 0.12655766 -0.61483455 11
5.438952 0.20785122 0.7972126 11
5.4395704 0.28344411 1.8821818 11
5.3611522 0.26030228 -1.3020463 11
5.435493 0.25303644 1.5389016 11
5.4168205 0.19460389 0.2214486 11
3.10077 0.12187688 -0.17501312 12
3.1356225 0.13809188 1.080981 12
4.0176029 0.41757151 -2.5048852 12
5.0080786 0.790748 4.9416056 12
3.1608338 0.2443137 1.826285 12
5.3938856 0.25086492 0.47990704 12
5.419549 0.2762762 0.99558467 12
5.3785934 0.26676899 -0.3576746 12
5.4388041 0.36166805 1.8807697 12
5.4482903 0.39719141 2.162782 12
5.4306602 0.33003637 1.6047038 12
5.3743954 0.28188404 -0.5982753 12
5.3912287 0.25720954 -0.11906058 12
3.1086063 0.15248567 -0.16842371 13
3.132967 0.17143074 1.0830451 13
4.0165715 0.52182269 -2.4982381 13
5.0086741 0.9599182 4.9439249 13
3.0924838 0.25275564 -0.86081815 13
3.1603184 0.29905704 1.8262895 13
5.427938 0.31453851 0.3853589 13
5.4294682 0.31481013 0.26626354 13
5.4228606 0.35836717 1.2163674 13
5.4231906 0.33944702 0.99611068 13
5.3410888 0.53937107 -2.1009645 13
5.4674311 0.57404107 2.7059886 13
5.3618317 0.42203602 -1.2563524 13
5.3826551 0.35206226 -0.60465717 13
4.0164042 0.62929654 -2.5024049 14
5.0074892 1.1300752 4.9397087 14
3.1028862 0.21317758 -0.34890527 14
5.4097147 0.37043789 0.38515186 14
5.4274144 0.38202566 0.67028332 14
5.420465 0.37385163 0.21861629 14
5.4203281 0.38400942 0.74192882 14
5.4211688 0.39394841 0.89131713 14
5.3336282 0.64468235 -2.0908673 14
5.3833933 0.37874004 -0.11808294 14
5.416913 0.41702482 1.1559396 14
5.4653492 0.69043541 2.7716792 14
5.4401903 0.44751704 1.3754158 14
5.3727961 0.41901505 -0.59931183 14
5.3517718 0.57554346 -1.6885717 14
5.4361677 0.47841141 1.6071121 14
5.3628926 0.50673312 -1.2588879 14
5.454844 0.58285338 2.2185206 14
3.1116517 0.21710521 -0.16636276 15
5.0084605 1.3051745 4.9434109 15
3.1027641 0.25118816 -0.34936762 15
5.420248 0.43378842 0.38404632 15
5.4156456 0.44464236 0.7403143 15
5.4269767 0.44366652 0.66946959 15
5.4330177 0.57857591 1.7527755 15
5.4610229 0.79546785 2.7648749 15
5.4073243 0.43032074 0.31409454 15
5.4301744 0.45975557 0.89307034 15
5.4354196 0.5419997 1.5358899 15
3.111037 -0.10095577 -0.15746558 5
3.1338272 -0.085980058 1.1312499 5
3.1077514 -0.06936115 -0.16075772 6
3.132154 -0.05377515 1.1324122 6
3.0914402 -0.11320166 -0.94057 6
3.1016695 -0.087600261 -0.50447863 6
5.4215999 -0.088466674 0.8279537 6
3.1518071 -0.067180306 1.6072226 6
3.1128707 -0.037255868 -0.15638548 7
3.1044278 -0.046323612 -0.50089365 7
3.0936179 -0.058567911 -0.93644607 7
3.1540418 -0.021953201 1.6413393 7
5.4294214 -0.026455894 1.343714 7
5.3876352 -0.046397537 -0.32437354 7
