# .PCD v0.7 - Point Cloud Data file format
VERSION 0.7
FIELDS x y z intensity
SIZE 4 4 4 4
TYPE F F F F
COUNT 1 1 1 1
WIDTH 1319
HEIGHT 1
VIEWPOINT 0 0 0 1 0 0 0
POINTS 1319
DATA ascii
-2.9072583 -0.047325272 1.8896378 7
-3.459662 -0.054338712 1.8489572 7
-1.0554533 0.22071521 1.0667915 8.5
-2.7525883 0.21816225 1.89302 9
-3.0591564 0.19609092 1.8706802 9
-3.4066801 0.22659154 1.8454374 9.5
-1.0591798 0.8416428 1.0558445 12
-1.0687637 0.66417724 1.1068559 11
-2.7723598 0.61570626 1.8778921 12
-3.1344843 0.57254201 1.8553129 12.125
-3.4055867 0.62872088 1.8305256 13
-1.0758743 1.1116315 1.0474017 13.5
-2.7912307 0.97748953 1.8635913 14.666667
-3.0612617 0.91073054 1.8517219 14.666667
-3.4030881 0.86845893 1.8319529 15
-1.0872078 1.3877187 1.0401238 15
-3.9699597 -0.061267138 1.8172504 7
-4.2858291 -0.065906897 1.7913576 7
-3.6214867 0.2089134 1.8301777 9.5
-3.9648604 0.19474302 1.8079418 9.636364
-4.3121371 0.19887523 1.7849743 10
-3.6536131 0.62775075 1.8197119 13.4
-3.9715767 0.57777613 1.7958754 13.5
-4.297473 0.51842511 1.775079 13.5
-3.6032031 0.8185547 1.8166428 15
-0.98463058 -0.062923491 -0.013059109 7
-4.1522379 -0.15006441 1.3941237 6
-4.4359212 -0.10973749 1.7146428 6.5
-4.8308187 -0.074818775 1.7489196 7
-4.4813309 0.19564463 1.7718264 10.125
-4.8272343 0.15688674 1.7452309 10
-4.4763069 0.5319013 1.7611359 14
-4.8371749 0.47149116 1.735759 14
-3.7061 -0.15538484 0.65446901 6
-3.8531594 -0.15205629 0.94868135 6
-5.4001517 -0.085790664 1.7081788 7
-5.7514486 -0.093910374 1.6672938 7
-6.0469017 -0.10140546 1.6393787 7
-0.973629 0.1924638 -0.18051419 8.5
-5.40727 0.15192233 1.6958491 10.5
-5.7627053 0.13299741 1.6641036 10.5
-6.0569873 0.1114531 1.6368802 10.333333
-0.97571659 0.62850136 -0.19050011 11
-5.4894352 0.42243695 1.6840689 14.5
-5.7658296 0.3982451 1.6562955 14.5
-0.9888072 1.0722206 -0.20049748 13.5
-1.0000544 1.3447706 -0.20657584 15
-3.6330776 -0.15921581 0.39216354 6
-4.8727021 -0.18286839 0.80260718 5
-6.026228 -0.20187694 1.2401721 5
-6.1381521 -0.14621104 1.6265315 6.3333335
-6.1502123 0.13157216 1.623171 10.7
-6.8455009 0.2181818 1.5442997 12
-6.135797 0.3813045 1.6251131 14.5
-3.5571027 -0.14826962 -0.11341247 6.25
-4.6173091 -0.18514535 0.37104502 5
-4.7519522 -0.18243714 0.63854814 5
-6.1917415 -0.17455134 0.98170173 5.4000001
-6.4121814 -0.15908766 0.94348586 6
-6.9275756 -0.12884781 1.5363153 7
-7.1040387 -0.15323159 1.5170757 6.75
-7.4639325 -0.18745793 1.4566338 6.5
-3.084626 0.16284333 -0.2372891 9.5
-3.4624889 0.16972263 -0.26085433 10
-6.2649198 0.011174537 0.94023573 10
-6.404304 0.010659896 0.92736661 10
-6.9307747 0.0099850297 1.5325755 9
-7.157927 0.11979161 1.5057317 10.5
-7.5249519 0.089929774 1.4510629 10
-3.0481057 0.57833433 -0.24818459 13.5
-3.4385631 0.52942801 -0.27052268 14
-7.195569 0.38610822 1.4984534 14
-7.5423918 0.41946316 1.4444023 14
-3.7642393 -0.092349842 -0.27161959 7
-3.988554 -0.094597436 -0.28567234 7
-4.4654975 -0.15363096 -0.2010054 5.5
-4.6588693 -0.19481274 0.11471927 3
-5.1707692 -0.19737248 0.16075376 3
-6.2398291 -0.21689676 0.76737452 4
-6.5501709 -0.18796024 0.87656844 5.4000001
-6.8643832 -0.23071355 0.84446204 5
-7.6099892 -0.19585158 1.2386482 6.5
-3.7514274 0.13616322 -0.27792272 10
-4.0477462 0.16044103 -0.2976447 10.9
-4.396306 0.099189624 -0.31624028 10.666667
-6.5190058 -0.011164576 0.91542041 9.5
-7.6111636 0.070705935 1.1707793 10
-3.737397 0.452048 -0.28640899 14
-4.0632529 0.40242952 -0.30501774 14.5
-4.3708882 0.34668028 -0.32329413 15
-7.60075 0.42308849 0.97840583 15
-7.6138468 0.37987059 1.1576571 14
-4.6055193 -0.14744452 -0.32247627 6
-4.8757339 -0.14016686 -0.33946383 6
-5.4709063 -0.20154579 0.062496856 3
-6.7767673 -0.24246922 0.34253582 4
-7.1442394 -0.24709092 0.50703585 5
-7.5106964 -0.18970971 0.71330512 6.5555553
-4.63096 0.058352351 -0.32906529 10.5
-4.8881979 0.063641444 -0.34362108 11.555555
-7.497159 0.072606474 0.68873549 10.71875
-7.5215821 0.32776338 0.69425344 14.571428
-6.8741574 -0.25377449 0.020691946 4
-7.3647976 -0.21032244 0.18769604 6.1428571
-7.4702444 -0.19178721 0.47732899 6.5
-7.4116197 0.050940111 0.21817216 11
-7.5417285 0.053647488 0.51508749 10.5
-7.4124265 0.27981186 0.29021227 15
-7.5462246 0.30822855 0.51997411 14.5
-5.5173321 -0.18623482 -1.0730057 5.5714288
-6.7889147 -0.26274407 -0.49953532 4
-7.2626152 -0.27267841 -0.37147391 5
-7.3739462 -0.2180903 -0.1868268 6.1428571
-5.5099406 0.042673379 -1.0721897 11.952381
-7.4161243 0.038999707 -0.17735013 11
-7.4186983 0.25934404 -0.25058457 15
-5.4974875 -0.186263 -1.463816 6.2857141
-5.7778902 -0.25282553 -1.3007056 4.5
-6.1727309 -0.25933641 -1.0656464 4
-6.4968529 -0.26386476 -0.89088547 4
-6.9570146 -0.2775999 -0.99993873 5
-7.2474127 -0.25404298 -0.73530579 5.5999999
-7.4108114 -0.21139279 -0.49802336 6.5
-5.5004234 0.058306918 -1.4601715 11.26087
-7.4193592 0.042235598 -0.74193776 11
-7.4187469 0.032901391 -0.47951159 10.909091
-7.4259233 0.27973664 -0.72888041 15
-7.4267154 0.26694417 -0.52266705 15
-5.4755926 -0.19235578 -1.9465965 6.6666665
-5.8997951 -0.26079112 -1.5068123 5
-6.2979474 -0.27041504 -1.4476148 5
-6.5819416 -0.2745657 -1.3160222 5
-6.809586 -0.27710623 -1.1535459 5
-7.408813 -0.22511156 -1.0465364 6.5999999
-5.4882402 0.071702063 -1.8888772 10.769231
-7.4192595 0.040731192 -0.99426198 10.85
-5.4967332 0.3204056 -1.9096297 14.5
-7.4243393 0.28435731 -1.0438404 14.6
-5.466464 -0.18516362 -2.3476453 7
-5.5283103 -0.22574785 -2.3006425 6.5
-7.3982382 -0.25741237 -1.6617116 6.5
-7.4038181 -0.23451346 -1.4058274 6.6666665
-5.4759226 0.048281297 -2.3040929 10
-5.4751816 -0.03188771 -2.1670802 9
-7.4086008 0.0082116127 -1.642248 10
-7.4146032 0.033695921 -1.3820149 10.5
-5.490016 0.39019018 -2.3045611 14.25
-7.4193211 0.31947118 -1.6650549 14
-7.420424 0.29979277 -1.4140157 14.2
-5.4587193 -0.19403064 -2.5772982 7
-5.7562795 -0.27799827 -2.4469161 6
-6.2086782 -0.28874892 -2.4144974 6
-6.614172 -0.2979328 -2.3290174 6
-6.9668274 -0.30506566 -2.195118 6
-7.3473692 -0.26043612 -1.9550478 6.5999999
-5.4660125 0.053180218 -2.6793416 9.7777777
-7.4029622 0.019787073 -1.9219993 10
-5.4792509 0.40448529 -2.7129607 13.5
-7.4167891 0.36400247 -1.9105743 14.1
-7.3888135 -0.2376747 -2.1939983 7
-5.4516859 0.052401826 -3.1679554 9.5
-7.3929853 -0.0066229552 -2.3630817 9.5
-5.469758 0.42633975 -3.1210649 13
-7.4087534 0.38436741 -2.344501 13.583333
-5.4778428 0.64473581 -3.1102352 15
-5.4284954 -0.23431818 -3.6161604 7
-7.3711596 -0.25709844 -2.740016 7
-5.4378681 0.011528745 -3.6000028 9
-7.3846788 0.0072074607 -2.7444758 9.5
-5.4579859 0.43677217 -3.5429394 12.5
-7.3992162 0.39212179 -2.8061154 13
-5.4731913 0.73833758 -3.4954855 15
-7.4123936 0.61474687 -2.7943401 15
-7.3655472 -0.2761077 -3.2509916 7
-7.3716555 -0.03459999 -3.2007232 9
-7.3866954 0.36214298 -3.202445 12.285714
-7.396915 0.65412986 -3.2897124 14.5
-7.3600664 -0.021757819 -3.7004254 9
-7.3639112 -0.027177468 -3.4939082 9
-7.374589 0.39049548 -3.71842 12
-7.3807521 0.36576647 -3.5175219 12
-7.3878775 0.74577147 -3.7359908 14.5
-7.3896437 0.70230275 -3.5249364 14.5
-7.3348622 -0.30595535 -4.0584893 7
-7.3494945 -0.011608884 -4.1038399 9
-7.3681798 0.40039575 -4.0469203 11.8
-7.3819103 0.79973674 -4.1208134 14.333333
-7.3288355 -0.078806937 -4.6395125 8.5
-7.3397136 -0.081224382 -4.4515963 8.5
-7.3488951 0.34111923 -4.6772447 11
-7.3518848 0.32150376 -4.4651194 11
-7.3658881 0.77336431 -4.7044854 13.5
-7.3689718 0.72576249 -4.441741 13.5
-7.3766394 1.0414984 -4.7220526 15
-7.3833723 0.99554592 -4.5213017 15
-5.5569162 -0.32105866 -5.7277937 7
-6.0503254 -0.33471268 -5.7494569 7
-7.3135977 -0.34618735 -5.1143322 7
-5.4810743 -0.023753688 -5.7456799 8.5
-5.8726802 -0.03451708 -5.7581334 8.5
-7.3229623 -0.074987188 -4.9947376 8.5
-5.491724 0.37227583 -5.7521563 10.5
-5.8831682 0.36122674 -5.7627459 10.5
-7.339746 0.33491433 -4.9974699 10.8
-5.5023451 0.77439928 -5.7616768 12.5
-5.8936787 0.7627061 -5.7713089 12.5
-7.3565159 0.7414723 -5.053803 13
-5.513196 1.1864238 -5.7704091 14.5
-5.9045429 1.1738267 -5.7785792 14.5
-7.3680401 1.0682374 -5.1156893 14.666667
-6.5072041 -0.34770867 -5.7609501 7
-6.9741373 -0.36162877 -5.7720337 7
-6.0971389 -0.13892497 -5.7644572 8
-6.2863646 -0.044707105 -5.7682142 8.5
-6.7256508 -0.054419369 -5.7699156 8.5
-7.0239201 -0.060505882 -5.7723851 8.5
-7.3126335 -0.070101738 -5.3841877 8.5
-6.2759938 0.35322082 -5.7738438 10.5
-6.7355795 0.34636033 -5.7743063 10.5
-7.0372272 0.44622129 -5.7837553 11
-7.3284836 0.31449187 -5.4139752 10.5
-6.2865977 0.75647408 -5.7822604 12.5
-6.7465916 0.75346684 -5.7849855 12.5
-7.0449963 0.75488901 -5.7882476 12.5
-7.3452444 0.70846516 -5.4464469 12.5
-6.1705027 1.0675558 -5.795146 14
-6.3394141 1.2031512 -5.7867012 14.666667
-6.7574763 1.1703786 -5.7937002 14.5
-7.0559015 1.1759286 -5.7967281 14.5
-7.3608694 1.1146126 -5.473743 14.5
-7.1981716 -0.063779771 -5.7777505 8.5
-7.1815391 0.32347482 -5.7825756 10.4
-7.2287335 0.75689566 -5.7869916 12.5
-7.2506375 1.1807464 -5.7952752 14.5
2.1618218 1.6894656 0.20937148 13.032
2.1658988 1.9890304 0.20314494 14.032
2.1627173 2.2921751 0.1964747 15.032
-0.99607754 0.19640665 0.081783444 8.5319996
-0.93413162 0.55314022 0.077254564 10.532
-0.86672258 0.83194649 0.074675351 12.032
-6.3500094 0.27948046 1.621025 13.16175
-6.6588125 0.28525615 1.5938764 13.157166
-6.3229842 0.38650203 1.6175349 14.762199
-6.6608825 0.39011317 1.5900578 14.657166
-6.1958699 0.073301688 0.9606545 11.6615
-4.5551429 0.24222676 -0.3154563 14.0365
-4.9556756 0.17660372 -0.34853572 15.03875
-7.5058413 0.2445692 0.32073784 14.132
-7.485785 0.30025023 0.31282017 15.132
-5.4844303 0.061710969 -0.97700489 12.92143
-7.4490113 0.26106149 -0.43367305 15.1185
-0.9320786 -0.054233093 -0.89398253 7
0.49870834 0.047708564 1.9523441 7
-1.1155666 -0.0095163016 0.79041421 7
0.89370787 0.050057042 1.7453288 7
-0.97413993 -0.0049260426 0.79362559 7
0.6345917 0.046326913 1.746441 7
-0.93173897 -0.022098236 -0.89402562 8
0.49351695 0.12899353 1.9394747 8
-1.1177542 0.03784743 0.79023433 8
0.88869524 0.13058019 1.7368921 8
0.040343493 -0.080186293 -5.5062666 8
0.88702631 -0.058943357 -5.4346738 8
-0.98393261 0.040099829 0.80509722 8
1.9594996 0.10656036 0.38521135 8
-0.89123738 -0.030119296 -1.3296038 8
0.63942826 0.12415837 1.7589403 8
3.7652266 0.029343804 -5.1556277 8
-3.5654151 0.061499294 1.7718217 8
-3.0322855 0.066473857 1.7972294 8
2.1062207 0.16848139 1.6688679 8
2.1011071 0.1950185 2.2559524 8
0.49489895 0.21152985 1.9463171 9
-1.1296353 0.086384706 0.80188906 9
0.89024198 0.21198356 1.7401322 9
0.035624236 0.10411841 -5.4997907 9
0.88247061 0.12739463 -5.4382658 9
-0.98384774 0.085082047 0.80200684 9
3.7695091 0.25321853 -5.1740398 9
0.63151181 0.20028384 1.7420524 9
2.0764663 0.36324716 2.9093094 9
-0.90715766 0.011589144 -1.1612426 9
-3.3696666 0.1926776 1.7721783 9
-2.8765166 0.18401906 1.7964369 9
-2.3528154 0.17663838 1.8212444 9
2.1011758 0.2960625 1.9733831 9
2.2034938 0.15346768 -1.7536298 9
0.50483704 0.28612527 1.8726462 10
-0.91935885 0.044271469 -0.98085058 10
-1.1202375 0.13294677 0.78753221 10
0.88692379 0.29289439 1.7347096 10
0.033382624 0.29039535 -5.5328808 10
0.87793016 0.31423089 -5.4419885 10
3.7608387 0.47737941 -5.1767988 10
-0.98926795 0.13110092 0.80696678 10
-0.8787899 0.060850892 -1.4243444 10
2.1005547 0.24650669 -0.81593072 10
-2.8757277 0.30021703 1.7899052 10
2.0976808 0.38148585 1.6585668 10
2.0585325 0.25914055 -0.13204587 10
0.5076685 0.36893937 1.8831877 11
-1.1239814 0.18143883 0.78919661 11
0.028301448 0.47563446 -5.5210848 11
0.87301922 0.50187761 -5.4441867 11
3.7549698 0.70296937 -5.1830292 11
-0.98017991 0.17439485 0.79071116 11
-0.88831615 0.10583705 -1.4010285 11
-0.90645003 0.089229397 -1.1603298 11
-3.5621915 0.46759653 1.7507395 11
2.0730681 0.33378193 -0.55791223 11
1.9428186 0.36369202 0.51882827 11
-3.0408311 0.42957911 1.7854894 11
1.8809452 0.40400004 1.0895969 11
2.0987811 0.33448452 -0.81890464 11
2.0831623 0.64473593 2.9176974 11
2.1387026 0.34099877 -1.1853604 11
2.1000907 0.52602971 1.9695684 11
2.0590489 0.34369266 -0.13479972 11
2.1777852 0.35245305 -1.5544721 11
0.48980752 0.46031481 1.9392306 12
-0.91909838 0.1127784 -0.98113668 12
-1.13419 0.2323764 0.79865229 12
0.88499069 0.45768815 1.7322546 12
0.02444908 0.66375166 -5.5296049 12
0.87225461 0.6933198 -5.4650607 12
-0.98082566 0.21980917 0.78866982 12
3.7485611 0.9302637 -5.1887088 12
-0.88335252 0.15510266 -1.4326479 12
0.63072908 0.4360024 1.7443765 12
-3.5819089 0.60800749 1.7562753 12
2.0301297 0.43373644 0.070383787 12
2.089159 0.68125153 2.2384291 12
2.0230968 0.42253089 -0.13878644 12
2.1007764 0.60748762 1.7168952 12
2.2033875 0.471771 -1.8709184 12
-2.8905914 0.53752244 1.789579 12
2.1389828 0.4353137 -1.1894046 12
0.48994163 0.54627365 1.942448 13
-0.92062962 0.1502831 -1.004921 13
-1.1233307 0.2780399 0.78255498 13
0.020264596 0.85335153 -5.5334597 13
0.86485243 0.88294393 -5.4565792 13
3.7467654 1.1612451 -5.2001867 13
-0.98385775 0.26656553 0.79005921 13
-0.98842144 0.34426868 1.1700954 13
-0.89205682 0.18897231 -1.3299745 13
0.63105786 0.51696396 1.7465507 13
-3.3901029 0.72111636 1.7602718 13
-2.8204734 0.64863789 1.7895116 13
2.0238218 0.51839918 0.066959381 13
2.0954173 0.75963008 1.9622477 13
2.0801232 0.87715459 2.6321788 13
2.1925743 0.57092524 -1.7663544 13
0.48541299 0.62984943 1.9316341 14
-0.92150152 0.18628037 -1.0062523 14
-1.1213014 0.32638481 0.77713883 14
0.88026702 0.62515932 1.7248493 14
0.016820163 1.0480037 -5.550765 14
0.8660295 1.0820894 -5.4869556 14
3.7406499 1.394258 -5.2065592 14
-0.9856118 0.31364807 0.78954256 14
-0.98646593 0.40143129 1.1617701 14
-0.89566731 0.23515506 -1.3362782 14
0.62977815 0.59831935 1.7450291 14
-0.99800611 2.145133 7.8231335 14
2.071573 0.59636086 -0.56728542 14
1.9642518 0.6150651 0.37214893 14
2.1020806 0.60611522 -0.83021605 14
-2.369118 0.70474321 1.8082544 14
0.48270759 0.71601266 1.9263607 15
-0.91883183 0.22161619 -1.0033214 15
0.87681544 0.71005803 1.7192134 15
0.012533635 1.2435362 -5.5551786 15
0.85920215 1.2774726 -5.4817219 15
3.7349727 1.6311321 -5.2136893 15
0.62588763 0.67906702 1.7374892 15
1.9394605 0.71235502 0.5083732 15
2.1886761 0.7985568 -1.8768283 15
-0.89023459 0.29373154 -1.4032751 15
2.0699403 1.1511234 2.6178517 15
-1.0037739 2.4455786 7.8030262 15
2.0936894 0.94668728 1.7059292 15
-2.8264446 0.88999718 1.7819711 15
2.0347757 0.68543571 -0.1469574 15
1.8733599 0.77811241 1.0771102 15
2.1668034 0.7617836 -1.5669636 15
-2.367203 0.81272018 1.800351 15
3.2346404 -0.20153995 -5.1978688 7
3.3627231 0.12370642 -5.2033124 8.5
3.5993745 0.13388953 -5.1771955 8.5
3.3450301 0.52014732 -5.2165966 10.333333
3.5921261 0.5764727 -5.1947112 10.5
3.3058698 0.95605522 -5.2410898 12.333333
3.5832 0.91164207 -5.2034621 12
3.3541362 1.2235408 -5.2415729 13.5
3.5797663 1.2547178 -5.2198429 13.5
3.3325908 1.5631418 -5.2521462 15
3.5740747 1.6041623 -5.2337208 15
2.6622741 -0.21178098 -5.2747164 7
2.6954002 0.096452489 -5.2668886 8.5
3.0357425 0.11014017 -5.2398915 8.5
2.6882474 0.50810438 -5.2832222 10.5
3.0247247 0.53236675 -5.2508383 10.5
2.7035089 0.90773219 -5.3028998 12.4
3.0199702 0.96193701 -5.2718463 12.5
2.6732609 1.3551013 -5.3165493 14.5
3.0367486 1.2929872 -5.2786555 14
3.007268 1.5129111 -5.2887611 15
2.2014339 -0.21899141 -5.3028531 7
2.1718831 0.096457332 -5.3202543 8.6000004
2.4664977 0.087663963 -5.2940469 8.5
2.1751931 0.4743062 -5.3312278 10.5
2.4582493 0.49261993 -5.308208 10.5
2.1688926 0.87831551 -5.3494191 12.5
2.447809 0.90284741 -5.3187504 12.5
2.1598728 1.2919338 -5.3629427 14.5
2.4454353 1.3270662 -5.3450265 14.5
1.2858268 -0.23683377 -5.3936934 7
1.690218 -0.22845675 -5.3499346 7
1.3001457 0.046756402 -5.402133 8.5
1.6113774 0.056992199 -5.3717899 8.5
1.3133588 0.42776421 -5.4169621 10.5
1.6084149 0.44182178 -5.379683 10.5
1.2858672 0.81282789 -5.4341869 12.5
1.5959573 0.83275145 -5.4005313 12.5
1.2971691 1.209244 -5.4442434 14.5
1.5944042 1.2338428 -5.4136877 14.5
0.81117606 -0.24639423 -5.4262762 7
1.0810051 0.040001336 -5.4193535 8.5
1.0731632 0.41666794 -5.4322958 10.5
1.0662519 0.7993995 -5.4496765 12.5
1.0568265 1.1905013 -5.4583735 14.5
-0.49405792 -0.27768332 -5.5367136 7
-0.031825811 -0.26687801 -5.5161266 7
-0.38428667 0.0028277833 -5.54317 8.5
-0.11478403 0.0086529823 -5.5256004 8.5
-0.39212087 0.37511963 -5.5546813 10.5
-0.12277892 0.37953624 -5.5333567 10.5
-0.40021017 0.75273544 -5.5656118 12.5
-0.13074234 0.75613409 -5.5469036 12.5
-0.40199903 1.1411104 -5.5840664 14.5
-0.119782 1.142557 -5.5593247 14.5
0.2564685 -0.20749326 -4.4634972 7
-0.56775808 -0.0010308723 -5.366251 8.5
-0.57558322 0.3593519 -5.3815193 10.5
-0.58796716 0.82602024 -5.4437876 13
-0.59544611 1.2040077 -5.4460239 15
-0.60907626 -0.0024658635 -4.8707604 8.5
2.2176023 0.20678626 -1.8200409 9.5
-0.62806463 0.43603444 -4.7985086 11.25
2.2078671 0.62234128 -1.8345834 13.4
-0.62886262 0.82771349 -4.9303451 13.5
2.2096834 0.81126964 -1.9440249 15
-0.63443565 1.0865209 -4.9401007 15
-0.63820112 -0.22545777 -4.4516926 7
2.1623108 -0.029134611 -1.1790583 7
-0.64244616 -0.0036205489 -4.4534197 8.5
-0.66578925 0.1020786 -4.1966014 9.25
2.200628 0.20521195 -1.6555393 9.5
2.1737275 0.20346047 -1.3715206 9.5
-0.65103865 0.36846927 -4.4742212 11
-0.68327832 0.47904366 -4.1480613 12
2.1895268 0.61764276 -1.6680149 13.5
2.1631587 0.59414554 -1.3700246 13.5
-0.66279578 0.83161896 -4.5130301 14
-0.69181931 0.8361333 -4.1698518 14.5
-0.69116235 -0.1940314 -3.8122058 7
0.46685305 -0.18277751 -2.4321651 6
0.80240119 -0.16989622 -2.2724423 6
2.143903 -0.024184829 -1.0505663 7
2.1197293 -0.016228406 -0.83953702 7
-0.7068882 0.055234287 -3.694447 9
2.1447532 0.20306034 -1.0699744 9.5
2.1202476 0.25671309 -0.83178455 10.090909
-0.70873511 0.50755656 -3.8595352 12.5
-0.72219348 0.43881068 -3.6387935 12.2
2.1358531 0.58429152 -1.0784659 13.6
2.1143117 0.58421212 -0.86717719 13.714286
-0.71210372 0.70354456 -3.8589664 14
-0.72420871 0.80717349 -3.7305603 15
-0.38172689 -0.20556821 -2.5691986 6
-0.056486875 -0.1971181 -2.5413399 6
2.0464103 -0.054612007 -0.52997887 6.4000001
2.056031 0.0043451842 -0.25461447 7
-0.73715687 0.10400705 -3.3551798 9.5
-0.75940084 0.10346087 -3.0709901 9.6000004
2.0929234 0.24143052 -0.55320072 9.8888893
2.0573623 0.2431501 -0.25282919 9.8571424
-0.74779952 0.49762717 -3.3844724 13
-0.77003169 0.50533563 -3.0976009 13.5
2.0861995 0.60096866 -0.56532955 14
2.0491049 0.57868755 -0.28044617 13.8
-0.75110912 0.72708142 -3.3810554 15
-0.78000832 -0.14247443 -2.758337 7
-0.69809461 -0.18206538 -2.5124116 6.3333335
0.18823445 -0.15892346 -1.5381904 5
0.40612182 -0.1503745 -1.4305533 5
2.0210927 -0.02695098 0.057758212 6.5
-0.78603971 0.12600757 -2.7497358 10
-0.80409741 0.11445879 -2.5092793 10
2.0192518 0.26453376 0.080394983 10
-0.79356515 0.46233454 -2.8020535 13.6
-0.81446135 0.45013261 -2.5349469 14
2.010463 0.60372752 0.070278525 14
-0.82605875 -0.13253933 -2.1932235 6.75
-0.84953654 -0.10134993 -1.9099635 7
-0.33457735 -0.170899 -1.6076361 5
-0.0061173737 -0.16421346 -1.5924994 5
0.66487396 -0.11333904 -0.44314981 4
1.0772352 -0.096373804 -0.21643955 5
1.9330339 -0.0058996966 0.59070033 6.5714288
-0.83112109 0.12290336 -2.1976984 10.352942
-0.85187054 0.05282034 -1.9121267 9.5
1.9572792 0.28601068 0.59427267 10
-0.83381498 0.40352422 -2.2404561 14.125
1.9505136 0.63533962 0.58208388 14
-0.87415028 -0.13678838 -1.5987006 5.5
-0.6097399 -0.16104838 -1.4089776 3.6666667
-0.42590132 -0.1448628 -1.0567491 3
0.67773211 -0.10653521 -0.27206099 4
0.82818258 -0.090139374 0.09519428 4.5
1.0027335 -0.082201764 0.26725078 5
1.7013094 -0.043511149 1.0228665 6
1.8865459 0.045515116 1.2228603 7
-0.87351215 0.13365425 -1.6577739 11.130435
1.886528 0.30051395 1.1545793 9.8000002
-0.86925685 0.36347437 -1.8183855 14.75
1.8854067 0.63479125 1.1198176 13.4
-0.91170549 -0.099545076 -1.0841527 6
-0.36689773 -0.13896713 -0.78796899 3
0.49052271 -0.087930314 0.38720912 4
0.80004549 -0.073081113 0.63826293 5
1.4714116 -0.035634838 1.3319144 6
1.8438032 0.051665891 1.4985535 7
1.9703922 0.060990293 1.7756375 7
2.1095691 0.071665742 2.1210308 7
-0.90352511 0.10284468 -1.3511807 11
-0.91715395 0.10654032 -1.0800519 11.56
1.8453748 0.27078208 1.4498277 9.2857141
1.9113443 0.31903496 1.7361983 9.5
2.1087682 0.32896593 1.9719533 9.2857141
1.8398235 0.68336987 1.4319624 13.5
1.9037197 0.72468245 1.7233794 13.333333
2.1045206 0.73220652 1.9918674 12.714286
2.104815 0.96009952 1.7568278 15
2.1014388 1.0048463 1.9663819 15
0.27772811 -0.086361632 0.57035333 4
0.52722132 -0.069305353 0.90272045 5
1.2970524 -0.032016251 1.5407449 6
2.1109481 0.079530805 2.503901 7
1.7836795 0.32554913 1.9393796 9.5
2.1047521 0.31705689 2.2667856 9
2.0964246 0.33732855 2.5485067 9
1.7814 0.70334345 1.9270521 13
2.0976758 0.71915364 2.2436423 12.285714
2.0918105 0.72719097 2.5330691 12
1.7698247 0.92032945 1.9020945 15
2.0893719 1.0153705 2.3123398 14.5
2.0843449 1.0871539 2.5357194 14.666667
-0.29933542 -0.093231551 0.72038424 4
-0.0067849457 -0.074060932 1.1231446 5
0.21553728 -0.070485368 1.0523255 5
0.83685386 0.01685564 1.7390429 6.5999999
2.0907938 0.089635774 3.0306864 7
0.80454779 0.28904492 1.7480289 10
2.0906646 0.35962155 2.8518333 9
2.0844929 0.37639505 3.0737009 9
0.78292727 0.62484533 1.734136 14.111111
2.0856326 0.79422712 2.8253136 12.142858
2.0832608 0.73886037 3.0714154 11.5
2.0771794 1.1271932 2.8121386 14.5
2.0715542 1.1115731 3.0715108 14
-1.47142 -0.138349 0.11386448 4.6666665
-1.055383 -0.12256241 0.34538454 4
-0.76852691 -0.10819286 0.59308797 4
-0.60933554 -0.087768666 1.0922365 5
-0.32308921 -0.080503911 1.1436042 5
0.52778721 -0.0068554906 1.8851591 6.3333335
2.0825925 0.10011357 3.5921898 7
0.5422051 0.29816881 1.8531452 10.142858
2.0754466 0.40584549 3.4595909 9
0.54359984 0.60987395 1.8265818 14
2.0711801 0.79575187 3.453804 11.5
2.0638535 1.160695 3.4120593 13.833333
2.0617919 1.3921196 3.5620012 15
-1.5199971 -0.13156661 0.36988705 5
-1.3547956 -0.11949992 0.61016041 5
-1.0427632 -0.05411987 0.85880494 6
-0.96847796 -0.038384043 1.1462386 6.25
0.054134756 -0.041022833 2.0637455 6
-1.0144948 0.20913486 0.84863257 11.5
-0.99121475 0.2436371 1.1515394 11.294118
-0.99511409 0.47554579 1.2087504 15
-2.5210223 -0.15409356 0.31631804 6
-0.99536037 0.0048650438 1.3693031 7
-0.98324645 -0.026065277 1.8029176 6.5
-0.60605562 -0.055688787 2.0675464 6
-0.31270137 -0.048124705 2.0812879 6
-0.99946821 0.22948873 1.5023881 10.25
-1.007683 0.24354351 1.7774636 10
-1.0030708 0.51310223 1.5087566 14.333333
-1.0111021 0.55051219 1.7977413 13.857142
-2.4874921 -0.14861874 0.48295158 6
-2.2961054 -0.13069123 0.89269865 6
-2.0704997 -0.11478833 1.2402768 6
-1.8685912 -0.10321474 1.4495469 6
-1.0080006 0.015651979 2.0168486 7
-1.0105475 0.23119132 1.9560353 9.625
-1.0185127 0.6105606 1.9890836 14
-2.0559368 0.22237809 1.8351496 9.5
-2.065886 0.61721861 1.8233904 13.5
-2.6065881 -0.038354795 1.8278271 7
-2.2398298 -0.025586274 1.8385981 7
-2.5807064 0.25358853 1.8162977 9.666667
-2.2394078 0.22651745 1.8300172 9.5
-2.57704 0.6093725 1.8083545 12.888889
-2.2449725 0.63775373 1.820423 13.5
-2.5601759 0.84539706 1.7974015 15
-2.9473422 -0.050908383 1.8014201 7
1.840965 0.14960599 6.6389885 7
-3.1297243 0.18912208 1.7932874 9
-2.8305032 0.18392591 1.8110534 9
-3.1202993 0.58113647 1.7854506 12.166667
-2.8532329 0.57604271 1.7989296 12.333333
-3.2336013 0.90764385 1.7665311 14.571428
-2.8431869 0.8957054 1.7942663 15
-3.4749653 -0.070211232 1.7875098 7
-3.6590731 0.19925727 1.769738 9
-3.680702 0.62003988 1.7573489 12
-3.4044938 0.59054554 1.7759789 12
-3.7512288 0.96612221 1.7433245 14.333333
2.3335905 1.3857228 7.8845701 11
2.3339186 1.6964451 7.8968229 12
2.3181081 2.1593306 7.8638277 13.5
2.3097003 2.6375382 7.8546572 15
-4.0692 -0.092796944 1.7573303 7
-0.41402867 0.089753717 5.6831856 7
0.70758581 0.13269569 6.8809514 7
-4.5434222 0.13580216 1.7261608 8.5
-4.2071304 0.21088959 1.7417678 9
1.7103572 0.46337354 7.9235773 8
2.2315636 0.47842315 7.9453039 8
-4.5543718 0.55036265 1.7131234 11
-4.2351308 0.59123117 1.7287426 11.428572
1.6954744 1.052886 7.8961372 10
1.9826479 0.88735145 7.9083157 9.3999996
-4.5701928 0.97463661 1.7019249 13.5
-4.2136078 0.98286718 1.7206126 13.909091
1.9777708 1.3662418 7.8893051 11
-4.5821633 1.2376025 1.6959906 15
-4.4380679 1.2071588 1.70433 15
1.6823244 1.6501579 7.8764009 12
2.0015757 1.6698321 7.8742409 12
1.6713848 2.1062305 7.8575716 13.5
1.9931664 2.1327119 7.8649836 13.5
1.6617343 2.5729299 7.844758 15
1.9818189 2.6024394 7.8456602 15
-4.8506322 -0.12300079 1.7198029 7
-0.93791413 0.077485405 5.6765394 7
-5.1174521 0.14041625 1.6981187 8.5
-4.7792373 0.1378336 1.7163792 8.5
-0.88665795 0.51915395 5.9295635 9
1.3955054 0.45492482 7.9176569 8
-5.1276531 0.50756681 1.6866742 10.5
-4.7869191 0.57047898 1.7011327 11
-0.89077902 0.7372129 5.9154029 10
1.4099894 0.86462152 7.8976946 9.3999996
-5.1183958 0.97133851 1.676994 13
-4.8102641 1.0146935 1.6921568 13.5
1.375865 1.3352466 7.8874598 11
-5.0644703 1.3411257 1.6669804 15
-4.8186545 1.2883911 1.6839769 15
1.3669753 1.6304535 7.865799 12
1.3588085 2.0855091 7.8598785 13.5
1.3488626 2.5482895 7.845892 15
0.077437371 0.12051675 6.9270182 7
-5.6017752 0.14470923 1.6715158 8.5
-5.3989143 0.14286734 1.683099 8.5
-1.9531904 0.34773698 5.2550707 8.5
0.53581357 0.43264735 7.8978834 8
0.90122366 0.44214427 7.9103947 8
-5.619627 0.5429529 1.6614616 10.5
-5.4076891 0.52768779 1.6703191 10.5
-1.9559004 0.75049341 5.2216144 10.5
-0.90013504 0.96388811 5.9511595 11
0.52644849 0.86380446 7.885479 9.5
0.89097214 0.87563092 7.8911142 9.5
-5.6430097 0.95037937 1.6530296 12.5
-5.4412513 0.92242819 1.6665156 12.5
-1.9573554 1.1559548 5.1834841 12.5
-0.90346622 1.1844058 5.9285164 12
0.5169785 1.2980711 7.8726959 11
0.88145137 1.3123569 7.8774014 11
-5.6552415 1.366733 1.6401883 14.5
-5.3469272 1.3033459 1.6563363 14.5
-1.9699254 1.5778722 5.1800613 14.5
-0.9092474 1.4115008 5.9285913 13
0.51049852 1.5903658 7.8621655 12
0.87518263 1.6067907 7.8687458 12
0.53075337 2.0368977 7.8467741 13.5
0.8657856 2.056154 7.8577671 13.5
0.48924395 2.4857912 7.8173094 15
0.85576725 2.514008 7.8437357 15
-6.2341042 -0.18899672 1.2478977 7
-6.0573606 -0.17046313 1.6605667 7
-1.9550996 0.053075925 5.7576003 7
-6.3228374 0.15120007 1.637648 8.5
-5.9454203 0.1477761 1.6557904 8.5
-1.9640729 0.38108239 5.7527905 8.5
0.17561004 0.42432815 7.9001617 8
-6.3313341 0.59603745 1.6223301 10.5
-5.9612737 0.56857091 1.6438761 10.5
-1.9681642 0.81774205 5.7185774 10.5
0.19592926 0.85448027 7.8828392 9.5
-6.3592401 0.93653381 1.6173145 12
-5.9878459 0.99829823 1.6352407 12.5
-1.9664941 1.1442474 5.6762357 12
0.18615219 1.2862428 7.8638601 11
-6.3764296 1.2833749 1.6086849 13.5
-5.9548931 1.3907239 1.6234813 14.333333
-1.9765801 1.4831682 5.6741676 13.5
0.22992823 1.7568324 7.8511972 12.6
-6.376852 1.6336803 1.5946554 15
-6.1097422 1.5729225 1.6067463 15
-1.9844089 1.8275242 5.6634932 15
0.16655061 2.1701136 7.833209 14
0.15986559 2.4730208 7.8217688 15
-1.5897033 0.079238862 6.7675419 7
-6.9042192 0.27711415 1.6044701 9
-6.6037827 0.26925775 1.6201047 9
-1.9720151 0.40669212 6.1350513 8.5
-6.9152174 0.5189898 1.5979604 10
-6.5995016 0.49999431 1.6095847 10
-1.9774876 0.75433433 6.115202 10
-0.53122377 0.88294357 7.8575487 9.666667
-0.19575027 0.98709786 7.8675861 10
-6.9243808 0.88509238 1.5859965 11.5
-6.6329737 0.85344493 1.6053795 11.5
-1.9799085 1.1358095 6.2788167 11.5
-0.5598557 1.2667823 7.8523741 11
-0.2419236 1.2746266 7.8604765 11
-6.9547396 1.3852487 1.5746788 13.5
-6.6456366 1.3303027 1.5900379 13.5
-1.9886889 1.5660727 6.195188 13.333333
-0.56952071 1.7043177 7.8393192 12.5
-0.2516568 1.7123191 7.8466501 12.5
-6.9592056 1.7664703 1.5607907 15
-6.6519556 1.6960646 1.5772592 15
-2.0003729 1.9369754 6.3285761 14.666667
-0.57921004 2.1476853 7.8192911 14
-0.22173145 2.1590176 7.8349638 14
-0.58601403 2.4511576 7.8126526 15
-0.26811317 2.4579203 7.8149967 15
-7.4192715 0.28956604 1.5516816 9
-1.9794533 0.43522522 6.5595388 8.5
-1.993221 0.46912849 7.0629292 8.5
-7.4324107 0.54852337 1.544866 10
-1.9894786 0.80643415 6.5544624 10
-2.0035901 0.86611962 7.056509 10
-0.88241649 0.97345126 7.8646708 10
-7.4524217 0.94172686 1.534664 11.5
-1.9975293 1.2559687 6.981246 11.5
-0.88820195 1.2611581 7.8486376 11
-7.4794378 1.3422359 1.5260617 13
-2.0055771 1.6576929 6.9643745 13
-1.2244151 1.5484432 7.8326397 12
-0.8980782 1.6995622 7.8356028 12.5
-7.418004 1.6886593 1.5246073 14.333333
-2.0124295 1.9314702 6.9586792 14
-0.81665134 2.1399467 7.8000097 14
-7.6789441 1.9277231 1.4702257 15
-2.0208116 2.2117372 6.9586582 15
-1.2433345 2.4443483 7.7953253 15
-0.82419538 2.4459167 7.8026037 15
-2.0032394 0.36586952 7.6346097 8
-1.7428069 0.38174206 7.8523483 8
-2.0126483 0.79083943 7.6205788 9.5
-1.6926241 0.86427164 7.8383102 9.666667
-1.3908186 0.96349025 7.8367414 10
-2.0031803 1.2054389 7.5222011 11
-1.6417263 1.2534884 7.8354855 11
-1.3382027 1.2551423 7.8379383 11
-2.0182784 1.6399095 7.5327291 12.5
-1.6463404 1.5450649 7.814764 12
-1.3779359 1.6946082 7.8211842 12.5
-2.0258083 2.0751622 7.5087795 14
-1.6566019 1.9924545 7.8021536 13.5
-1.3584092 2.143301 7.8122206 14
-2.0341008 2.3750329 7.5063839 15
-1.6673415 2.449549 7.7907705 15
-1.424674 2.4467382 7.7961693 15
-1.9276545 0.37833759 7.8533039 8
-1.8958707 0.76595008 7.8442736 9.333333
-1.8854086 1.2518693 7.8251057 11
-1.8931749 1.5479128 7.8215017 12
-1.9017277 1.9958519 7.7998056 13.5
-1.9104755 2.4519992 7.7777987 15
5.2768822 1.1219755 -5.0515676 12.1775
5.2682128 1.3864963 -5.0578108 13.1775
5.2590084 1.79163 -5.0708504 14.6775
4.4729114 1.0177975 -5.1320739 12
4.4599013 1.3872685 -5.1391826 13.5
4.4554434 1.7662493 -5.155489 15
4.0486631 0.15763322 -4.6544223 8.5
4.0372324 0.59296644 -4.6667528 10.5
3.9767377 0.16159764 -3.8921146 8.6774998
3.9660842 0.55698758 -3.9034142 10.6775
0.8515625 0.03337856 -5.424861 8.5159998
0.84504151 0.31285325 -5.4313784 10.016
0.8358345 0.78599232 -5.450613 12.516
0.82867813 1.175669 -5.4683647 14.516
0.418874 0.76980805 -5.4913549 12.51825
0.41046783 1.1554427 -5.5022144 14.51825
0.66020811 0.42147988 -4.6180024 11.016
0.28814301 0.091649465 -4.4482689 9.0182505
0.27949652 0.38974676 -4.4413433 11.01825
-0.91352773 0.20273688 -1.1641257 13.872001
-0.90607405 0.29163843 5.76159 8.1094999
-6.3511868 0.019025343 0.98767364 8.073
-1.4452364 0.39430022 5.8194637 8.6070004
-1.4706774 0.72754115 5.907279 10.107
3.1586282 -0.12758015 0.61000735 5
3.1650023 -0.10629302 1.814887 5
3.1536195 -0.096082047 0.60522693 6
3.1641104 -0.074518353 1.8149548 6
3.1751046 -0.092270263 2.4724705 6
3.1710925 -0.081854641 2.1211052 6
3.170814 -0.077816069 1.9692793 6
5.4599781 -0.12289236 0.33620012 6
4.0925879 -0.086713023 -0.56857383 7
3.1646895 -0.063457556 0.61526805 7
3.1608782 -0.042851746 1.8172377 7
4.5275888 -0.080958687 -0.48337221 7
5.4456134 -0.088550434 -0.7982688 7
5.4577627 -0.027268559 3.3020697 7
3.1626468 -0.071525171 0.3319428 7
3.1722701 -0.042212564 2.4763014 7
5.4310241 -0.075089268 -0.32543397 7
5.4648395 -0.055483431 0.44914699 7
5.4429755 -0.043165386 1.0599372 7
5.4376001 -0.060685746 0.22452414 7
5.4466987 -0.034667253 1.6980127 7
5.4536767 -0.029492101 2.4476819 7
4.0907316 -0.023643853 -0.56182778 8
3.1609235 -0.03199362 0.61163336 8
3.1605508 -0.011025377 1.8167706 8
4.9136343 0.16934596 6.9141293 8
3.1614695 -0.032661468 0.33034873 8
3.166523 -0.0024294462 2.1252718 8
3.1611972 -0.032884464 0.075199485 8
4.2208443 -0.021907287 -0.44247901 8
3.1679912 -0.0068390295 1.970726 8
5.4414291 0.024316527 1.6957052 8
5.4363356 0.0048958398 0.15944219 8
5.455616 0.065519437 3.2991576 8
5.4364352 0.0026686266 -0.33265436 8
5.4397435 0.014762927 1.1517296 8
5.4426451 0.0037593059 -0.092221856 8
5.457046 0.0065701865 0.33501691 8
4.0918612 0.039742567 -0.57522619 9
3.1559935 -0.00011546537 0.6069234 9
3.1569974 0.021085843 1.819346 9
4.4883566 0.045589559 -0.46117401 9
4.9134574 0.37350416 6.9212217 9
3.1598716 0.0063582845 0.32818943 9
3.1676145 0.048757508 2.3171489 9
4.2668366 0.038356766 -0.42910695 9
3.1641469 0.002506718 0.47791272 9
5.4298725 0.0832946 -0.46634793 9
5.4538016 0.17369404 3.5641794 9
5.4370794 0.092986189 -0.85273111 9
5.4530015 0.13977021 2.9608986 9
5.440495 0.068597242 0.62004191 9
5.4404554 0.068557434 0.79687965 9
5.4641285 0.095223434 1.9994044 9
5.4410977 0.070249572 1.0582566 9
4.0892668 0.1023664 -0.56346917 10
3.1595364 0.052868359 1.8161699 10
3.1655583 0.030968528 0.61558443 10
4.4860845 0.10851172 -0.45818198 10
4.9142132 0.57966453 6.9332795 10
3.1658735 0.044791386 0.3362419 10
3.1721072 0.093499295 2.307981 10
3.1699054 0.070007414 2.0381329 10
4.2189822 0.097426921 -0.4421339 10
5.4428997 0.21858789 2.9002657 10
5.4298396 0.18407111 -0.84616077 10
5.4340296 0.16774239 -0.52187216 10
5.4552107 0.13406628 0.42124641 10
5.4521341 0.1856419 2.4449728 10
3.1599467 0.084937781 1.8149991 11
3.1601424 0.063404426 0.6104238 11
4.4904461 0.17355615 -0.47206759 11
5.4255934 0.80236864 6.9040775 11
3.1663628 0.10552442 0.084668756 11
3.1718225 0.10727943 2.0345957 11
3.1700773 0.16540031 2.5203061 11
5.4355206 0.18460554 1.1492075 11
5.444737 0.28771162 2.7618995 11
5.4547973 0.40407336 3.7978315 11
5.4333878 0.30532563 -1.1897351 11
5.4329681 0.20413154 0.22149587 11
5.4467463 0.25393766 2.4040389 11
5.4334617 0.26325387 -0.68019629 11
5.4615374 0.19791037 0.44548857 11
5.4551115 0.32056832 3.066951 11
5.4403868 0.22262566 -0.095727444 11
4.0876112 0.22970842 -0.56394458 12
3.1633852 0.11654164 1.8109765 12
3.1530175 0.096922874 0.60368127 12
4.4893494 0.23793189 -0.47211206 12
5.4251552 1.0149233 6.9071631 12
3.1696904 0.15702753 2.1160927 12
3.1652608 0.10780177 0.47887558 12
3.1601019 0.1538779 0.074062943 12
3.1713452 0.19685371 2.3835506 12
5.4250526 0.38994062 -1.0384487 12
4.2187738 0.21896963 -0.44888747 12
5.4550724 0.51395607 3.7984414 12
5.4303145 0.35113484 -0.67900562 12
5.4483275 0.38699102 2.905273 12
5.4445953 0.32964629 2.4381897 12
5.45333 0.44058257 3.2956042 12
5.4411979 0.24570973 0.79347497 12
5.460021 0.25122762 1.3814266 12
4.0859103 0.29320699 -0.558285 13
3.1644173 0.14878567 1.8092136 13
3.153558 0.12963553 0.60401195 13
4.4837775 0.30070281 -0.46076584 13
5.4223552 1.2284638 6.901885 13
3.1628587 0.1441282 0.47606707 13
5.42557 0.48982489 -1.0422765 13
5.442163 0.3979134 2.3995819 13
4.2639146 0.28009254 -0.43207693 13
5.4306645 0.34485143 0.15546024 13
3.166995 0.24740277 2.389843 13
5.4548478 0.58359504 3.5657282 13
5.4506817 0.48077404 2.9571018 13
5.4349341 0.44203967 -0.68701673 13
5.4352875 0.3705321 -0.095212579 13
4.0871077 0.361462 -0.57258129 14
3.1649239 0.18150677 1.8079358 14
3.1539059 0.16276138 0.60416275 14
4.5261555 0.37796646 -0.49946868 14
5.4209499 1.4460899 6.9016504 14
3.1530819 0.1944966 0.39579344 14
5.4281063 0.37323308 0.61865753 14
5.4418063 0.36087799 1.0534396 14
5.4512539 0.41049165 0.23744011 14
5.4346929 0.43675941 -0.021961927 14
5.4333134 0.5079 -0.53041661 14
5.4608154 0.42060727 1.9945184 14
5.4545326 0.39433348 0.41618639 14
4.0871806 0.4298287 -0.57931888 15
4.5233288 0.44512987 -0.49547112 15
3.1519389 0.23421733 0.39432377 15
5.422802 1.6709821 6.9131413 15
3.1651161 0.2643078 2.0389023 15
3.1669383 0.38093525 2.5190117 15
5.4266872 0.42513239 0.79391581 15
5.4574966 0.4315263 1.3786023 15
5.4482555 0.48008752 0.23769343 15
5.4263721 0.72375137 -1.1926962 15
5.4463472 0.61686707 2.7618008 15
5.4294662 0.64546138 -0.79967046 15
5.4322543 0.58689445 -0.48245573 15
5.4417691 0.51460975 -0.029199719 15
5.4517164 0.68116111 3.0619421 15
4.7456303 0.26893407 6.9234881 8.5
4.4327111 0.26411927 6.9234781 8.5
4.164032 0.26034141 6.9237013 8.5
3.1970468 0.25134623 6.9237852 8.5
2.9248967 0.24995251 6.9277744 8.5
5.2107449 0.79537445 6.9180212 11
4.8111486 0.71231419 6.9148612 10.666667
4.4286919 0.66885585 6.9183416 10.5
4.1600146 0.66360199 6.9201484 10.5
3.1920481 0.65702099 6.9253898 10.5
2.9211559 0.6571818 6.9192119 10.5
5.2060528 1.1104366 6.9077153 12.5
4.8431587 1.0942076 6.9120827 12.5
4.4247389 1.0801731 6.9162254 12.5
4.155818 1.0729395 6.9145637 12.5
3.187696 1.0683812 6.9203482 12.5
2.9154541 1.0724508 6.922215 12.5
5.2023253 1.5414414 6.9036951 14.5
4.8387294 1.5195076 6.905622 14.5
4.419538 1.4993473 6.9018474 14.5
4.151145 1.4906781 6.9023409 14.5
3.1841278 1.4882609 6.9069004 14.5
2.9121664 1.4949421 6.9087753 14.5
5.4711909 0.76647228 6.6190271 11
5.4665794 1.069765 6.6095567 12.5
5.4626637 1.484358 6.6048236 14.5
5.4781432 -0.029043235 6.2334981 7
5.0632577 -0.03126812 6.136529 7
5.475668 0.24300827 6.1140785 8.5
5.4712315 0.5813089 6.145071 10.333333
5.4695454 1.0242414 6.1083093 12.75
5.464766 1.3978043 6.1386757 14.666667
5.4705529 0.2263438 5.7689438 8.5
5.4692602 0.66203785 5.8248258 11
5.4632416 1.0754397 5.8316197 13.333333
5.4615927 1.3611395 5.7597575 15
5.4693508 0.25430781 5.3731174 8.8000002
5.4659672 0.63499826 5.3871212 11.2
5.4627361 1.0513188 5.3483486 13.8
5.4581251 1.2808037 5.460731 15
5.4714079 -0.027518652 5.0600476 7
5.4703131 0.2615816 4.9859695 9
5.4642215 0.66655278 4.9609466 11.8
5.4635139 1.0335742 4.9920592 14.2
5.468431 -0.027003989 4.398304 7
5.46667 0.23726936 4.6027474 9
3.1760716 0.19266023 4.5399876 9
5.4624958 0.63769013 4.5901208 12
3.1710188 0.58616936 4.5209465 12.285714
5.4612408 0.98127568 4.5852528 14.5
3.1690323 0.8953625 4.5713048 14.666667
5.4663458 0.21345146 4.2185211 9
3.172332 0.23879682 4.1039886 9.7142859
5.4604697 0.60935259 4.1913157 12.285714
3.1681819 0.61561418 4.0855384 13.285714
5.4592242 0.92021334 4.2430329 14.666667
3.1650825 0.83550131 4.1986499 15
5.4677496 -0.02689977 3.860343 7
5.4641542 0.24276169 3.800333 9.5
3.1696277 0.18853785 3.7687101 9.5
5.4578485 0.64891464 3.7759557 13.25
3.1675932 0.56637889 3.7556 13.5
5.4602623 0.85642803 3.809772 15
5.4629393 -0.027193012 3.3737211 7
4.8185692 -0.10998823 3.3169451 6
4.4782662 -0.11206932 3.4555883 6
3.1728907 -0.068010509 3.3217406 6.6666665
5.4611282 0.21327652 3.401463 9.5
3.1682186 0.19671749 3.3794022 10
5.4573154 0.60660934 3.4003057 13.5
3.1648517 0.52407831 3.3744159 14
5.4614964 -0.027757233 3.0123734 7
5.2995505 -0.10938147 3.0169251 6
3.1692312 -0.042825587 2.9838486 7
5.4598532 0.22703333 2.9864645 10
3.1667247 0.19162373 2.9806685 10.5
5.456768 0.55543244 3.0176885 13.714286
3.1648898 0.46501034 2.9738178 14.5
5.4596729 -0.067156091 2.6341171 6.5
4.3925714 -0.12715589 2.4797573 5
4.1735587 -0.13040383 2.5881603 5
3.1724951 -0.084091946 2.5798857 6.1999998
5.4588599 0.19709514 2.5926127 10
3.1643555 0.18788503 2.5867431 11.25
5.456512 0.50508028 2.5861826 14
3.1633544 0.40272385 2.6022813 15
5.4605784 -0.064388856 2.2007716 6.5
4.7972016 -0.12706763 2.1998358 5
3.1829522 -0.092353538 2.155123 5.7142859
5.4551816 0.20480184 2.1969295 10.5
3.1629572 0.14910069 2.1863878 11.529411
5.452374 0.47908109 2.1855338 14.5
5.4593539 -0.064201072 1.7926488 6.5
5.1254973 -0.13119948 1.7480736 5
5.0211945 -0.12808736 1.9187379 5
4.303266 -0.13764772 1.6371555 3
4.0887437 -0.13503934 1.7283567 3
3.1794167 -0.10404343 1.92337 5.1999998
5.4533348 0.19604541 1.7899499 10.769231
3.1625428 0.11147179 1.8992902 11.5
5.4516964 0.42527485 1.8108885 14.4
5.4554062 -0.066964671 1.4032043 6.5
5.207418 -0.13439876 1.4245791 5
4.6398673 -0.14140859 1.3001692 3
4.4320774 -0.13795011 1.5306236 3
5.4514561 0.19307996 1.3921938 11
5.4451008 0.42947507 1.3857574 15
5.4534473 -0.072888523 1.007766 6.5
5.2014093 -0.14119218 0.98374796 5
4.7796259 -0.14434066 0.97451335 3.4000001
5.4506192 0.18726942 1.0106224 11
5.448585 0.42515951 0.98833239 15
5.4500055 -0.082462601 0.60440993 6.5
5.0904388 -0.14815313 0.61415571 5
4.8536563 -0.15135908 0.59014732 4.5
4.5332603 -0.15539674 0.51899797 4
3.1663239 -0.11735332 0.51449871 5.5
5.4486189 0.19213748 0.60925353 11
3.1604319 0.093012929 0.52148914 11.666667
5.4442873 0.42429179 0.56262869 14.666667
5.450284 -0.093923248 0.22669429 6.5
4.8276005 -0.15785626 0.22796398 5
4.4827433 -0.16223244 0.13663363 4.6666665
4.0473447 -0.16574374 0.2513172 4
3.6040595 -0.17098175 0.25508744 4
3.1846206 -0.12588337 0.23040545 5.7142859
5.4459362 0.17399788 0.19861788 10.5
3.157012 0.11770009 0.22363138 11.529411
5.4451628 0.44741929 0.21637851 14.5
5.4480305 -0.10812901 -0.17299807 6.5
4.3486876 -0.16710111 -0.079625487 5
4.0438461 -0.17231946 -0.16191244 5
3.6417298 -0.17650811 -0.15913713 5
3.1860383 -0.12629783 -0.13838303 6.1999998
5.4449186 0.17349623 -0.18243098 10.272727
3.1525517 0.14409699 -0.17542279 11.25
5.4425335 0.479182 -0.23920131 14.142858
3.1467631 0.37769133 -0.27722967 15
5.4402018 -0.10936728 -0.56537521 6.6666665
5.2148294 -0.16683719 -0.66876972 6
4.3763466 -0.11094891 -0.44166315 6.5
4.1289511 -0.10553323 -0.53312528 6.6666665
3.1549075 -0.1328053 -0.56482172 6.5
5.4431772 0.17221338 -0.59611535 10
4.3856492 0.15190791 -0.44744885 10.769231
4.1206717 0.14922523 -0.54659629 10.75
3.1513236 0.13583605 -0.57110405 10.5
5.4376001 0.50437671 -0.64550817 13.75
4.3990593 0.38818407 -0.44612551 14.5
4.1012383 0.39493924 -0.56948113 14.5
3.148299 0.4145413 -0.59123242 14.5
5.441649 -0.09560781 -1.0367211 7
4.9015579 -0.17336603 -0.86208403 6
4.0052915 -0.18726617 -1.109378 6
3.6372883 -0.19212817 -1.1163505 6
3.2135692 -0.15370815 -1.0068918 6.5
5.4410172 0.14525507 -0.99755585 9.5
3.1486299 0.12771963 -0.95633996 10
5.4360018 0.5381847 -1.0160531 13.5
3.1454568 0.45181811 -0.94982922 14
5.4367285 -0.11255622 -1.5967351 7
3.1473057 -0.12183063 -1.2576724 7
5.4375997 0.18183395 -1.4105474 9.666667
3.1463037 0.10865344 -1.3695592 9.5
5.4346066 0.56929123 -1.3645099 13.285714
3.1440964 0.49728703 -1.3800098 13.555555
5.4323201 0.77276677 -1.4216708 15
5.4368715 0.11870269 -1.7542025 9
3.1446006 0.13435222 -1.86101 9.5
5.432251 0.51153296 -1.7668484 12.285714
3.1391633 0.5280447 -1.8715497 13
5.4269261 0.81353694 -1.8123525 14.666667
3.1366873 0.75959188 -1.8745028 15
5.4343643 -0.1329575 -2.2519131 7
3.1461992 -0.15283321 -2.2085876 7
5.4349451 0.13232408 -2.1815634 9
3.1425192 0.09191291 -2.2169652 9
5.4284296 0.52866983 -2.1723766 12
3.1372128 0.46413082 -2.2282434 12
5.4264431 0.8731119 -2.1984076 14.5
3.1343198 0.78203708 -2.2296267 14.5
5.4326606 0.14264341 -2.4891443 9
3.1413746 0.10181646 -2.5000668 9
5.4298487 0.56759006 -2.4761901 12
3.1360731 0.50349706 -2.5104094 12
5.4222903 0.93788838 -2.5100169 14.5
3.1332054 0.84626609 -2.5102277 14.5
3.1366851 0.11464064 -2.8517647 9
3.1345329 0.54977161 -2.8421307 12
3.1292868 0.92497379 -2.8538694 14.5
3.255542 -0.18879978 -3.3515563 7
3.2460334 0.13235988 -3.3342171 9
3.2236443 0.48887932 -3.3469424 11.2
3.2310662 0.86668724 -3.3406444 13.5
3.2273912 1.1221229 -3.3516479 15
4.5085535 -0.23754881 -5.2619834 7
4.0416651 -0.24189316 -5.2483816 7
4.4106569 0.10252057 -5.2640347 8.5
4.4046478 0.55854875 -5.2614689 10.5
3.5567274 -0.26622218 -5.8136945 7
3.5536318 0.11581329 -6.5015697 8.5
3.2493505 0.11274244 -6.4954457 8.5
3.5490246 0.52194983 -6.5118961 10
3.2450104 0.51883441 -6.4971347 10
3.5458391 0.79449958 -6.514667 11
3.2411046 0.79284543 -6.5130072 11
3.5413909 1.2076386 -6.5154481 12.5
3.2374868 1.2053943 -6.5047884 12.5
3.536876 1.6265978 -6.5144682 14
3.2324452 1.6272213 -6.5159302 14
3.5334866 1.9139049 -6.524313 15
3.2288024 1.9149591 -6.5248389 15
5.0542946 0.23398976 6.1073771 8.507
5.0472574 0.49819696 6.0862193 10.007
3.1552787 0.44570816 2.7673645 15.1685
3.1604729 0.24973427 2.2052708 13.996666
5.4663968 0.54303962 2.3388014 15.0275
3.1629393 0.20740204 1.9545114 14.1595
5.4637289 0.36615139 1.0155966 14.048
5.4514508 0.42418987 1.0159677 15.048
3.1491942 0.16333218 0.55252898 13.9465
4.2873926 0.0095305219 -0.43790686 8.5819998
4.5971084 0.10844232 -5.2761765 8.5865002
4.0380511 0.10131355 -5.2795386 8.5889997
4.5944242 0.45147222 -5.2884836 10.0865
4.0333591 0.55579025 -5.2862935 10.589
4.5911856 0.68088865 -5.2846532 11.0865
4.7355423 1.2352856 -6.5467992 12.5865
4.0676193 1.2170339 -6.5310454 12.589
4.7313161 1.6594896 -6.5544443 14.0865
4.0634651 1.6384821 -6.5432463 14.089
4.7278686 1.946906 -6.5547428 15.0865
4.0606914 1.926111 -6.5533977 15.089
3.2750514 -0.09484496 0.30463973 5
4.1872864 -0.060715854 0.44890806 5
3.2843468 -0.10313336 0.48648575 5
4.1868234 -0.028835952 0.44977483 6
3.276516 -0.062429577 0.30083415 6
3.2989402 -0.13465299 -1.6926616 6
3.2770965 -0.067271397 0.52443719 6
3.2955489 -0.11672317 -1.4319397 6
3.2945106 -0.1039177 -1.2408292 6
4.1806226 0.0029914146 0.47227427 7
3.2815027 -0.062728897 -1.0881846 7
3.2801836 -0.030336037 0.29434195 7
3.5454936 -0.093766019 -2.1851912 7
5.5627241 -0.00023796875 -1.094196 7
3.2955408 -0.10038514 -2.1043813 7
3.2751341 -0.029040117 0.52474225 7
3.2902117 -0.072580263 -1.3691397 7
5.5550809 0.015056668 -0.49674046 7
5.5556388 0.034674719 0.65509117 7
4.1834612 0.034669861 0.44532105 8
3.542644 -0.029643849 -2.19046 8
3.2780418 -0.0307869 -1.0918927 8
3.2718892 0.0014328677 0.3025634 8
5.5689678 0.064784378 -1.0991112 8
5.5804873 0.048212484 -2.6671016 8
4.8256788 0.0080115255 -4.018971 8
3.9185545 -0.02575746 -4.0508423 8
3.3063574 -0.036727861 -2.1526701 8
3.2903485 -0.032524243 -1.3673314 8
5.5438533 0.093200423 0.28327832 8
5.5740843 0.089837506 0.10301438 8
4.1845369 0.066904925 0.450111 9
4.4986944 0.072088853 0.22840217 9
3.2777848 0.0013903081 -1.0915345 9
3.273308 0.033309907 0.29884699 9
3.5213356 0.033009179 -2.1499224 9
5.568645 0.12998913 -1.1013149 9
5.5844755 0.14906731 -2.6791165 9
3.9139309 0.10225461 -4.0410252 9
4.826746 0.14055422 -4.0427828 9
3.3032479 0.028362537 -2.1569853 9
3.2753756 0.045348562 0.48964944 9
3.2917786 0.015766833 -1.700778 9
3.2873211 0.004672166 -1.2486703 9
5.5447183 0.15725772 0.28311124 9
5.5645199 0.15183946 0.099533647 9
5.5655975 0.13218667 -0.72448301 9
5.5533895 0.13695098 -0.37789011 9
5.5502887 0.17949706 0.75493515 9
4.1791472 0.10133661 0.47503331 10
4.4971571 0.10362191 0.22727272 10
3.2795408 0.033432037 -1.0886278 10
3.2738113 0.065148585 0.2962577 10
3.5192013 0.096282572 -2.1511278 10
5.5720391 0.19602382 -1.1050867 10
4.8172922 0.27204046 -4.0272121 10
3.9094114 0.23021115 -4.0366774 10
3.3009501 0.093743272 -2.158613 10
3.2905598 0.039413266 -1.2154367 10
3.2874584 0.051372834 -1.4401093 10
5.5586939 0.19301474 -0.72486186 10
5.5532894 0.1922681 -0.90479386 10
4.1795964 0.13507943 0.47850552 11
4.4986153 0.13598071 0.22903368 11
3.5373085 0.16361323 -2.1870842 11
3.2772741 0.065888248 -1.0908114 11
3.2658761 0.09857323 0.30393556 11
4.8133855 0.40537968 -4.0325999 11
3.9050746 0.35972613 -4.0449915 11
5.5718255 0.26232198 -1.1073748 11
5.5826707 0.32189009 -2.2647631 11
3.2970049 0.16004331 -2.1655583 11
3.2824903 0.088482797 -1.3766333 11
3.2764513 0.12313118 0.51121509 11
5.5415411 0.25235021 -0.74839473 11
5.5455332 0.25419393 -0.50182825 11
5.5401306 0.31402296 0.64536655 11
5.5768914 0.37469062 -2.9795711 11
4.1795731 0.16285922 0.44367585 12
4.5042224 0.17001526 0.23480275 12
3.5330992 0.23040842 -2.1999204 12
3.2718773 0.099350743 -1.0969414 12
5.5713887 0.3293063 -1.1095948 12
3.9004941 0.48886034 -4.0395598 12
4.8117313 0.54136348 -4.0467806 12
5.5753026 0.41719157 -2.3169026 12
3.2822399 0.22054081 -2.1186321 12
3.2854781 0.13231091 -1.4040536 12
5.5382643 0.3509385 0.27898464 12
5.5473318 0.31840378 -0.90703273 12
5.5414429 0.3165924 -0.3818239 12
5.5688519 0.48450819 -2.975594 12
3.2836275 0.11203928 -1.2237958 12
5.532938 0.40305036 0.81530523 12
4.1782689 0.1954588 0.44245866 13
4.4977274 0.20113514 0.22890094 13
3.5325286 0.29518768 -2.1915781 13
5.5641508 0.39557037 -1.1089741 13
3.2735751 0.1440852 -1.1861326 13
5.5703382 0.50334263 -2.26213 13
4.8058858 0.676718 -4.0452414 13
3.8962092 0.62323737 -4.0596614 13
3.2847183 0.17423761 -1.40373 13
3.2946143 0.29267058 -2.1614165 13
3.2771449 0.19951195 0.50437272 13
5.5343938 0.46963298 0.74459743 13
5.5470252 0.37879717 -0.75318718 13
5.564095 0.55557114 -2.6794531 13
3.510041 0.35521618 -2.1583772 14
3.26037 0.21715529 0.39417592 14
5.5730677 0.46684486 -1.1152198 14
5.5651741 0.59571099 -2.2619867 14
4.7994747 0.81314695 -4.0417552 14
3.891381 0.75270045 -4.0416088 14
3.2774897 0.35311043 -2.1221976 14
4.1799464 0.2656008 0.45119789 15
3.5067945 0.42336297 -2.1648352 15
3.2619276 0.25283483 0.38962683 15
