# .PCD v0.7 - Point Cloud Data file format
VERSION 0.7
FIELDS x y z intensity
SIZE 4 4 4 4
TYPE F F F F
COUNT 1 1 1 1
WIDTH 1226
HEIGHT 1
VIEWPOINT 0 0 0 1 0 0 0
POINTS 1226
DATA ascii
-0.84922791 0.63440269 -9.4179363 9
-0.52560055 0.61466384 -9.4744186 9
0.34158087 0.65207654 -9.402935 9
0.54652035 0.65317279 -9.4028492 9
1.0551831 0.68107498 -9.3437157 9
1.4442689 0.57488787 -9.4733601 9
1.8279362 0.5961082 -9.4725695 9
2.1894255 0.5565657 -9.5137691 9
2.5003257 0.57587117 -9.5156946 9
-3.3781981 1.1189533 -9.2609634 10.077499
-2.913672 1.0093422 -9.4745979 10
-2.6153505 0.89597946 -9.5333052 10.000751
-0.8605814 1.0165006 -9.48913 10.3
-0.6235618 1.0153618 -9.4864044 10.3
0.23377264 1.0370172 -9.422492 10.0555
0.54267764 1.0527809 -9.3965797 10
1.0102017 1.0285337 -9.4788027 10.375
1.4224893 1.0432069 -9.4732599 10.3
1.8255538 1.0558711 -9.4665737 10.25
2.1607716 1.0010649 -9.5112896 10.249999
2.4978385 0.9400605 -9.512784 10
3.7650213 1.0586588 -9.2368374 10.114
-3.2125165 1.5107325 -9.2763901 11
-2.9188218 1.4155071 -9.4698811 11
-2.6175399 1.3470284 -9.5324068 11.250751
-0.86237049 1.4820648 -9.4857073 11.6
-0.62524968 1.4799182 -9.4831514 11.6
0.22926478 1.4351902 -9.4221201 11.0555
0.53913713 1.4559757 -9.4011421 11
1.020216 1.5154978 -9.4811945 11.75
1.4214832 1.5156703 -9.472373 11.6
1.8245367 1.5203209 -9.4695425 11.5
2.2507253 1.4512603 -9.5049763 11.400001
2.520658 1.4026423 -9.5219488 11.375
3.7628856 1.4677213 -9.2200155 11.114
-3.3814678 1.7715797 -9.2513885 11.577499
-2.925539 1.8258209 -9.4699879 12
-2.5944657 1.8653808 -9.5390129 12.666667
-0.86412048 1.8500974 -9.4836607 12.6
-0.62703979 1.847196 -9.4821196 12.6
0.22427237 1.8382092 -9.4294004 12.0555
0.53575301 1.8596621 -9.3845539 12
1.0194271 1.8782654 -9.4764404 12.75
1.4195273 1.8889446 -9.4670753 12.6
1.8223438 1.9014124 -9.4626131 12.5
2.2275634 1.8940363 -9.5055208 12.6
2.5206673 1.9010384 -9.5271406 12.75
3.7619777 1.8845837 -9.2361736 12.114
4.7686253 1.9013392 -9.23627 12.1115
-3.3859973 2.2159133 -9.2509518 12.577499
-2.9284658 2.2383714 -9.4577923 13
-2.63165 2.2689126 -9.5212259 13.75
-0.84127033 2.2222133 -9.4820175 13.6
-0.57273424 2.2344804 -9.4775362 13.629599
0.22015361 2.2443101 -9.4262667 13.0555
0.53199446 2.2711678 -9.3894157 13
1.0196244 2.2479999 -9.4828892 13.75
1.4187177 2.267905 -9.4669323 13.6
1.8209738 2.288378 -9.4629841 13.5
2.2243164 2.2705207 -9.4963932 13.6
2.5187297 2.2711489 -9.5237083 13.75
3.7597613 2.3004911 -9.2178726 13.114
4.76791 2.3249481 -9.2418976 13.1115
-1.1785285 0.64027184 -9.0882339 9
3.8119936 0.6618309 -9.1841221 9
-1.1829107 1.0397189 -9.0878706 10
3.8101158 1.0698292 -9.1835165 10
-1.1870024 1.4415808 -9.0857811 11
3.8083811 1.4807715 -9.1856661 11
-1.1803768 1.8373975 -9.02635 12
3.8065028 1.8953904 -9.1869135 12
-1.1856444 2.2464781 -9.0301714 13
3.8042035 2.3122797 -9.1752863 13
-0.0034760181 0.14828406 -8.501339 8
0.078732371 0.21241216 -8.4599686 8
-0.89963794 0.60134488 -8.7143612 9.375
-0.056664396 0.45708498 -8.5128927 9.0591669
0.042671941 0.50220358 -8.4562263 9.08325
-0.90050346 1.0392163 -8.7087212 10.75
-0.9010365 1.3632343 -8.7024765 11.75
2.9967833 1.287931 -8.4109535 12
3.7631726 1.2882066 -8.4177361 12.089
-0.90371543 1.7381042 -8.7081871 12.875
2.9965639 1.6075144 -8.403429 13
3.2191703 1.7699442 -8.4159698 13.5
3.7613311 1.7685448 -8.4055347 13.589
-0.90533984 2.1166766 -8.7040596 14
3.1299257 0.028765982 -8.3944321 8
-1.1408918 0.60395861 -8.2037916 9
3.0018077 0.49614593 -8.3783016 9.5
3.2249372 0.49654076 -8.3868942 9.5
-1.1438029 0.98053449 -8.2021055 10
2.9995885 0.96779424 -8.388895 11
3.2232809 0.96687901 -8.3905468 11
3.7644334 0.96891385 -8.3986473 11.089
-1.1457117 1.3589058 -8.1959734 11
3.2218363 1.2843038 -8.3974724 12
-1.143424 1.7367418 -8.168623 12
2.996242 1.9308672 -8.3969612 14
-1.1464837 2.1221333 -8.1662788 13
-1.1168226 0.22279789 -7.6033964 8
4.1269927 0.22967158 -7.9389448 8
-0.89007759 0.54347557 -7.7256432 9.5
3.7196155 0.58055121 -7.9994287 9.1140003
-0.88985473 0.95390874 -7.7237229 11
-0.89019734 1.3708864 -7.7267895 12.5
-0.8901487 1.7942786 -7.7263412 14
5.3013215 1.8398129 -7.6083841 12.6095
5.302906 2.4003849 -7.625104 14.1095
3.41254 0.0056641698 -7.3826489 8
-1.0613984 0.54087836 -7.5021958 9
3.1545069 0.4729338 -7.3841281 9.5
3.3778377 0.47348359 -7.3913255 9.5
-1.0645801 0.99282306 -7.4924588 10.333333
3.1506429 0.94579095 -7.4060836 11
3.3755438 0.94365853 -7.3897843 11
3.9191132 0.9466694 -7.4013658 11.089
-1.0673028 1.4478053 -7.480535 11.666667
3.1481571 1.4243287 -7.409255 12.5
3.3726335 1.4217248 -7.4002028 12.5
3.9164925 1.4257022 -7.4172301 12.589
-1.0696702 1.7956284 -7.4732933 12.666667
3.1462629 1.9084834 -7.404161 14
3.3700988 1.9057865 -7.399919 14
3.9136686 1.9105099 -7.418201 14.089
-1.0723988 2.1478145 -7.4677672 13.666667
-0.89419079 0.28317162 -6.8950763 8.666667
3.7697875 0.02476204 -7.1329269 8.0889997
-2.87503 0.61625409 -6.9495664 9
-0.94552213 0.59571362 -6.897212 9.6999998
3.768223 0.42674914 -7.1399732 9.5889997
-2.8725696 1.0040191 -6.9471889 10
-0.94620103 1.0089785 -6.8910818 11.2
5.6499453 1.0516317 -6.8007174 10.5
-2.8759537 1.3955359 -6.9551549 11
-0.94765866 1.3975523 -6.8913956 12.6
5.651989 1.5615909 -6.8156729 12
-2.8682766 1.7874911 -6.9435868 12
-0.94901943 1.7106564 -6.8864069 13.7
5.6498032 1.9047252 -6.8117952 13
-2.8715954 2.1873693 -6.9514747 13
-1.0357612 2.2851686 -6.880188 14.5
5.6547689 2.2592645 -6.836071 14
3.2695303 -0.22492318 -6.4910207 7
3.4014912 0.11427786 -6.4985075 8.5
-2.8730106 0.60119843 -6.6324286 9
-1.0974689 0.58543634 -6.5314789 9.25
3.3952446 0.65703231 -6.5091763 10.5
5.6394014 0.54589516 -6.7525301 9
-2.8742528 0.97994781 -6.6363854 10
-1.0981934 1.0641196 -6.5167408 10.75
4.363759 1.0594994 -6.4062505 12.082
-2.8680816 1.3595451 -6.6276813 11
-1.0979209 1.4667668 -6.5009217 12
3.3894389 1.2065165 -6.5101185 12.5
4.0676193 1.2170339 -6.5310454 12.589
4.7355423 1.2352856 -6.5467992 12.5865
-2.8669806 1.7433982 -6.6276603 12
-1.0986431 1.792191 -6.4932218 13
3.3829026 1.7706708 -6.5198879 14.5
4.1575303 1.7646662 -6.4994469 14.586666
4.7295923 1.8031979 -6.5545936 14.5865
-2.8724241 2.1341608 -6.6388583 13
-1.0991926 2.120877 -6.4820938 14
-0.94158125 0.19415344 -6.1676049 8.3000002
2.1119556 0.19445609 -6.3638735 8
3.4002249 0.15098761 -6.2176466 8.25
3.7868242 0.06239244 -6.2479477 8.2945004
5.0185103 0.19631007 -6.3503323 8.666667
-2.8748236 0.5873915 -6.3368468 9
-0.94476283 0.62899065 -6.173192 10.1
2.1033764 0.61573815 -6.3486924 9.5
3.4251347 0.56795973 -6.220839 9.75
3.7817945 0.45638567 -6.2489567 9.7945004
5.0303459 0.54527986 -6.3601408 10
5.6259117 0.67151302 -6.1901045 9.5
-2.8727927 0.95666122 -6.335196 10
-0.9097293 0.98854518 -6.206986 11.75
2.0954757 1.0390193 -6.337008 11
3.4203722 0.98752022 -6.2168303 11.25
3.6888356 0.9683162 -6.3733883 11.79225
5.0219097 0.94071132 -6.3625555 11.5
5.6294322 1.1458024 -6.2091045 11
-2.8712778 1.3282485 -6.3344102 11
-0.91088724 1.3486886 -6.2049227 13.25
2.089571 1.4693326 -6.3356915 12.5
3.4159174 1.3363402 -6.2166815 12.5
3.6820803 1.2983458 -6.3787861 13.04225
4.3565941 1.3221134 -6.3904824 13.082
5.0149159 1.3426988 -6.3745718 13
5.6272535 1.4640182 -6.2050619 12
-2.8625164 1.7007614 -6.3216405 12
-0.95609272 1.8113621 -6.1407537 14
2.0819197 1.9048855 -6.3260407 14
3.410841 1.7694907 -6.2197042 14
3.673785 1.7020199 -6.381773 14.54225
5.0060005 1.7519149 -6.3761363 14.5
5.6257944 1.7861514 -6.2037334 13
-2.8667765 2.0814331 -6.3304524 13
-0.96551168 2.1083033 -6.166122 15
2.0802231 2.2058787 -6.3372025 15
3.4235654 2.312937 -6.0559721 15
5.6332664 2.1208358 -6.23557 14
-7.2994986 -0.16698468 -5.6668119 8
-7.0233335 -0.14888163 -5.7763753 8.1900005
-6.5826402 -0.19638139 -5.7770085 7.75
-6.2097344 -0.18096818 -5.7555761 7.8571429
-5.8372598 -0.14524435 -5.7367873 8
-5.4972162 -0.13647936 -5.7251701 8
-5.0558491 -0.2908431 -5.66715 7
-3.2155566 -0.35169142 -5.6991811 7
-3.0572386 -0.019386079 -5.6978426 8.5
-2.5993414 -0.2023861 -5.6579018 7.4444442
-2.1278358 -0.26372603 -5.6269808 7
3.4421101 -0.26246089 -5.8959074 7
4.9176326 -0.22503269 -5.8973646 7
-7.2801051 0.19257419 -5.707778 9.5
-7.0853958 0.22172184 -5.7782226 10.24
-6.5868831 0.2604191 -5.7935128 10.071428
-6.1908031 0.34989327 -5.757771 11
-5.844759 0.34616157 -5.7480812 10.833333
-5.3850718 0.25270718 -5.709796 10.25
-5.0668736 0.12155724 -5.6923499 9.375
-4.6605558 0.10773058 -5.6292634 9.5
-2.8629208 0.075739413 -5.6597247 8.5
-2.4859669 0.088327006 -5.6435361 8.5
-2.1769211 0.11483411 -5.640626 8.3999996
-1.8038877 0.020411976 -5.6168442 8.5
-0.91713166 0.20398906 -5.6914444 8.5
1.9492903 0.18746726 -5.7641888 8
2.1096005 0.31308666 -5.8153338 8.5
5.6047101 0.19063888 -5.6498671 8
-7.2716384 0.66391808 -5.750433 11.833333
-7.0734115 0.61788225 -5.7920208 12.463637
-6.6074786 0.64769888 -5.7991958 12.166667
-6.2071185 0.73375356 -5.7653375 13.1875
-5.8515401 0.76234919 -5.7577896 13.166667
-5.4175277 0.67221218 -5.7232018 12.708334
-5.0092669 0.60922033 -5.6948767 12.26
-4.6666255 0.42227569 -5.6498122 11.5
-3.2106261 0.74719399 -5.7266831 12
-2.981636 0.53567338 -5.6950736 10.9375
-2.5668302 0.48912206 -5.6622138 10.583334
-2.221839 0.47943044 -5.6430116 10.5
-1.7864988 0.49285343 -5.6166768 10.5
-0.94805354 0.62064314 -5.7328968 10.3
1.9462931 0.61174703 -5.7664223 9.5
2.1036892 0.70752472 -5.8117385 10
5.6060486 0.63255304 -5.6597099 9.5
-7.255127 1.0135871 -5.7563348 13.166667
-7.0924692 1.0339923 -5.8060784 14.125
-6.6293564 1.0119712 -5.8087173 13.428572
-6.1705027 1.0675558 -5.795146 14
-5.8205357 1.1666071 -5.7758498 14.833333
-5.4514995 0.99509501 -5.7367258 14.375
-5.0526648 1.0638186 -5.7265968 14.3
-4.6831951 0.82177687 -5.6524096 14
-3.2226691 1.0851082 -5.7329965 13.5
-2.9229946 1.0472032 -5.6898332 13.055556
-2.5624833 0.96338701 -5.6981115 12.166667
-2.2596533 0.94748729 -5.6633458 12.277778
-1.7974615 0.90889996 -5.620151 12.546166
-0.97140527 1.0269276 -5.7699847 11.916667
1.9430761 1.0384319 -5.7644329 11
2.0989895 1.1068212 -5.8140311 11.5
5.6168799 1.0830451 -5.7028742 11
-7.2670555 1.3997157 -5.7580795 14.5
-7.1174221 1.5245705 -5.8236165 15
-6.5992618 1.4182793 -5.8101883 14.666667
-6.3394141 1.2031512 -5.7867012 14.666667
-3.2338943 1.4286364 -5.7354207 15
-2.9505219 1.4719299 -5.7002506 15
-2.5390718 1.3968077 -5.6868949 14.111111
-2.1960244 1.3823817 -5.6656294 13.619048
-1.8000832 1.3663046 -5.6300788 14.509624
-0.96964657 1.3966711 -5.7420001 13.428572
1.9436362 1.476536 -5.7886539 12.5
2.0926032 1.5105491 -5.8087983 13
5.6104536 1.3811929 -5.6838789 12
-2.5846448 1.7643209 -5.7891893 12.5
-2.2254217 1.9079713 -5.7445388 13
-1.0837603 1.7608342 -5.9470391 13.25
1.9405638 1.9194175 -5.7910123 14
2.0905585 1.7867724 -5.8159604 14
5.6109705 1.8413465 -5.691062 13.5
-2.5722923 2.3556883 -5.8066363 14.333333
-2.2305846 2.3864589 -5.7455363 14.5
-1.0891335 2.2337551 -5.9512224 14.75
1.9388825 2.2208543 -5.7912741 15
2.0817852 2.0592403 -5.791801 15
5.6127825 2.3126657 -5.7029104 15
-7.2885923 -0.11449043 -5.3394713 8.2166672
-7.0031257 -0.1425257 -5.3890576 8.0526314
-6.6015625 -0.1400947 -5.4039145 7.4181819
-6.1463709 -0.11960427 -5.3716464 7.2583327
-5.8256001 -0.089726992 -5.3451824 7.234127
-5.4311008 -0.097371824 -5.3230019 6.8138885
-5.0070395 -0.077726685 -5.2985725 6.8472219
-4.5681162 -0.071170397 -5.2782125 6.6992426
-4.2566566 -0.088090964 -5.2578864 6.625
-3.7875092 -0.11467203 -5.2916946 7
-3.3780861 -0.08555539 -5.2246056 7
-0.47666556 -0.18785965 -5.3662329 7.375
-0.22939169 -0.1947699 -5.4543924 7.375
0.14570291 -0.15758379 -5.368722 7.3636432
0.52499431 -0.13707246 -5.263885 7.6076965
0.88675237 -0.17763215 -5.3123126 7.125
1.3336658 -0.17268339 -5.318213 7.1500001
1.8017683 -0.15303977 -5.3549061 7
2.2014339 -0.21899141 -5.3028531 7
2.6622741 -0.21178098 -5.2747164 7
3.39255 -0.23464501 -5.3835077 7
3.8549953 -0.2258465 -5.3911786 7
4.0416651 -0.24189316 -5.2483816 7
4.5085535 -0.23754881 -5.2619834 7
5.3300929 -0.1728802 -5.3848543 7
-7.2928386 0.20478202 -5.3811941 10.664286
-7.0671544 0.18427703 -5.4342451 10.827977
-6.6098294 0.19051054 -5.3763127 11.719891
-6.1848741 0.19600609 -5.3778267 11.342658
-5.8211131 0.21607639 -5.353271 11.474761
-5.3869424 0.19700053 -5.3113537 11.412936
-4.9642658 0.21765335 -5.2986627 11.470488
-4.5860438 0.21066085 -5.2648077 10.992759
-4.2002583 0.19027579 -5.2351437 10.056705
-3.8227162 0.18014053 -5.2510309 8.96875
-3.3882296 0.23353224 -5.3623662 8.40625
-3.0021942 0.21950084 -5.3163991 8.363636
-2.613044 0.34240791 -5.4006062 8.625
-2.2833712 0.068417907 -5.3817677 7
-1.7899508 0.29316947 -5.4159989 8.833333
-0.93974006 0.18285212 -5.3899636 8.5
-0.57558322 0.3593519 -5.3815193 10.5
-0.24908267 0.12307721 -5.4138279 9.5614033
0.16073406 0.12625898 -5.3782396 10.015152
0.59268898 0.16746509 -5.2590146 11.224489
0.88272297 0.18125942 -5.2986331 10.716524
1.3316494 0.10025889 -5.303968 9.833334
1.7752695 0.17596826 -5.2674079 9.8857145
2.1718831 0.096457332 -5.3202543 8.6000004
2.5424435 0.10208967 -5.2746515 8.666667
3.036238 0.10224485 -5.2462764 8.625
3.3601966 0.079717353 -5.24475 8.5
3.7457037 0.048411444 -5.287055 8.5
4.0380511 0.10131355 -5.2795386 8.5889997
4.5038824 0.10548145 -5.2701054 8.5432501
5.3169904 0.12151825 -5.3070574 8.5
5.6021476 0.12248061 -5.2247691 8.5
-7.2911572 0.58681244 -5.4493866 12.208333
-7.0628929 0.56987518 -5.4489818 13.745341
-6.6618381 0.53965425 -5.482316 13.281548
-6.2254801 0.54020011 -5.4433618 13.219781
-5.821044 0.50942731 -5.4026685 13.934494
-5.4356632 0.49824381 -5.374754 14.225216
-4.9840393 0.50754923 -5.3284793 13.985801
-4.5946341 0.53176278 -5.2927971 14.038663
-4.1902046 0.58797592 -5.2724233 13.885282
-3.8739102 0.54738683 -5.2509022 13.593461
-3.3993599 0.67260438 -5.3532319 11.708333
-2.9825542 0.64051259 -5.321579 11.206349
-2.58287 0.66127568 -5.3175397 11.004166
-2.1566691 0.59591603 -5.3917866 9.583334
-1.8961357 0.66449523 -5.332695 10.666667
-1.2173169 0.43948278 -5.3277574 8.666667
-1.003913 0.58139962 -5.5175271 10.25
-0.47231582 0.6243844 -5.3108344 11.027779
-0.21675491 0.5172807 -5.3628416 12.022728
0.073747091 0.52213842 -5.4083772 11.665
0.62355226 0.52222639 -5.3249393 13.216893
0.91860217 0.56566751 -5.3940768 12.547168
1.3980521 0.52652127 -5.3445158 12.8125
1.7787873 0.50169867 -5.2661328 12.678571
2.2362783 0.5396505 -5.2548118 12.833333
2.5323982 0.5006156 -5.2880836 10.833333
3.0423257 0.50763124 -5.2534971 10.833333
3.3440144 0.49467117 -5.255074 10.666666
3.7309644 0.47967425 -5.292243 11
4.0333591 0.55579025 -5.2862935 10.589
4.530086 0.56363654 -5.2782021 10.557667
5.4046211 0.50383067 -5.2906857 10.5
-7.3133621 0.98401797 -5.4531217 13.9
-7.0514078 0.90670788 -5.4857354 14.08
-6.5722046 1.0514367 -5.4493551 14.25
-6.2206545 0.8951869 -5.4330158 14.25
-5.8119874 0.86938292 -5.4014854 14.833333
-5.432786 0.88102639 -5.3676076 14.333333
-5.0185862 0.89533913 -5.3390756 15
-4.5416722 0.8406682 -5.3920593 15
-4.0830951 0.9669708 -5.3817563 14.583334
-3.8485987 0.89839756 -5.31392 14.791667
-3.3653352 1.0418689 -5.377214 14.242858
-2.9677205 1.0125096 -5.3305616 13.945834
-2.5939713 1.0592968 -5.3504319 13.6
-2.1532929 1.1199344 -5.3077106 13.05
-1.828508 1.0881982 -5.3202233 13.725166
-1.2159638 0.80477053 -5.3427939 10.5
-0.98362178 0.96558851 -5.4416118 12.136364
-0.49264541 0.96255237 -5.3642383 12.6
-0.18662369 0.93648058 -5.3608036 13.315476
0.10901636 0.94181061 -5.404829 14.166667
0.47701168 0.93162864 -5.3643522 14.382125
0.89507467 0.99286419 -5.4236817 14.288
1.4159634 0.84718233 -5.4040785 13.5
1.9441521 1.0933775 -5.2675705 11.5
2.1688926 0.87831551 -5.3494191 12.5
2.5353544 0.90111667 -5.3033409 12.966667
3.0196757 0.99486989 -5.2644777 13.700001
3.355933 1.0102316 -5.2454014 13.555556
3.7173347 1.0897206 -5.2666802 13.833333
5.4466658 0.95966733 -5.2650948 12.333333
-7.3127222 1.3157108 -5.4285612 14.708333
-6.9212132 1.2443302 -5.4773207 15
-3.3526955 1.386604 -5.5061259 13.75
-3.0290978 1.390268 -5.4867902 13.833333
-2.6691289 1.4215546 -5.5002413 15
-2.1695728 1.4366882 -5.3179588 14.666666
-1.7903354 1.406238 -5.4472418 15
-1.4701221 1.363755 -5.5090637 14.256
-1.0315146 1.3591759 -5.455267 14.061182
-0.51565897 1.2806469 -5.3342566 13
-0.19540992 1.3212857 -5.2529063 12
0.13912107 1.2481369 -5.3999205 13.25
0.65974647 1.2592945 -5.2067509 11.5
0.93300962 1.3806287 -5.2976408 12.666667
1.4457867 1.2215434 -5.4289656 14.5
1.9421163 1.4962814 -5.2777405 13
2.1598728 1.2919338 -5.3629427 14.5
2.5593481 1.3410838 -5.3307877 14.5
3.073719 1.3806067 -5.2752805 14.5
3.4221642 1.3471335 -5.237854 14
3.7406499 1.394258 -5.2065592 14
4.108089 1.2140309 -5.3428555 15.089
4.53092 1.2341893 -5.3195658 15.0865
4.8928576 1.264845 -5.3236103 15.0845
5.4372935 1.4043735 -5.3148003 14
-3.3668494 1.7688234 -5.4912372 15
-3.00524 1.7489845 -5.4736738 15
-2.6396093 1.6129643 -5.443758 14.45
-2.0092878 1.7197438 -5.413362 15
-1.7788846 1.6099429 -5.408473 14.664
-1.3066049 1.6204634 -5.3821516 14.580999
-1.0230204 1.7607734 -5.5209808 14.25
-0.51323599 1.785539 -5.2747536 14.125
-0.19313383 1.8086814 -5.2497921 14.166667
0.26388717 1.7434955 -5.2557936 13.5
0.62476665 1.7507974 -5.2187204 13.5
1.9384456 1.7667474 -5.2683182 14
2.0918946 1.8152614 -5.2045474 14.666667
3.5740747 1.6041623 -5.2337208 15
3.7349727 1.6311321 -5.2136893 15
5.5990009 1.8917501 -5.2366142 14
-1.0735598 2.1840992 -5.4615202 15
-0.25239703 2.116554 -5.3140688 15
0.26195788 2.119771 -5.2605247 15
0.62102681 2.1259999 -5.213676 15
0.9629029 2.0569184 -5.2113013 13.6
1.9367702 2.0451701 -5.2734318 15
5.5999026 2.1909947 -5.2428503 15
0.97205997 2.484442 -5.2188859 15
-7.3038735 -0.22988762 -4.9727569 7.0833335
-7.1009059 -0.17319728 -5.0268054 7.3999996
-6.632906 -0.20606171 -4.9522738 6
-6.2735801 -0.20168778 -4.9453101 5.5
-5.740252 -0.15832423 -5.0835075 5.8333335
-5.2573814 -0.1246933 -5.1961155 6.1428571
-4.9059167 -0.077242032 -4.9182401 6.0846548
-4.6438017 -0.08766225 -4.9619837 4.9375
-4.2145643 -0.022207748 -5.1730366 5.6904764
-3.791539 -0.036801718 -5.0130005 5.4375
-3.4382095 -0.052864593 -4.9973397 5.8333335
-2.7781444 -0.065471031 -5.1992474 7
-2.141746 -0.044456393 -5.1658916 7
-1.6692123 -0.020798355 -4.9058194 7
-0.89925539 -0.16755466 -5.1203213 7
-0.54726267 -0.03484394 -5.0108905 8.5356665
-0.25711823 -0.19438332 -5.0177412 6.75
0.2280519 -0.066473164 -5.1695743 8
0.58158243 -0.21837945 -5.037828 6.5999999
1.0104573 -0.16337362 -5.0980721 7.0499997
1.3892406 -0.14296007 -5.1296282 7.1599998
1.7867495 -0.1325625 -5.0727015 7.0846152
2.2177372 -0.12489508 -5.0656438 7.2890444
2.6263325 -0.1232845 -5.0648346 7.0615382
3.0282199 -0.10485392 -5.0294247 7.3012824
3.4050677 -0.14644228 -5.0056248 6.6000004
3.7951581 -0.13790296 -5.0003538 6.7999997
4.2255101 -0.15224664 -4.999238 6.8916664
5.6349859 -0.10164528 -4.8191519 7
-7.3099265 0.14943686 -4.9910417 9.9859533
-7.1444197 0.21405949 -4.9652028 12.026707
-4.8837571 0.052214354 -4.9084229 8.4442701
-4.7719412 0.090110622 -4.921946 9.2156668
-4.1519957 0.15823966 -5.1804719 9.7333326
-3.7773206 0.21032619 -5.1631055 10.875589
-3.4020019 0.18817027 -5.1408238 9.6200991
-3.0336986 0.23526016 -5.11693 10.087613
-2.616312 0.23342468 -5.0920658 9.3051863
-2.2222841 0.22117168 -5.056953 8.3095694
-1.8092525 0.22873744 -5.0230322 8.3347836
-1.4450305 0.26468128 -4.9885511 8.4789572
-1.0228255 0.21927109 -5.0577288 8.227273
-0.43468326 0.098297648 -5.0575829 9.8714285
-0.38744271 0.15483184 -5.1375623 10.897435
0.14773719 0.15394495 -5.1771898 8.666667
0.54392624 0.039179325 -5.1592693 8.8999996
1.1391016 0.17504893 -5.1433372 10.838384
1.4051083 0.15873797 -5.1440606 10.992517
1.8144244 0.16222799 -5.1064644 11.334446
2.2071781 0.19199538 -5.0807948 11.36162
2.6223543 0.18075036 -5.0748887 11.528865
2.9999893 0.15894996 -5.0291862 11.060477
3.4156671 0.20518793 -5.0250001 11.524849
3.8044734 0.17902574 -5.0137768 10.571649
4.1985383 0.18333457 -4.9764209 10.262187
4.4302044 0.13735697 -4.9717617 9
5.4677105 0.1659115 -5.0134215 8.5
5.6021218 0.11921304 -4.9197655 8.5
-7.3253593 0.50606161 -5.0163498 11.375
-7.1773477 0.62850058 -4.9641428 14.2
-3.8612132 0.47372669 -5.1807485 14.5
-3.398946 0.53643072 -5.1549482 13.985692
-3.0083711 0.530442 -5.1264186 13.833333
-2.5754602 0.54944253 -5.1044135 13.901361
-2.1971786 0.60377294 -5.0601211 13.359712
-1.8485794 0.55719078 -5.0764866 12.859934
-1.4509517 0.57303846 -5.025537 12.319652
-0.9487192 0.57452637 -5.0443592 10.378599
-0.56549031 0.50800943 -4.9914193 11.829546
-0.39513713 0.43269163 -5.1586494 13.85
0.15290256 0.55692506 -5.1901116 11.2
0.63430279 0.58479702 -5.1763 12.542685
0.92651242 0.54213995 -5.1368375 10.660494
1.3862503 0.553343 -5.1276355 12.325595
1.8061993 0.55882001 -5.065516 12.058042
2.2056589 0.55172181 -5.0714531 12.004938
2.6335251 0.52399945 -5.0906858 12.950618
3.020777 0.56775028 -5.0244341 12.052777
3.3835011 0.55874461 -5.0570855 13.01894
3.8190939 0.53647316 -5.0365491 12.249681
4.2480764 0.57409233 -4.9959068 12.20625
4.4478645 0.5395211 -4.9874845 12.5
5.5009108 0.57921416 -4.9938784 10.833333
-7.350441 0.92732191 -5.0489073 13.85
-7.1965995 0.99540365 -5.1372089 15
-2.8933458 0.89054829 -5.1605625 15
-2.5686467 0.96271849 -5.1533718 14.833334
-2.0540507 1.0649608 -5.130662 14.5
-1.7687155 0.93373376 -5.1289096 14.1
-1.4231745 0.98118305 -4.9337115 13.524692
-0.9533788 0.98274392 -5.0203204 13.049289
-0.64398342 0.94857597 -5.033886 13.901932
0.14067467 1.0004743 -5.1731791 10.666667
0.67068684 0.99139172 -5.1521435 10.5
0.92290652 0.93146211 -5.147016 10.1
1.37047 0.91364717 -5.112402 11.291667
1.839926 0.95717347 -5.0202241 12.047618
2.2064404 0.93092585 -5.0177093 11.1
2.6152191 0.91493058 -4.9501762 11
3.0006886 0.92455763 -4.9066072 11.083333
3.4426556 0.89461464 -4.8951144 11.333333
3.781738 0.87300223 -5.047821 13.333334
4.2172995 0.95053631 -5.0031881 13.434524
4.5912738 1.0172737 -5.0084529 14.37818
4.9290009 1.0457019 -5.0140109 13.66275
5.4522133 0.99088925 -4.9291358 12.735499
-7.3653221 1.220549 -5.0175576 14.5
-1.7021961 1.3562865 -5.1924596 14.666667
-1.2238088 1.4244627 -5.1353207 14.75
-0.93833429 1.4015095 -5.0993185 14.016665
-0.75024939 1.262867 -4.8838811 14.5455
0.21519244 1.3310819 -5.1735907 12.166666
0.62972498 1.3069618 -5.1211524 12
1.0272173 1.2960401 -5.1249266 11.75
1.3431515 1.3749563 -5.1120238 11.625
1.7903317 1.298601 -5.0531259 11.388889
2.2026629 1.3436232 -5.0154872 11.833333
2.6280212 1.3413987 -4.9629588 11.25
2.9877629 1.3390365 -4.9076796 12
3.3663509 1.3342981 -4.844768 11.166667
3.7560482 1.2626057 -5.0233769 13
4.1840096 1.2995965 -5.0069818 13.233335
4.4599013 1.3872685 -5.1391826 13.5
5.0427141 1.4191417 -5.0597138 14.664
5.3764362 1.3351912 -4.982038 14.167999
5.7949924 1.4618324 -4.9928083 14.16175
-1.0254163 1.8430694 -5.0549226 14.5
0.19967037 1.8014542 -5.1773515 14.266667
0.62074542 1.8348067 -5.1349897 14.333334
0.99404955 1.6936598 -5.136095 13.416666
1.3422993 1.710042 -5.1000366 13.416666
1.7748698 1.6654495 -5.0581031 12.833333
2.2314627 1.6965421 -4.9993067 12.833333
2.6779001 1.7185946 -4.949636 12.777778
3.0642037 1.7857015 -4.8833394 13
3.4009533 1.7058512 -4.8534813 12.5
3.8369291 1.6966399 -4.8731031 12.5
4.1269679 1.7333523 -4.913815 12.546333
4.4554434 1.7662493 -5.155489 15
5.1552114 1.7598524 -4.9803672 12.1365
5.4208088 1.8023124 -5.0044785 13.896333
5.7873917 1.6998907 -4.9982386 15.16175
-1.0612 2.1560459 -5.0862055 15
0.97460747 2.0744138 -5.1405349 15
1.3558875 2.0381212 -5.1229005 14.333333
1.7835364 2.0664485 -5.0666947 14.333333
2.2429011 2.1059048 -5.0112362 14.333333
2.6018758 2.1362021 -4.9567742 14.333333
2.9933522 2.1670864 -4.9320822 14.333333
3.4279585 2.1531718 -4.8771992 14.125
3.8419716 2.1249695 -4.889657 14
4.1023536 2.1565812 -4.8590546 14
5.1497278 2.2189183 -5.0012112 13.6365
5.5082436 2.1167057 -4.9945364 14.505751
1.3155669 2.4989398 -5.1691136 15
1.7279667 2.5183973 -5.0957923 15
2.1176972 2.5433173 -5.0323696 15
2.515779 2.5744452 -4.9721103 15
2.8901868 2.607491 -4.912056 15
3.2733827 2.4827054 -4.8410769 14.5
3.8335283 2.4118736 -4.884264 15
4.1037602 2.4525936 -4.8672543 15
5.1429205 2.6880314 -5.021544 15.1365
-7.3194838 -0.12464996 -4.6139498 8.0650005
-7.1190095 -0.156131 -4.615469 7.4632573
-6.6053133 -0.26473489 -4.6555061 5.5
-6.234004 -0.23131628 -4.6344566 5.375
-5.7692666 -0.21672185 -4.6001544 5
-5.3692126 -0.15356542 -4.5926476 4.5833335
-5.028223 -0.11254307 -4.5318203 4.6666665
-4.5829277 -0.11894961 -4.655839 5.0999999
-4.2395315 -0.069323882 -4.6144805 5
-3.3802645 -0.040291559 -4.5274415 5
-1.7127758 -0.14499624 -4.5925026 7
-1.2951353 -0.19694079 -4.5962443 7
-0.89482641 -0.21566297 -4.6343713 7
-0.4984284 -0.15963538 -4.5871921 7.3285713
-0.13072324 -0.27562588 -4.661334 6
0.24280547 -0.13107613 -4.5207562 7.5833335
0.67427403 -0.12158409 -4.4933648 7.5729165
0.80757952 -0.092260197 -4.573411 7
1.4435343 -0.18450059 -4.603395 6
1.8500603 -0.13382119 -4.6501613 6.3333335
2.2095585 -0.21908595 -4.6362166 4.6666665
2.7212448 -0.20619753 -4.4294028 5
2.9118817 -0.19693601 -4.667738 4.6666665
3.2510884 -0.22918996 -4.576498 3.8
3.7453535 -0.15724945 -4.527842 5.6666665
4.0901337 -0.075075053 -4.6205435 7.3099999
5.3863697 -0.20845014 -4.4825449 7
5.608479 -0.12492434 -4.6337099 7
-7.303915 0.23255347 -4.610498 11.752147
-7.1703939 0.15035249 -4.5817957 11.552748
-3.3149664 0.036123112 -4.497725 5
-2.9816303 0.064666957 -4.540585 5.6666665
-2.5232787 0.036406189 -4.586422 5
-2.1745129 0.0889972 -4.6226969 4.5
-1.7121942 0.26538831 -4.5868244 8.3448277
-1.4471626 0.27609703 -4.5936208 8.6742887
-0.96060485 0.23965919 -4.6035571 8.4857149
-0.46343645 0.15925543 -4.6001 11.070027
0.28201905 0.18439192 -4.4560032 11.185136
0.64976299 0.16793832 -4.4931817 11.492995
1.9680963 0.28187481 -4.6948042 8.5
2.0802696 0.26825273 -4.5488544 8.5
2.6064653 0.19672416 -4.5769148 7
3.3743486 0.24476664 -4.701436 7
3.603852 0.26605314 -4.6941385 7
4.0884171 0.19374666 -4.5847187 10.632056
5.4873428 0.16002321 -4.6134424 8.5
5.6505504 0.19391587 -4.7638493 9
-7.2974367 0.64830673 -4.5975657 13.015386
-7.1827965 0.51140904 -4.7919579 13
-1.690147 0.56982768 -4.5759168 12.074417
-1.446463 0.61185539 -4.5414672 11.182905
-0.94977075 0.60375166 -4.5774922 11.785825
-0.50495309 0.50341672 -4.5662184 13.549179
0.66020811 0.42147988 -4.6180024 11.016
1.962671 0.64210999 -4.6797237 10
2.0561051 0.6747852 -4.5327463 10.25
3.3931003 0.6162008 -4.7921553 8.5
3.8291004 0.62756807 -4.6087642 8.6328335
4.1049938 0.568968 -4.6230826 12.490002
5.5041032 0.57821167 -4.5679789 10.375
5.6407661 0.56274551 -4.7424879 11.8
-7.3627467 1.0325655 -4.6138358 14.580953
-1.6460077 0.96416891 -4.5832787 12.909091
-1.4602122 0.95989275 -4.5584874 13.685276
-0.95050317 0.9531607 -4.6219397 12.890477
-0.58626509 0.93775541 -4.5479207 14.382151
1.9627936 1.0105398 -4.7005911 11.5
2.0552096 1.0292082 -4.5428658 11.75
3.3271832 0.92221344 -4.794548 9.5
3.8238573 0.97375345 -4.6612191 9.7997503
4.1305094 1.038087 -4.7199855 10
5.4962111 1.0278723 -4.5305948 13.275
5.7202444 1.0497805 -4.5302238 13.82975
-7.4261408 1.2098286 -4.6618557 14.5
-1.6833081 1.3763779 -4.6192932 14.125
-1.3886101 1.3876876 -4.4748111 15.0445
-0.95228928 1.2841873 -4.6391029 14.266665
-0.74604607 1.5590781 -4.5832276 14.564
1.9788654 1.4488311 -4.6033792 13.25
2.101531 1.382663 -4.5625825 13.5
3.5847569 1.3985033 -4.7679029 11
3.8509364 1.3782177 -4.6953869 11.15975
4.1186872 1.4374715 -4.7174807 11.5
5.4505205 1.4140638 -4.5675397 13.791667
5.8484998 1.4156795 -4.5351419 14.65825
-1.017942 1.7430716 -4.6542492 14.5
1.9827405 1.8109752 -4.5640631 14.666667
2.0956473 1.7300762 -4.5570073 15
3.8532925 1.7599083 -4.7438312 12.333333
4.1201038 1.8446208 -4.7298884 13
5.5706043 1.8422948 -4.4308329 14.5
5.801868 1.6438775 -4.4299135 15.1595
-1.0518216 2.0601945 -4.7209482 15
3.875644 2.2112098 -4.7491045 13.761904
4.1129169 2.2589388 -4.7329288 14.5
3.6196942 2.466094 -4.7973328 14.333333
-7.3011832 -0.17181253 -4.1770949 7.4199996
-7.162415 -0.14345793 -4.2259655 7.7125001
-6.6333823 -0.24875209 -4.1483889 4.25
-6.2516179 -0.24023569 -4.2667131 4.1666665
-5.827642 -0.18301447 -4.2356548 4.5
-5.3998098 -0.16362807 -4.2689309 5
-5.0327854 -0.16449645 -4.2629781 6
-4.6013322 -0.080938697 -4.1982713 5
-4.2399521 -0.092844084 -4.1614838 5
-3.7781768 -0.049797669 -4.3153143 4
-3.3010592 -0.043265287 -4.1875095 5.5
-1.3231906 -0.10576263 -4.0255089 7
-0.98560631 -0.10690063 -4.0816679 7
-0.52417433 -0.15556945 -4.1628118 7.2952375
-0.28171241 -0.098635197 -4.3926125 7
0.33267912 -0.17086375 -4.2836256 6.6666665
0.56757647 -0.10131115 -4.2961154 7.9263463
1.0572052 -0.22235544 -4.2208157 5.5
1.2756165 -0.22607982 -4.2832861 5.3333335
1.8594189 -0.21669599 -4.1915159 5
2.1817756 -0.20238629 -4.3225551 6
2.4956408 -0.20812082 -4.1425533 5.5
3.0176523 -0.18239062 -4.2555156 5.8888888
3.4138446 -0.199975 -4.1845875 3.75
3.9261279 -0.083726242 -4.1039925 6.8000002
4.0524917 -0.090054654 -4.1708255 7.0619044
4.5334396 -0.1335046 -4.0370378 7
5.4369903 -0.11315513 -4.0912447 6.6666665
5.6916089 -0.039033294 -4.1739273 7
-7.2892742 0.15229404 -4.1788492 11.828811
-7.1916223 0.064549088 -4.2735457 10.74
-3.4688292 0.03235583 -4.2716799 5
-3.1810443 0.00059440732 -4.0555859 4
-2.6665864 0.044466779 -4.164402 4.5
-2.2140326 0.065858051 -4.2458029 5.625
-1.7021862 0.24656031 -4.2763557 8.0166664
-1.4699365 0.30554855 -4.2269273 8.7163572
-0.96297556 0.19868599 -4.1272941 7.9060607
-0.50880033 0.19102632 -4.2067657 11.713284
0.34173718 0.19968152 -4.3514557 13.083333
0.56494892 0.20645936 -4.2924294 11.824599
1.9826474 0.26137969 -4.2014322 8.5
2.0973861 0.22028185 -4.2108498 8.5
3.0924754 0.094353341 -4.2974482 8.5
3.3074713 0.093420051 -4.2507467 8.5
3.8845215 0.23684292 -4.1163731 9.25
4.0370598 0.19370227 -4.1468835 11.895314
4.653224 0.13258545 -4.0367274 9
4.8232388 0.14020206 -4.0296555 9
5.4603815 0.1726338 -4.2268867 8.625
5.6712699 0.15367757 -4.1977801 8.8974352
-7.3265743 0.54005522 -4.1845045 12.560532
-1.6688424 0.5249064 -4.3257508 12.531613
-1.4626808 0.56912374 -4.2546959 12.083255
-0.94073111 0.61273873 -4.1675992 11.645713
-0.56750697 0.53548723 -4.2241096 12.948611
-0.11552298 0.68938965 -4.3560534 9.6549997
0.32231274 0.60360676 -4.2334766 9.1593332
0.58416468 0.46374652 -4.2813082 11.392499
1.9788775 0.71039921 -4.2014627 10.5
2.0945687 0.6253745 -4.2149539 10.666667
3.0887485 0.5155133 -4.3137617 10.75
3.3051553 0.50003439 -4.2561646 10.5
3.8960283 0.62159938 -4.0469432 13
4.0935636 0.58275145 -4.1652851 13.010119
4.5968351 0.61608583 -4.0430031 12.666667
4.8103337 0.54115373 -4.0415406 12
5.4200511 0.55163032 -4.1711159 11.099999
5.6507215 0.59405911 -4.2576776 12.803572
-7.4028311 0.94278729 -4.1514931 13.955357
-1.4785917 0.91466939 -4.2521262 13.772736
-0.94995111 0.99687594 -4.1413398 13.566883
-0.59752202 0.91128767 -4.1993113 14.625
0.32116956 0.82032096 -4.2296748 10.173
1.9791431 1.0547388 -4.2199707 12
2.0913994 1.0695089 -4.219214 13
3.0869036 0.9259854 -4.3193164 12.916666
3.3022678 0.9137857 -4.2676263 12.5
4.7719431 0.81080532 -4.0427265 14
5.4148865 0.94651651 -4.1742973 13.344444
5.6225243 0.86571217 -4.2418466 14.833334
-7.4695344 1.2617438 -4.2292323 14.75
-0.95516968 1.3498117 -4.1522126 14.345238
-0.76803851 1.2303553 -4.2714887 14.5865
1.9761732 1.403352 -4.2197399 13.5
2.0910871 1.3983737 -4.2282987 14.666667
3.0862694 1.2899573 -4.3159776 14.75
3.3003199 1.3358239 -4.2681355 14.5
5.337059 1.2623751 -4.2102375 14.5
5.8396144 1.2792754 -4.2083864 14.655
-1.0096214 1.7378262 -4.2875581 14.833333
1.9714818 1.7565531 -4.2096543 15
2.1032667 1.6473323 -4.2429194 15
5.7663999 1.6060451 -4.1055312 15
-7.2761278 -0.12107347 -3.7827325 8.1843109
-7.1901374 -0.22268766 -3.6969695 6.0999999
-6.6859317 -0.30422401 -3.7554102 5.5
-6.3046894 -0.29054606 -3.7990484 5.5
-5.9657464 -0.27721137 -3.7758217 5.5
-5.4224725 -0.22831668 -3.7477417 6
-5.0925722 -0.11059096 -3.7310522 5.5
-4.6224322 -0.052331075 -3.7392313 5.25
-4.1493969 -0.080713838 -3.864666 5.3333335
-3.6902001 -0.042252488 -3.9348464 4
-3.2951851 -0.019119063 -3.8042934 5
-2.8090792 -0.19266434 -3.6838539 7
-0.97717917 -0.12759137 -3.7672524 7
-0.55231005 -0.17232466 -3.7906053 7.1055551
-0.20679806 -0.23864165 -3.7044802 5.5
0.18162668 -0.24001436 -3.7934201 5.4000001
0.6309858 -0.2313379 -3.8961372 5
1.1008933 -0.21874414 -3.8363519 5.5
1.4386408 -0.2346261 -3.8172226 4.0333333
1.8580045 -0.21514244 -3.7706707 4.6666665
2.1216984 -0.15267165 -3.8195059 5.25
2.5459256 -0.19171941 -3.81461 4
2.8839264 -0.17845945 -3.7020519 5.1111112
3.3330467 -0.17543614 -3.7825246 5
3.8763068 -0.12089995 -3.7960434 5.9444447
4.1049232 -0.070731938 -3.7805085 6.7951245
4.6133356 -0.09829282 -3.7043374 6.5904756
4.9132605 -0.071562432 -3.6722579 6.8000002
5.7083831 -0.076624654 -3.763459 6.9111114
-7.2661452 0.13672234 -3.7741153 12.328641
-5.3797913 0.12541863 -3.6570768 10.625
-4.1731329 0.012879148 -3.6947141 5
-3.7213135 0.038050793 -3.7841518 3.5
-2.8991158 0.10998807 -3.7330389 6.5833335
-2.716501 0.14201052 -3.7079887 6.0500002
-2.2793005 0.076466672 -3.7953575 5.2222219
-1.8720647 0.11345126 -3.8422263 5.6666665
-1.4083369 0.16053766 -3.8332319 5.375
-0.9533478 0.23302233 -3.7932754 7.6519833
-0.55175048 0.15535678 -3.8009863 11.255959
1.9974413 0.2440877 -3.7844629 8.5
2.104274 0.2318469 -3.6953743 8.7250004
3.0547626 0.12505166 -3.9126332 8.75
3.3949773 0.22355482 -3.8022385 7.75
3.9559968 0.193894 -3.7859879 11.671204
4.1138659 0.16599628 -3.7742169 10.933267
4.5900793 0.2000712 -3.7171247 10.560801
4.9130607 0.19971508 -3.7017698 10.166667
5.4577374 0.18070793 -3.7978334 8.75
5.7222247 0.20956394 -3.6994886 9.2666664
-7.3410029 0.59774923 -3.7765481 13
-5.3821497 0.55841285 -3.6404722 14
-2.8180358 0.56089866 -3.6773746 12.433333
-2.7842841 0.55029494 -3.6353488 12.642858
-0.95193887 0.57479036 -3.7990873 11.518549
-0.60302502 0.50827163 -3.7741468 13.41923
1.9934874 0.66409165 -3.7819214 10.5
2.1122901 0.61814725 -3.700825 11.028571
3.0523803 0.51506573 -3.9207401 11
3.9088819 0.55691487 -3.8027165 12.187715
4.1140847 0.5828045 -3.8022473 13.21272
4.5850606 0.52772343 -3.7331474 13
4.8823094 0.57693022 -3.7286115 12.857142
5.4569407 0.56671214 -3.8078969 11
5.7232103 0.559228 -3.754334 12.159405
-7.4446077 1.0129474 -3.831533 14.05
-2.8417385 0.92840427 -3.718586 14.366666
-0.9533264 0.95625556 -3.8206382 13.119741
-0.61897308 0.88104886 -3.7907112 14.52
1.9945488 1.0961062 -3.8069897 12.5
2.1139925 1.015608 -3.7120266 13.25
3.0500255 0.91379833 -3.9294958 13.25
3.8757539 0.96184963 -3.9051743 10.568251
4.1258297 0.82420492 -3.857996 14.166667
4.5762796 0.82238758 -3.7311034 14.5
4.9953728 0.80942154 -3.7879696 12
5.4217043 0.97799551 -3.8000858 13.460001
5.7588372 1.0328274 -3.7924495 13.609536
-7.496356 1.2602117 -3.7544503 15
-0.98872375 1.3727444 -3.8045471 13.85
1.9910228 1.4233856 -3.8026075 14
2.0809987 1.3889995 -3.7388225 14.5
3.089685 1.2699467 -3.9669871 14.5
3.7443082 1.2205093 -3.8162212 11.1365
5.4666882 1.3621533 -3.8766932 13.916666
5.7724185 1.3734159 -3.7893581 14.858749
-1.0259811 1.777387 -3.8215723 14.777778
1.986902 1.643328 -3.7902083 15
2.0229087 1.6726079 -3.6598372 15
5.5530462 1.7714305 -3.9734285 14.666667
-7.2724733 -0.14084254 -3.3800416 7.9719625
-7.1666079 -0.29905543 -3.5548244 6.5
-6.6458588 -0.26732382 -3.3631721 4
-6.2556777 -0.25020432 -3.4005046 4
-5.8237128 -0.19447194 -3.3497891 4.6666665
-5.3787589 -0.083630517 -3.3842068 7.0953703
-4.9940538 -0.015052805 -3.4095483 5.9000001
-4.6433187 -0.047834445 -3.3614509 5.4047623
-4.1208706 -0.032319371 -3.3664217 6.25
-3.3855028 -0.041265596 -3.5434995 5.25
-0.82099104 -0.10166015 -3.5232029 7
-0.58289808 -0.13711913 -3.3561857 7.3531742
-0.21321002 -0.23578912 -3.4367151 5
0.16271549 -0.23616061 -3.3381531 5.1999998
0.48893368 -0.22910041 -3.5769536 4
1.0135993 -0.21163152 -3.3944283 4
1.2416267 -0.22028527 -3.3332732 5
1.8074745 -0.19887646 -3.3534241 4.375
2.1517673 -0.11663039 -3.439034 6.1333332
2.612102 -0.18416306 -3.4480045 4.5416665
2.9958372 -0.17684513 -3.4049175 5.6666665
3.3275986 -0.16881704 -3.4794259 4.875
3.7592323 -0.15788463 -3.5441086 6
4.067153 -0.14688936 -3.463604 4
4.6531181 -0.072663978 -3.2147019 7
4.9415965 -0.12673776 -3.4445102 5.6666665
5.5209937 -0.12094995 -3.317467 6.7777781
5.7240839 -0.057467032 -3.4507 6.9142861
-7.2940812 0.12833278 -3.3947408 12.166459
-5.3606248 0.16693325 -3.423069 11.365889
-4.9670806 0.18306108 -3.4139376 10.220238
-4.7110453 0.14038956 -3.3697331 9.9952755
-4.1647944 0.20809592 -3.3267443 9.3804579
-3.7411859 0.22880794 -3.2929842 10.348528
-3.396486 0.22120856 -3.2770402 9.1373329
-2.9213734 0.24257313 -3.3262649 9.0209856
-2.7806234 0.21882322 -3.4382253 7.7745099
-2.2758014 0.092453182 -3.4721937 5
-1.8472936 0.12411395 -3.2673681 5.5
-1.3663222 0.17296907 -3.4376235 4.5
-0.94001722 0.25592846 -3.4313323 7.3861117
-0.58772177 0.20980871 -3.403533 12.183837
2.1118081 0.21880811 -3.3294203 8.833333
3.0629828 0.11122972 -3.4219863 8.75
3.3240032 0.12883894 -3.2727902 9
4.0270004 0.2177103 -3.2390501 8.6114998
4.4490094 0.22321434 -3.2798026 8.6094999
5.4560409 0.16795611 -3.3711371 8.75
5.6875472 0.19861969 -3.3751361 9.4276562
-7.387145 0.55329728 -3.3686967 12.896825
-5.3851695 0.57264322 -3.4578042 13.75
-4.905508 0.56375355 -3.4062147 14.319049
-4.5415154 0.50147969 -3.374799 14.12
-4.1718917 0.50642163 -3.3482604 14.480119
-3.7394133 0.445245 -3.2973471 14.762963
-3.2642999 0.48891497 -3.254354 14.5
-2.8978477 0.52388996 -3.3413455 13.26649
-2.793359 0.46194696 -3.3865547 12.266666
-0.9739545 0.57975554 -3.3906951 12.120863
-0.66944247 0.58967507 -3.3503692 13.6
2.1104896 0.63012344 -3.3113136 11.516666
3.0607765 0.54351646 -3.4289031 11.5
3.2996132 0.53465378 -3.331625 11.175
4.0266066 0.61755556 -3.2466204 10.6115
4.4474382 0.62946218 -3.2781913 10.6095
5.4530649 0.56995779 -3.374202 11.271428
5.6788697 0.60518384 -3.3911018 13.19246
-7.4343376 0.88321221 -3.3794014 13.74
-2.8822925 0.94065344 -3.4093413 13.857142
-0.95366299 0.93158239 -3.3798816 13.69913
-0.62381577 0.87982517 -3.380522 14.3125
2.1073742 0.99620825 -3.3809781 13.733333
3.0586877 0.94957638 -3.4343977 14
3.2830806 0.96494758 -3.3288646 13.8
5.4488907 0.9454776 -3.3910384 13.5
5.7280989 0.95559895 -3.3872852 14.139999
-7.5266352 1.2486894 -3.38767 14.785714
-0.89761847 1.2729937 -3.4077654 14.5
2.0592663 1.4001551 -3.2828135 14.75
3.0988431 1.2201122 -3.3639684 15
3.2600048 1.4652919 -3.3471749 14.5
5.4601288 1.3284917 -3.4619699 14.166667
5.7343225 1.305656 -3.2990494 15
5.5311699 1.6924289 -3.339968 15
-7.2952261 -0.12727457 -3.0209033 8.0653124
-7.145957 -0.2819258 -3.0113811 4
-6.7064118 -0.20975554 -2.9779606 5.3333335
-6.2283144 -0.29008412 -2.8809245 5.5
-5.8882189 -0.27868304 -2.8658869 5.5
-5.403966 -0.09568914 -3.0239389 6.0074077
-2.8207352 -0.22772039 -3.1445532 7
-0.94114816 -0.087740406 -2.890872 7
-0.59226054 -0.13053492 -3.0312414 7.2564096
-0.11557361 -0.21722442 -2.8678041 4.25
0.26528519 -0.2133733 -2.8975432 5.25
0.64894003 -0.20819132 -2.927995 4.2000003
0.90640354 -0.18556401 -2.9852247 6
1.449286 -0.21211351 -2.9696956 5.4166665
1.8384778 -0.18354511 -2.9770186 4.5
2.1248572 -0.11746752 -3.0106523 5.875
2.5387282 -0.17863271 -2.9817765 4.625
3.1239593 -0.16447513 -2.9511402 6.3333335
3.4346104 -0.14590926 -3.0753374 5
3.7357397 -0.14791518 -3.1042881 6
4.2291412 -0.072494604 -3.1703064 7
4.5462646 -0.1407553 -3.1060252 4.5
4.9987555 -0.11783011 -2.9895239 5
5.4499998 -0.10510622 -3.0169444 6.8000002
5.6890454 -0.055162273 -3.0186098 6.9071426
-7.311749 0.11740723 -3.0173159 12.528772
-5.4205456 0.11315588 -2.960264 12.010333
-2.8556857 0.24435505 -2.9707618 7.9766893
-2.563982 0.13085145 -3.1331048 4
-2.2483935 0.14447176 -2.9307432 4.833333
-1.9492218 0.17084992 -3.0308032 5
-1.3913883 0.17310083 -3.013521 5
-0.96884555 0.25525084 -2.9794269 7.5456986
-0.62315434 0.18814532 -3.036979 12.018636
2.1259308 0.18763767 -2.9382002 8.8214293
3.0775368 0.14263253 -2.9427521 8.666667
5.4793196 0.21007025 -2.944695 9.3000002
5.6749253 0.23089689 -3.0017712 9.7647057
-7.358757 0.52275658 -2.9941914 13.087038
-5.4543519 0.49457958 -3.0862019 13.933333
-2.8547955 0.53815126 -2.9837523 12.786211
-0.98863292 0.5596838 -2.9725864 11.984818
-0.68171573 0.51094186 -2.9232459 12.325
2.1247146 0.57658708 -2.9983447 11.625
3.0974224 0.52674997 -2.9294562 11.9
5.4960995 0.55217987 -2.9494343 12.083333
5.6624031 0.57521158 -3.0075824 13.2033
-7.4776015 0.93913823 -3.0262482 14.333333
-2.9416595 0.97980118 -2.962544 13.453334
-0.9788419 0.9285357 -3.0023634 13.770246
-0.62684816 0.88351077 -2.9685733 13
2.1204352 0.9426738 -2.965807 14.13
3.0931308 0.88550329 -2.9401524 14.4
5.4490528 0.92551553 -2.952194 13.875
5.6967187 0.98771518 -2.9818094 14.166667
-2.9478378 1.3561156 -2.8441629 13.5
-0.93348789 1.280138 -3.0703344 14.664875
-0.59192574 1.3147117 -2.839488 12.5
2.0770102 1.3508618 -2.9787233 14.75
5.4544296 1.3357503 -2.9519782 14.75
5.7050533 1.3227303 -2.9442282 15
-2.9497316 1.6263077 -2.8495779 15
-0.59785473 1.7347276 -2.8565583 14.5
-7.3252497 -0.14242868 -2.5850961 7.9697967
-6.9921966 -0.30719593 -2.6401298 5.3333335
-6.558404 -0.24809274 -2.7832735 5
-6.1667418 -0.21492566 -2.5225496 4
-5.8101182 -0.22220321 -2.5287547 4.6666665
-5.4348235 -0.11367122 -2.6042664 6.8373017
-4.9496684 -0.015258241 -2.5052874 3
-2.8638477 -0.20753117 -2.6103292 7
-0.91163647 -0.056598265 -2.479934 7
-0.66932648 -0.13378018 -2.5935969 7.1487179
-0.19558354 -0.20600167 -2.6203208 5.1999998
0.21008256 -0.1878988 -2.5443087 3.125
0.51663208 -0.20159049 -2.596662 4.7222223
0.97410357 -0.17340726 -2.5633883 6
1.3220011 -0.20386925 -2.5878563 5
1.8826454 -0.17626826 -2.5891669 4.4000001
2.1937988 -0.11945157 -2.6213787 5.6785712
2.5262549 -0.17059949 -2.6806576 4.6666665
3.0222039 -0.14824547 -2.6323051 5.2666669
3.3740194 -0.1504771 -2.5812109 5.125
3.6848221 -0.15636331 -2.7582452 5
4.1585426 -0.13557288 -2.5739202 5.75
4.5012093 -0.13786371 -2.6361942 5.0999999
4.9715285 -0.1300669 -2.5238347 5.5
5.4432449 -0.10374141 -2.6038465 6.625
5.6680098 -0.041708741 -2.6362922 6.9444447
-7.3419118 0.12404542 -2.5955379 12.439159
-5.4422359 0.11990668 -2.6339836 12.506593
-2.870378 0.24478152 -2.60115 8.0079365
-2.5905151 0.13084374 -2.6810219 5.2666669
-2.2218907 0.15733489 -2.5483153 4.333333
-1.7599716 0.17114246 -2.7556095 5
-1.4445999 0.18674549 -2.4664514 4.5
-0.99498838 0.25345024 -2.6117284 8.0785713
-0.67216635 0.14153008 -2.5894575 11.071297
2.1220737 0.2073056 -2.5537364 9.0480766
3.1212552 0.12213615 -2.4839675 9.125
3.9900951 0.1628162 -2.5094306 9.5
4.0270061 0.20949389 -2.4183786 10
5.4850483 0.14633118 -2.6099796 9
5.6548662 0.19803622 -2.6490903 9.510684
-7.3814054 0.55880791 -2.5933721 14.071428
-5.4792509 0.40448529 -2.7129607 13.5
-2.8907883 0.53695482 -2.6057329 12.859872
-1.0133086 0.5632416 -2.600141 12.100764
-0.67797995 0.52411336 -2.5364411 13.035186
2.1162913 0.6286245 -2.5719156 12.125974
3.0835171 0.60012162 -2.5193648 13
3.9884138 0.53917474 -2.5111127 13
4.0254931 0.5231061 -2.4187753 13
4.469161 0.54927117 -2.480237 13
5.4820609 0.53771353 -2.5662191 12.575397
5.6521206 0.56600994 -2.6190245 12.766666
-7.435761 0.84708595 -2.7039521 14.5
-2.9692962 0.91264433 -2.5627961 13.125
-1.0106926 0.9511314 -2.5953052 13.894084
-0.67400479 0.89398104 -2.6415915 14.333333
2.1130168 0.95187128 -2.5933852 14.25
3.1383393 0.8598997 -2.491477 14.555556
5.3888803 0.96171415 -2.6376557 14.491667
5.6795173 1.0120165 -2.6338372 14.166667
-2.9729822 1.4394072 -2.5681772 14.25
-0.94292456 1.3765059 -2.6894631 14.041667
2.0673501 1.3169252 -2.6330302 15
5.6771965 1.300202 -2.6355319 15
-0.88909566 1.7261686 -2.663554 15
-7.3581157 -0.13609099 -2.2262349 7.8181248
-6.9351554 -0.29669273 -2.1733093 5
-6.5798922 -0.29053259 -2.357295 5
-5.7847896 -0.15483303 -2.3699441 5
-5.4819055 -0.10050488 -2.2148509 7.3704057
-2.8763466 -0.092548877 -2.3293183 8
-1.5147991 -0.20863797 -2.0223861 6
-0.95631993 -0.090709731 -2.1727359 6.8249998
-0.68926448 -0.12201081 -2.194531 7.1098642
-0.12784664 -0.18799187 -2.2197721 4
0.61352903 -0.2025428 -2.3162966 5
0.94039613 -0.18135662 -2.1597798 5.333333
1.3752686 -0.18098548 -2.2066855 4.833333
1.7257099 -0.15995651 -2.1242895 4.5
2.2411401 -0.076856218 -2.16255 6.5170069
2.573699 -0.084590986 -2.1431568 6.4615941
3.0395706 -0.077666707 -2.1073456 6.8611107
3.4268603 -0.078334838 -2.114979 6.7592592
3.6629934 -0.095328614 -2.2166696 5.5
4.2577038 -0.086227685 -2.2235992 6.519875
4.6475492 -0.11799227 -2.092442 4
4.9805598 -0.1163092 -2.144278 4.25
5.3758874 -0.1193966 -2.193475 6.7222228
5.6389818 -0.040484753 -2.2633283 6.8000002
-7.3705621 0.13178629 -2.2015841 12.551815
-5.4732728 0.14114727 -2.2008214 12.760807
-2.9047699 0.25091594 -2.1993322 7.6576924
-2.4845569 0.16282079 -2.1150753 3
-2.2830398 0.16394639 -2.2944934 4
-1.826237 0.18801549 -2.3446195 5
-1.4653058 0.24091019 -2.2204454 6
-1.0244886 0.26476306 -2.1639602 8.0151539
-0.70300043 0.18054578 -2.19262 11.566953
0.55381715 0.23183168 -2.1035032 10
2.2849476 0.20952527 -2.1629364 10.938717
2.6041813 0.16000172 -2.1090803 11.464783
3.0022988 0.16669533 -2.097476 11.655059
3.4000206 0.19403745 -2.0960004 11.461612
3.602391 0.19578528 -2.0459065 10.4
4.2858653 0.15837128 -2.363291 9.5
5.4987845 0.21293266 -2.1479247 9.8461542
5.6333046 0.21135418 -2.2854896 9.5982904
-7.385859 0.5767206 -2.2517776 13.886244
-5.4866643 0.40808114 -2.177736 15
-2.9275632 0.53490752 -2.1795888 12.557424
-1.7029768 0.78212559 -2.0020013 15
-1.031359 0.537992 -2.184437 12.080426
-0.70185345 0.53187865 -2.1779685 12.642858
0.5557763 0.51111776 -2.1309757 13
2.1891143 0.56236452 -2.1515529 13.141234
2.5856812 0.42768922 -2.105505 14.804845
3.0681229 0.52242637 -2.1247561 13.894974
3.4673796 0.50625783 -2.0773802 14.364482
3.6168334 0.55621588 -2.0715458 13.5
4.2712193 0.51922446 -2.3568997 13
5.5125399 0.55245084 -2.1924193 13.248395
5.6403909 0.58306342 -2.2621877 12.733334
-3.0164182 0.98546606 -2.1358118 12.416667
-1.0390095 0.95559025 -2.1732547 13.942554
-0.72586286 0.91347235 -2.1873448 13.733335
2.1132751 0.90942234 -2.1632445 14.465432
3.1136739 0.85162461 -2.1692686 14.5
5.4396634 0.92896104 -2.261157 13.833333
5.6558514 1.0390323 -2.26791 13.599999
-3.0141666 1.3362997 -2.1506214 14.533335
-0.95740563 1.3248923 -2.2506251 14.666667
-0.68233317 1.3267866 -2.3088908 13
2.0567489 1.2332076 -2.1524773 15
5.4951134 1.3666174 -2.3239725 14.666667
5.6486306 1.2838279 -2.2269928 15
-0.88954699 1.6451756 -2.3029871 15
-0.68801332 1.706261 -2.3089499 15
-7.3744378 -0.14456823 -1.820868 7.9138093
-6.9216905 -0.24453326 -1.7889414 5
-6.6032538 -0.21231732 -1.7895604 5.5
-6.1837654 -0.22285497 -1.8797115 5.25
-5.8073187 -0.22150865 -1.8874836 4.4666662
-5.4904366 -0.099571578 -1.8460274 6.8950982
-2.8810756 -0.14968646 -1.8777528 7.125
-2.7351565 -0.24518751 -1.6674759 6
-2.333529 -0.21941285 -1.8297309 6
-1.7459847 -0.11181475 -1.8050376 6.5555553
-1.3928541 -0.094982706 -1.8520393 6.4399996
-0.98959571 -0.080883972 -1.8550971 6.7619047
-0.73574823 -0.11647108 -1.7465901 6.9944439
-0.26438972 -0.18438447 -1.8354298 4.8249998
0.21697517 -0.18452388 -1.7400055 5
0.63442779 -0.054461088 -1.7845448 6.75
0.94429344 -0.052222051 -1.7442905 6.7708335
1.3855306 -0.15248157 -1.773332 5.1666665
1.7492062 -0.13627987 -1.7643067 5.5
2.2282672 -0.058285806 -1.7913573 6.7705879
3.1002798 -0.11426074 -1.7412096 6.8333335
3.3694174 -0.13997112 -1.7618884 6.125
3.8219013 -0.15137057 -1.8157177 5.6666665
4.1746664 -0.15772343 -1.7559527 5.5
4.5908203 -0.1355246 -1.6503677 4.75
5.1971421 -0.10519812 -1.9633844 5.5
5.4777713 -0.060078431 -1.6800715 7
5.6323295 -0.037547421 -1.9518206 6.8000002
-7.3880758 0.14833489 -1.8419776 12.009372
-5.504302 0.15810536 -1.8154072 11.840738
-2.9336014 0.22450399 -1.7997031 8.1888895
-2.4621735 0.17554893 -1.7678808 5
-2.1381853 0.13764969 -1.9275908 5
-1.7555591 0.19117828 -1.8221308 8.9379921
-1.3972969 0.21552393 -1.8770716 9.2937508
-0.99591488 0.2024577 -1.8577688 9.1541929
-0.74557257 0.17515709 -1.7953613 11.332414
0.63484508 0.21174283 -1.8207381 10.356697
