# .PCD v0.7 - Point Cloud Data file format
VERSION 0.7
FIELDS x y z intensity
SIZE 4 4 4 4
TYPE F F F F
COUNT 1 1 1 1
WIDTH 1173
HEIGHT 1
VIEWPOINT 0 0 0 1 0 0 0
POINTS 1173
DATA ascii
-1.9549842 1.3405946 -6.051229 11
-0.98047745 1.3886192 -6.2076325 12.730769
1.9242411 1.4134952 -6.0820274 12.142858
2.1177402 1.4593916 -6.1350827 12.583334
3.1482365 1.3299242 -6.050344 12.75
3.3836694 1.344654 -6.1115656 12.734375
3.719542 1.2999808 -6.1731758 12.976679
4.2395239 1.3170147 -6.183877 13.371
4.5685153 1.2953939 -6.2066603 13.183001
5.0412707 1.298763 -6.205575 13.029322
5.3376222 1.429459 -6.1285968 13.645162
5.7394071 1.4266111 -6.1879754 12
-2.8718531 1.6887392 -6.2748699 12
-2.0602458 1.8134392 -6.0323782 12.518518
-1.9540417 1.7837414 -6.0631857 12.4
-1.2012658 1.7444746 -6.2322264 13
-1.0195409 1.7926538 -6.2194738 13.511384
1.910355 1.8639823 -6.0940185 13.583333
2.1003244 1.8841616 -6.1827035 14
3.1441786 1.7386127 -6.0502381 14.218182
3.3927288 1.7740481 -6.0988936 14.205881
3.7412834 1.6830356 -6.1822462 14.417349
4.1636529 1.6581955 -6.2361164 14.584334
4.5972428 1.6874484 -6.2060947 14.666167
5.0553098 1.689018 -6.2122273 14.502192
5.3678513 1.7493973 -6.1915417 14.351352
5.7568202 1.7744693 -6.1640549 13.071428
-2.8707945 2.0639961 -6.2751832 13
-2.0844522 2.3941331 -6.0266733 14.333333
-1.2038999 2.0585012 -6.2203703 14
-1.0357943 2.1636627 -6.2193794 14.556349
1.9201748 2.3076158 -6.0961485 15
2.1090951 2.159519 -6.1533394 15
3.1239641 2.0583742 -6.0285163 15
3.3909142 2.2445633 -6.0714464 15
3.6317017 2.2419128 -6.0725455 15
5.4264808 2.1461308 -6.2272182 14.833333
5.7571359 2.1281178 -6.1731057 14.142858
-2.030581 2.4013886 -6.0511789 14.333333
-1.9604776 2.4051793 -6.0684338 14.333333
-7.2468185 -0.35512546 -5.7724743 7
-6.9866586 -0.13446777 -5.7629576 8.2349195
-6.5815721 -0.17385069 -5.7462382 7.9880438
-6.1845999 -0.17888284 -5.7336054 7.8774095
-5.7925429 -0.17841971 -5.7176747 7.8271365
-5.405509 -0.16728711 -5.7011213 7.8009262
-5.0395336 -0.20587796 -5.6712561 7.5333333
-3.2598109 -0.2561329 -5.695601 7.375
-2.9789314 -0.18028605 -5.6853104 7.625
-2.6209145 -0.23823808 -5.6652808 7.242424
-2.2453625 -0.24356858 -5.6356993 7.0625
-1.9009413 -0.22329552 -5.615416 7
-0.89751166 -0.099831074 -5.6736827 7
-0.3462356 -0.10383149 -5.7988849 7
0.14044352 -0.10398746 -5.8104868 7
0.71367407 -0.10193811 -5.9059529 7
2.1651218 -0.071073987 -5.611917 7
3.4135954 -0.23390165 -5.7869182 7.0263157
3.8582218 -0.17194748 -5.8475084 7.3012133
4.0750284 -0.12895466 -5.8474355 7.2722502
5.0833249 -0.19215921 -5.889822 7
5.2818751 -0.19227847 -5.8813467 7
-7.0207281 0.28188682 -5.74683 10.719352
-6.5976381 0.28918594 -5.7636113 10.82548
-6.1869144 0.31737569 -5.7473803 10.94053
-5.79563 0.25850603 -5.7372437 10.349355
-5.391695 0.27988708 -5.7116804 10.427273
-4.9972863 0.22775917 -5.6704621 10.149815
-4.6439347 0.20391196 -5.6213002 10.166667
-3.3189919 0.24068904 -5.6807742 8.166667
-2.9946959 0.1076221 -5.6799207 8.363636
-2.5707159 0.11551738 -5.6558337 8.4590912
-2.2081294 0.2334155 -5.6454039 8.3503408
-1.8310494 0.30571762 -5.7034602 8.1418447
-0.94753933 0.21054631 -5.7732978 8.375
1.9377161 0.19805343 -5.8376856 8
2.1158769 0.25097334 -5.8598552 8.2857141
3.1122596 0.11758295 -5.7431178 8.4796743
3.2639909 0.11449193 -5.7397523 8.4919357
3.852947 0.23390774 -5.8695817 9.0131035
4.0016484 0.38238975 -5.9368944 9.5889997
5.3321557 0.14595278 -5.7853894 8.483181
5.65167 0.26231834 -5.7170715 8.833333
-7.2287335 0.75689566 -5.7869916 12.5
-7.0349197 0.65598047 -5.7574968 12.670273
-6.6016431 0.66221505 -5.771378 12.886789
-6.2014499 0.69616264 -5.7550645 13.089237
-5.7938275 0.66077685 -5.7391853 12.703448
-5.3805022 0.67729121 -5.7063022 12.970834
-4.9932814 0.66929048 -5.6763773 12.900001
-4.653698 0.53759176 -5.6348166 12.333333
-3.2838278 0.65086782 -5.7104115 10.861112
-2.9702876 0.68150991 -5.6760607 10.015351
-2.6066136 0.59021503 -5.6528316 10.129762
-2.2176557 0.51368159 -5.6425982 10.595
-1.7900934 0.49896127 -5.6720734 10.083334
-1.5469137 0.41033825 -5.8962302 8
-0.97461981 0.62107861 -5.7767506 9.988636
1.9430228 0.62695765 -5.871067 9.5
2.1135387 0.63493723 -5.8152909 9.75
3.1113892 0.52226079 -5.7368803 10.441152
3.2772617 0.54229969 -5.7583218 10.5101
3.830606 0.54464936 -5.8054209 10.402267
5.3325286 0.55201256 -5.7916327 10.285047
5.6913342 0.56249338 -5.747458 9.727273
-7.2506375 1.1807464 -5.7952752 14.5
-7.0580668 1.0533789 -5.793704 14.115942
-6.6300964 1.0340394 -5.8031278 14.055781
-6.2074013 1.0207136 -5.7864823 14.139584
-5.8127165 1.0348873 -5.7705569 14.08421
-5.4139781 1.0177927 -5.7432818 14.289216
-5.0258303 1.0133699 -5.7056551 14.55
-4.6778488 0.81170779 -5.6428032 14
-3.3363581 0.94893128 -5.6868582 11.318182
-2.9134009 0.91052109 -5.6833634 11.23943
-2.5575137 0.85928524 -5.6966457 10.609229
-2.2136211 0.86319077 -5.7519708 10.332341
-1.8140489 0.86697286 -5.7776103 10.323369
-1.5728211 0.87241393 -5.9497161 9.5
-0.97656888 1.0265839 -5.7887306 11.630435
1.9531685 1.0631649 -5.8754745 11
2.1321142 1.0550067 -5.8379855 11.357142
3.1107218 0.92856288 -5.7408872 12.378601
3.2477336 0.93248904 -5.7375717 12.368421
3.7642913 0.8775779 -5.7166548 11.933333
4.6590004 0.95021713 -5.9680166 12.0865
5.1896329 0.85664386 -5.9598451 11.5
5.3357701 0.93040907 -5.7686172 11.948949
5.712657 0.99205041 -5.7842317 11.181818
-7.3279676 1.2004762 -5.7749486 14
-7.0463715 1.384739 -5.7647877 14.833333
-6.6184058 1.3772863 -5.7971101 14.857142
-6.2705088 1.3007485 -5.7887297 14.733335
-5.7922478 1.2907537 -5.7801409 14.6125
-5.4418998 1.2613117 -5.7707324 14.5
-3.3434541 1.4012671 -5.697144 12.272727
-2.9280972 1.4242687 -5.6822972 11.965686
-2.5585935 1.3857398 -5.673759 12.180186
-2.2142153 1.3748115 -5.736372 12.186726
-1.8115392 1.3340238 -5.7528248 12.582416
-1.4807323 1.4000686 -5.7289104 13.607249
-0.99408972 1.4001645 -5.7618999 13.235849
1.9517517 1.4320484 -5.8879046 12.25
2.1073153 1.450139 -5.8386869 12.8
3.1096592 1.3629413 -5.7384934 14.379213
3.2614949 1.3590891 -5.7411642 14.335859
3.7473655 1.3446598 -5.7428842 13.95
4.1860394 1.3353541 -5.7456303 13.922332
4.7466617 1.3158455 -5.8143501 13.657929
4.9910145 1.2770085 -5.8899941 13.29325
5.3085351 1.4096837 -5.8225336 14.112449
5.7140942 1.3764926 -5.7722526 12.541667
-3.3570206 1.8621577 -5.6987162 13.0625
-2.9241762 1.9018558 -5.6922765 13.01894
-2.5434587 1.8246409 -5.7243996 12.735632
-2.2099481 1.8090228 -5.8152046 12.612904
-1.8105948 1.779633 -5.8631897 12.534246
-1.5866868 1.801352 -5.9704161 12.5
-1.0216284 1.7851182 -5.8337321 13.798207
1.9482633 1.8555957 -5.8885341 13.666667
2.1204624 1.8438462 -5.8284097 14.285714
3.1298938 1.706473 -5.8680868 14.75
3.3725662 1.6619276 -5.8166175 14.833333
3.7394581 1.6230586 -5.8634529 15
4.1689601 1.6392645 -5.8565178 15.089
4.7295547 1.6574577 -5.793304 15.086501
5.1644492 1.7354863 -5.9812694 15
5.3994226 1.7450176 -5.8063869 14.516259
5.7063513 1.7694733 -5.7677875 13.85
-3.3915713 2.1666682 -5.69806 14
-2.9106879 2.3305571 -5.6969686 14.341883
-2.56005 2.3605566 -5.7113299 14.424239
-2.2339382 2.3826108 -5.8042374 14.41987
-1.065949 2.1677139 -5.834868 14.643091
1.9338719 2.2175791 -5.8785973 14.833333
2.0777636 2.097975 -5.8414512 15
3.1301339 2.1041725 -5.9555264 15
5.3922033 2.1547723 -5.849371 14.944445
5.7352185 2.2343638 -5.771183 14.785714
-3.3630116 2.4484832 -5.6641507 15
-2.9910121 2.4828172 -5.7340136 15
-2.735599 2.5039105 -5.7228107 15
-2.0189977 2.4023557 -5.7613921 14.5
-1.8149263 2.4198527 -5.8848748 14.5
-1.5961277 2.4386761 -5.9846382 14.5
-7.2845483 -0.15133297 -5.3746061 7.8928571
-7.0238595 -0.1729766 -5.3699641 7.8433619
-6.5956688 -0.20665981 -5.3874946 6.8991184
-6.2031298 -0.16917218 -5.3896074 6.8979859
-5.7880907 -0.14381315 -5.3641558 6.8394036
-5.3738923 -0.14585268 -5.3328609 6.5864725
-5.0028877 -0.12114646 -5.3138852 6.799933
-4.5579329 -0.082867123 -5.2743716 6.4297013
-4.2108917 -0.10511557 -5.2802615 6.7803574
-3.7724848 -0.09807159 -5.2604361 6.984375
-3.3825071 -0.072036915 -5.2468319 7
-3.0300789 -0.047743946 -5.2262449 7
-2.609128 -0.040997885 -5.2352352 7
-2.2367125 -0.016114052 -5.2285185 7
-1.7606959 -0.19701934 -5.5749836 7
-1.3960309 -0.0048083663 -5.2214475 7
-0.87985098 -0.16396116 -5.4936867 7
-0.47994965 -0.19769706 -5.4176493 7.333333
-0.2128868 -0.18531418 -5.4259691 7.3265867
0.17340708 -0.19426852 -5.3519068 7.1097307
0.62369573 -0.18784741 -5.2742782 6.9809523
0.96628356 -0.19776657 -5.3409586 6.9414816
1.3786132 -0.17345153 -5.3166995 7.0423074
1.819597 -0.14359576 -5.34373 7.1111112
2.2318082 -0.18217173 -5.3325629 7
2.6724489 -0.15574525 -5.300487 7
3.0390749 -0.16919503 -5.3375793 7.0999999
3.3894448 -0.23702356 -5.4078918 7
3.8659022 -0.23595238 -5.4177332 7
4.0777388 -0.24274033 -5.3432031 7
4.5087852 -0.23866773 -5.254189 7
5.0148945 -0.1339965 -5.330277 7
5.3411994 -0.17640547 -5.3732986 7
5.6385479 -0.14422576 -5.3285675 7
-7.2848969 0.17449881 -5.3307872 10.109877
-7.0322905 0.18573278 -5.3943214 10.919663
-6.6016469 0.1629831 -5.4140406 10.916284
-6.1977921 0.18829349 -5.3824029 11.214118
-5.8057637 0.22002865 -5.357111 11.672655
-5.3988562 0.21760887 -5.346293 11.377187
-4.9946523 0.20144919 -5.3246856 10.820405
-4.5913248 0.19943722 -5.3047934 10.490971
-4.2041173 0.20155928 -5.2689905 10.100673
-3.7885253 0.2040427 -5.2749825 8.9434261
-3.3658595 0.23302403 -5.3352723 8.4916687
-2.9958436 0.23142648 -5.3312211 8.3121996
-2.5616128 0.31072745 -5.4036751 8.51336
-2.2862923 0.31811112 -5.4586382 8.2866669
-1.8105848 0.31790584 -5.3558187 8.8183336
-1.5157796 0.27996501 -5.232079 8.5999994
-0.94647467 0.21808513 -5.3856497 8.5441675
-0.52771842 0.12407099 -5.3735828 8.5400009
-0.21514942 0.12829369 -5.3970261 9.5249453
0.19220003 0.16107538 -5.3257127 10.882475
0.616018 0.18415545 -5.2726798 11.649399
0.95483935 0.13680081 -5.3291779 10.15766
1.3684239 0.11466659 -5.3338289 9.5288296
1.7722518 0.11760587 -5.3218932 8.788063
2.2091942 0.18276733 -5.3514991 8.6540546
2.5450649 0.12443876 -5.2826457 8.6404762
3.0353143 0.12105891 -5.3825636 8.5289907
3.3695853 0.12321827 -5.3514495 8.544961
3.7881141 0.14013638 -5.3332815 8.5540733
4.0652227 0.11008921 -5.3739195 8.5647268
4.4698362 0.10501192 -5.266458 8.5515003
5.3379312 0.14353557 -5.373013 8.5033102
5.6542058 0.18288782 -5.3638868 8.5256405
-7.2944489 0.5419237 -5.3530216 11.540231
-7.0443988 0.57078958 -5.4343605 13.417724
-6.5981007 0.55303925 -5.4905725 13.118937
-6.1860867 0.54616505 -5.447711 13.174104
-5.7674685 0.53767771 -5.4237194 13.469578
-5.3854551 0.52770931 -5.3889284 13.752464
-4.9789786 0.54502994 -5.3646226 13.732878
-4.5917239 0.55544573 -5.3299189 13.730155
-4.1854401 0.57207465 -5.2916369 13.668847
-3.7918606 0.61112761 -5.2861104 13.192017
-3.3686857 0.6647374 -5.3325005 12.467535
-2.9825404 0.66119695 -5.3231821 11.767501
-2.6022036 0.67502123 -5.3601685 11.107566
-2.197176 0.6920889 -5.3166709 10.990196
-1.8361033 0.6357646 -5.337358 10.74881
-1.3567592 0.6494233 -5.2933688 10.5
-0.98174137 0.60410589 -5.414959 10.239236
-0.50364316 0.52425909 -5.3427429 10.95125
-0.2249667 0.53471226 -5.3978953 12.405579
0.15997164 0.55891097 -5.3476977 12.945345
0.61462945 0.58003163 -5.3272748 12.65851
0.98328441 0.52051836 -5.3787842 11.706855
1.3823073 0.5249517 -5.348453 11.792093
1.73537 0.53318423 -5.3171949 11.157688
2.2089353 0.57637405 -5.3226032 10.912821
2.5364943 0.54620528 -5.2805967 11.239823
3.0278978 0.51613051 -5.3823695 10.47867
3.3525095 0.52426296 -5.3449216 10.552406
3.7739184 0.54157352 -5.362258 10.423461
4.0610914 0.57568145 -5.3946753 10.541751
4.4898553 0.56250226 -5.2831111 10.549143
5.3408737 0.54016429 -5.3728385 10.394097
5.6665716 0.58371156 -5.3926392 10.200001
-7.3104014 0.96531266 -5.3852158 13.761539
-7.0170932 0.94129682 -5.498271 14.101283
-6.6170969 0.96349335 -5.487937 14.074075
-6.193121 0.93581831 -5.4505253 14.217648
-5.7763805 0.92744333 -5.4253745 14.482938
-5.3670893 0.91384393 -5.3963838 14.70238
-4.987854 0.93831003 -5.3880148 14.78205
-4.584578 0.89466578 -5.4376917 14.677382
-4.1779656 0.92450917 -5.3623776 14.758571
-3.7426343 0.96295804 -5.3352871 14.587681
-3.3571436 1.0202081 -5.3853402 13.986458
-2.981452 1.0279466 -5.36203 13.867804
-2.6107824 1.0243726 -5.3500175 13.647776
-2.2051599 1.0882998 -5.3064704 13.39937
-1.8383307 1.0526901 -5.321867 13.637799
-1.3715608 1.0129253 -5.3437033 12.379875
-0.97741127 1.0072869 -5.4014106 12.109185
-0.50884777 0.93591672 -5.3671288 12.99
-0.18334112 0.93875819 -5.4306383 13.547136
0.21431169 0.92530251 -5.4155912 14.00068
0.61427999 0.94332778 -5.3564811 12.030782
0.99015582 0.93577951 -5.3716731 12.210993
1.3937422 0.9111706 -5.3627071 12.438001
1.7851342 0.92389917 -5.3291025 11.153037
2.1821408 0.93951082 -5.344759 11.80761
2.5369782 0.94262314 -5.2985497 12.739037
3.0253253 0.92813706 -5.3827281 12.604656
3.3469 0.9586848 -5.3258328 12.924282
3.7443542 0.9478448 -5.3244367 12.578633
4.1585307 1.0815618 -5.3456478 13.265867
4.6319151 1.1032938 -5.405458 13.686501
5.052855 1.0950537 -5.4195142 13.408445
5.3456655 0.9350118 -5.3729591 12.278621
5.6640763 0.97073221 -5.3851895 11.770833
-7.3180118 1.2936945 -5.4106684 14.697916
-7.031599 1.270586 -5.5042539 14.861111
-6.5800643 1.2772316 -5.5215487 15
-6.2430725 1.2684463 -5.5281348 15
-3.3279376 1.4148259 -5.5241823 14.411458
-2.9861627 1.4195876 -5.4939175 14.215788
-2.6319535 1.3798844 -5.4354787 14.675438
-2.1638782 1.4388663 -5.3548441 14.645833
-1.7729701 1.389128 -5.4029479 14.667466
-1.3866948 1.3957411 -5.4664497 14.427452
-0.98512334 1.3870777 -5.4159551 13.865005
-0.55070305 1.2827095 -5.3598995 12.985965
-0.17299631 1.2856255 -5.3833647 13.166667
0.22222371 1.2747333 -5.3335552 12.047309
0.64413595 1.385702 -5.2694378 11.65598
0.92920041 1.3745887 -5.3099117 12.177778
1.3607386 1.3709502 -5.3392711 12.566395
1.7631788 1.383636 -5.32054 12.615789
2.1509614 1.3759656 -5.3620872 13.051163
2.5600522 1.3609232 -5.3223114 13.645333
3.0288692 1.3360466 -5.4018517 14.279517
3.3606632 1.3535658 -5.3572087 14.117808
3.7167931 1.3427142 -5.3542123 14.129629
4.1644745 1.3395212 -5.4284739 14.418678
4.6284547 1.3320166 -5.4261613 14.563316
5.0097756 1.3333097 -5.3990951 14.703549
5.3483992 1.3640863 -5.3785424 14.207458
5.6650357 1.3655776 -5.3994889 13.280702
-3.3974857 1.7779896 -5.4934745 15
-3.0355527 1.7714188 -5.4527268 15
-2.6533222 1.658374 -5.4365215 14.633334
-2.1108866 1.6681496 -5.3914146 14.722222
-1.7672911 1.6224937 -5.4645524 14.888
-1.3450083 1.6228108 -5.5250831 14.931946
-0.99836063 1.7755944 -5.4374528 14.260419
-0.56665128 1.7287382 -5.2985229 14.270589
-0.19719116 1.7411885 -5.2525225 13.915384
0.20861085 1.6940434 -5.3128204 13.055555
0.5815345 1.8528558 -5.3014431 13.191891
0.96093601 1.7520518 -5.2944908 12.91875
1.3452863 1.7153969 -5.2816205 12.742425
1.8077624 1.7394083 -5.3255901 13.358974
2.1263018 1.7477436 -5.3505993 13.727273
2.5320787 1.6938072 -5.2893081 13.121213
3.0074327 1.7190996 -5.3674812 14.319444
3.4349904 1.7395669 -5.2996941 14.441176
3.8290925 1.7791351 -5.271245 14.591665
4.2237854 1.859579 -5.2522655 14.169666
4.6275806 1.6936334 -5.3811312 14.79675
4.9917397 1.7219089 -5.2947693 14.366166
5.4124475 1.7225518 -5.431303 14.738636
5.6868091 1.7349601 -5.4080915 14.307693
-1.0582051 2.232059 -5.4303136 15
-0.52525645 2.0591328 -5.2990365 15
-0.16915342 2.0821157 -5.2927957 14.9375
0.22778526 2.1456895 -5.3392658 14.645614
0.62488443 2.0868435 -5.2879796 14.017106
0.92297953 2.085629 -5.2865758 13.905883
1.3258365 2.1162751 -5.2925434 14.034721
1.7613387 2.0939634 -5.299674 14.181818
2.0877564 2.1117449 -5.2760491 13.866667
2.5440879 2.0935497 -5.2473097 13.491667
2.8733263 2.143424 -5.2380981 13.566666
3.3911855 2.1016634 -5.2666283 13.555554
3.9274848 2.0829751 -5.2785926 15
4.1720152 2.1563082 -5.2601919 15
4.7664371 2.1098442 -5.2072144 15.009251
5.0316215 2.1368852 -5.2026377 15.007
5.4626589 2.1490929 -5.4175425 15
5.7410126 2.1562531 -5.3891044 14.857142
0.6513716 2.4590952 -5.2820325 15
0.96521568 2.472204 -5.2633348 15
1.3133581 2.4707141 -5.3130293 15
1.7094326 2.4843817 -5.2926636 15
2.1009018 2.5167181 -5.2676182 15
2.4562409 2.5550191 -5.2696395 15
2.8809078 2.5409915 -5.2349162 14.819446
3.3279748 2.5279765 -5.2166905 14.633334
-7.2986813 -0.16512425 -4.9876523 7.5314817
-7.091454 -0.16912347 -4.9757781 7.5204844
-6.5794811 -0.20396312 -4.9658151 6.1691923
-6.1972451 -0.22956881 -4.9868193 5.5666666
-5.8064456 -0.21034893 -5.0345292 5.6785712
-5.3727069 -0.19187401 -4.9314713 5.129252
-4.9388838 -0.099009834 -4.9445491 6.6036949
-4.6221142 -0.11195545 -4.9525013 5.1129198
-4.2054467 -0.047045801 -5.0873895 5.6332936
-3.8246412 -0.04467747 -5.0621653 5.6757579
-3.4040277 -0.028470317 -5.0091777 5.4551282
-3.1225789 -0.039985694 -5.1432743 6.875
-2.6420102 -0.050100464 -5.1412406 6.8571429
-2.1253848 -0.031059252 -5.1646729 7
-1.8109112 -0.093499869 -4.9744697 7
-0.89925539 -0.16755466 -5.1203213 7
-0.48043194 -0.16251831 -5.0280843 7.4139543
-0.24387887 -0.2003509 -5.0440817 6.8730154
0.22508296 -0.23647994 -5.0716839 6.4909091
0.59463763 -0.18806361 -5.122509 6.9947367
1.0057365 -0.2069571 -5.0992608 6.5184684
1.3902466 -0.18074107 -5.0944152 6.5589514
1.7964233 -0.17583138 -5.0672283 6.4444761
2.1747251 -0.1532968 -5.0547371 6.6753883
2.5896568 -0.15614365 -5.0326834 6.5384421
3.0131164 -0.15579072 -4.9455347 6.8428712
3.3868546 -0.13951096 -5.0086031 6.7728577
3.7987213 -0.13591619 -5.00494 6.8477998
4.1594343 -0.14048652 -4.9809051 6.8885155
4.5736213 -0.16303918 -5.0047336 7
4.9121852 -0.13747673 -4.9612684 7
5.370194 -0.16269092 -5.0066142 7
5.6398888 -0.11519539 -4.9269748 7
-7.2994952 0.18700927 -5.0040369 10.583741
-7.1469984 0.21614932 -4.9952927 11.68464
-4.9084063 0.064132959 -4.9409003 8.5789232
-4.7733674 0.081331149 -4.9327121 9.0310087
-4.1061325 0.19475706 -5.1820769 10.483712
-3.7886248 0.17639352 -5.1693535 9.6431293
-3.3972156 0.18858324 -5.1374407 9.5870838
-3.0066273 0.19471993 -5.1044641 8.9009666
-2.6186628 0.21502227 -5.0969844 8.6903763
-2.1948209 0.22126639 -5.0639873 8.2408838
-1.7974389 0.20488864 -5.0193758 7.871974
-1.4354684 0.197625 -4.9708323 8.0939884
-0.97947437 0.21897523 -5.0084047 8.3067131
-0.50396711 0.12249223 -4.9993448 9.5717545
-0.26478985 0.13823481 -5.0999136 9.8807278
0.22278145 0.073876284 -5.1742935 8.7586737
0.60117489 0.099717997 -5.1598682 8.9863453
1.0067683 0.14888307 -5.14643 10.409053
1.3916532 0.17326191 -5.1376934 11.154213
1.816232 0.18720686 -5.0983491 11.021134
2.1953473 0.19305271 -5.068306 10.706871
2.6007392 0.17227015 -5.0567012 11.129807
3.0159626 0.13202439 -4.9848771 9.4438658
3.3556092 0.16092773 -5.032351 10.266215
3.7804143 0.16474685 -5.021266 10.06856
4.1822248 0.14702415 -4.9906187 9.3415709
4.4889688 0.13551663 -4.9795446 8.9500647
4.8396668 0.12704453 -4.9757452 8.5797501
5.3483229 0.14145094 -4.9901776 8.5407295
5.6435561 0.18037078 -5.0021286 8.6000004
-7.3125944 0.590909 -4.9987264 12.026891
-7.1662416 0.59094352 -5.0395861 14.119733
-4.0440083 0.50544184 -5.1924953 14.80475
-3.8050904 0.48894185 -5.1823082 14.549957
-3.3840322 0.54079795 -5.1513133 14.349918
-3.0105734 0.58693343 -5.1356931 14.42816
-2.6060255 0.61570472 -5.1109676 13.7301
-2.1629014 0.61010695 -5.0908613 13.211755
-1.7737483 0.58984673 -5.063272 12.25456
-1.4340296 0.57379204 -4.9887094 11.791051
-0.95346361 0.58155453 -5.0093055 10.245378
-0.54595459 0.53288704 -4.9891906 12.182796
-0.21888362 0.48613575 -5.1577759 10.91829
0.26399535 0.49956867 -5.1762986 12.75351
0.61333829 0.54870886 -5.1652966 12.793475
0.98797846 0.53478438 -5.1323991 11.268169
1.4058282 0.54496408 -5.1057501 11.386102
1.8349921 0.57283145 -5.0643911 10.909823
2.1786532 0.57722127 -5.0530243 11.187676
2.6135833 0.53903747 -5.0524325 11.638152
3.0173728 0.53064752 -4.9820657 11.19968
3.3647933 0.55177134 -5.0286469 11.461613
3.7824302 0.52819026 -5.0294833 12.021504
4.1925988 0.53978294 -5.0065451 11.970597
4.4820518 0.54452473 -4.9871478 11.831395
4.8277693 0.54740393 -4.9807005 10.57975
5.353106 0.53158265 -4.9877539 10.570371
5.6526399 0.56282073 -5.0264926 10.328125
-7.3398857 0.98492539 -5.0255795 14.066803
-7.1919761 0.89824951 -5.1556554 15
-2.9527907 0.87400973 -5.1668172 15
-2.5633314 0.95478791 -5.1409745 14.777778
-2.1662869 1.0020033 -5.1172466 14.425
-1.7858847 0.97553682 -5.0897622 13.961463
-1.4280907 0.95617872 -4.9490232 13.163624
-0.9419632 1.0015043 -4.9980636 12.961795
-0.64836144 0.93912184 -4.9717231 13.759475
-0.13785176 0.95411384 -5.1760588 12.823334
0.23684999 0.97960496 -5.1653028 12.973332
0.64882022 0.97873408 -5.1712751 11.363705
1.058859 0.93408424 -5.136466 10.672826
1.4227941 0.93335551 -5.1036224 10.062789
1.8296659 0.90975368 -5.0373015 10.038962
2.2009108 0.91103888 -4.9792147 10.023214
2.5992479 0.90241718 -4.9423246 9.9918308
3.0178385 0.92416388 -4.9498482 11.720305
3.3959043 0.92564756 -4.9596577 10.657412
3.742542 0.92051923 -4.9676175 11.645633
4.1782742 0.92894399 -5.0571561 13.435957
4.5675254 1.0021749 -5.02707 13.943506
4.9139161 1.0957078 -5.0231051 13.784637
5.3556309 0.94428051 -4.9776554 12.705865
5.6503358 0.97290266 -5.0250797 12.216048
-7.3622332 1.247412 -5.0232015 14.625
-2.2038143 1.3026158 -5.1860886 15
-1.798474 1.3895751 -5.1783066 14.888889
-1.3828306 1.3855993 -5.1074939 14.785714
-0.97062516 1.401015 -5.0377331 13.759035
-0.71707654 1.3224466 -5.0055614 14.201722
-0.11235148 1.3209369 -5.1927433 12.5
0.18292215 1.3327404 -5.171474 12.25238
0.63580525 1.3223643 -5.1694198 11.832296
1.0750136 1.4170712 -5.1503925 11.569583
1.4279251 1.3861618 -5.1121697 11.368208
1.8275497 1.3599265 -5.0510125 11.291217
2.2037871 1.3433582 -4.9898348 11.378417
2.5892584 1.3412303 -4.9437175 11.066957
3.0177987 1.316694 -4.943481 13.078788
3.3963406 1.3732859 -4.9308996 11.503846
3.7341125 1.37731 -4.9091954 11.569673
4.1287913 1.3306544 -5.108026 14.039203
4.6276441 1.370207 -5.1079326 14.203645
4.9831986 1.3710556 -5.0936589 13.719975
5.3575082 1.3533325 -5.0044622 14.438804
5.6949587 1.4035273 -5.02981 13.865767
-1.0187248 1.8089491 -5.0033045 14.295238
-0.71290165 1.7772789 -4.9660792 14.345633
-0.069097102 1.7693615 -5.1903234 14.5
0.1937118 1.7741938 -5.1765633 14.223809
0.56906599 1.77355 -5.1594605 14.243999
1.0171471 1.780211 -5.1253705 13.844444
1.4118958 1.6602491 -5.105001 12.552888
1.8372951 1.6543417 -5.041532 12.412772
2.1993604 1.6635288 -4.9898582 12.536983
2.5918858 1.6740583 -4.9485803 12.227731
3.0068874 1.7809287 -4.9530396 12.518651
3.404402 1.7221106 -4.9315085 12.183333
3.7336438 1.7214643 -4.8667998 12.135802
4.179522 1.7144412 -4.950448 13.247456
4.6725459 1.7811868 -5.0772276 14.286938
5.0141649 1.7578856 -5.1032677 14.4662
5.3961229 1.7637417 -5.0031753 14.631156
5.7509785 1.7276366 -4.9918146 14.543542
-1.0579666 2.1591039 -5.0411267 15
0.26550341 2.0509403 -5.1924839 15
0.58766401 2.0565796 -5.1793303 14.7
1.0745878 2.0344894 -5.1629744 13.69039
1.4208069 2.0569489 -5.121666 13.650426
1.8286353 2.0714967 -5.0633321 13.72459
2.2184536 2.102031 -5.0058064 13.722445
2.5882466 2.1239934 -4.9581656 13.711485
2.9529235 2.1525304 -4.9278946 13.893454
3.4471588 2.1282706 -4.9276953 13.474496
3.7305367 2.2022643 -4.8666167 13.61746
4.1823263 2.1713336 -4.8553619 14.059215
4.6973934 2.2628698 -4.897182 14.133249
5.0703149 2.2556999 -5.126183 14.552334
5.4410095 2.1445203 -5.0670972 14.789643
5.7403421 2.1068678 -5.0086432 15
1.0848383 2.4871197 -5.1686888 15
1.4230663 2.5107608 -5.1347537 15
1.8166215 2.5303562 -5.0699735 15
2.2131193 2.5557389 -5.0000005 15
2.5893493 2.5819969 -4.9468417 15
2.9753351 2.52864 -4.9342675 14.744047
3.3608778 2.5007339 -4.931273 14.570705
3.7529259 2.476908 -4.9533272 14.944445
4.1797194 2.4628737 -4.8598304 15.059214
4.600811 2.511797 -4.8563161 15.133249
5.1429205 2.6880314 -5.021544 15.1365
-7.310132 -0.14572994 -4.6163096 7.6334562
-7.1272593 -0.1868439 -4.6118655 7.2607522
-6.6055098 -0.26548976 -4.5879683 5.405797
-6.2049217 -0.23460883 -4.5986657 4.9047618
-5.7836637 -0.21019854 -4.621398 4.7948718
-5.3864837 -0.17233105 -4.5846362 4.7800002
-5.0310969 -0.13996191 -4.6111264 4.9012351
-4.6071587 -0.11199445 -4.5975838 4.9130435
-4.1949759 -0.097924814 -4.5935249 5
-3.8272173 -0.076701976 -4.6414275 5.090909
-3.404145 -0.043419059 -4.542851 5.1111112
-3.0402281 -0.02913324 -4.6089988 5.5
-1.7139523 -0.17536198 -4.6335101 7
-1.4180799 -0.1861188 -4.5843744 7
-1.0278463 -0.16442038 -4.6546082 7
-0.49981356 -0.18501909 -4.5720625 7.0354233
-0.27321276 -0.17064677 -4.6143274 6.6777782
0.23080458 -0.17704923 -4.4956198 7.0049243
0.62652445 -0.18101019 -4.5035305 6.6701727
1.0182164 -0.21804199 -4.5819683 5.590909
1.3935399 -0.18246393 -4.6071234 5.5999999
1.8117738 -0.14747438 -4.5779219 6.1399999
2.1923492 -0.18999545 -4.6209173 5.1904764
2.6730409 -0.20534025 -4.6038046 4.6845236
3.0192139 -0.17360988 -4.634542 6.4535522
3.366982 -0.18326163 -4.5807476 5.0916662
3.8263183 -0.14164698 -4.5630879 6.219955
4.1141324 -0.12416568 -4.5809646 6.9169927
4.6178455 -0.18139768 -4.6148386 7
5.1123304 -0.10863718 -4.454567 7
5.3484254 -0.17340136 -4.5252209 7
5.6491308 -0.10366137 -4.605238 7
-7.2952714 0.21545886 -4.5844903 11.423191
-7.1671972 0.1883588 -4.6309056 11.976253
-4.1005116 0.014698811 -4.4988031 6
-3.7708941 0.036691699 -4.5797157 5.8333335
-3.3745761 0.0573579 -4.5950341 5.7142859
-2.9756367 0.044586629 -4.5639024 5
-2.6063926 0.044243604 -4.5894794 4.8333335
-2.2108431 0.073426634 -4.6426888 4.8636365
-1.7571126 0.21810222 -4.5622063 7.7010236
-1.4398161 0.2812902 -4.6042027 8.7101974
-0.95255387 0.21457078 -4.5988045 8.3423176
-0.50132817 0.13450238 -4.5815983 10.372695
0.24648224 0.19325876 -4.4872298 10.466921
0.60354346 0.19277236 -4.4897189 11.34035
1.9686289 0.28370383 -4.6737008 8.5
2.115387 0.25096208 -4.5947156 8.4358969
2.6319575 0.18534958 -4.6513968 7
3.0635953 0.10882825 -4.6095681 8.4764147
3.3160698 0.14003089 -4.6026082 8.2307692
3.8084068 0.25136781 -4.5714235 8.3717861
4.0855842 0.18977934 -4.5664577 10.586336
4.5589705 0.09307985 -4.6060228 8.5216255
4.8697529 0.10900091 -4.5565524 8.5169001
5.3525033 0.13160156 -4.5835056 8.5340834
5.6636205 0.20044193 -4.6119666 8.7643938
-7.298595 0.59306771 -4.6045055 12.702999
-7.1855698 0.59563011 -4.7346315 14.132223
-1.6757256 0.60690778 -4.5334282 12.320185
-1.4485993 0.64085412 -4.5490146 11.126254
-0.9276346 0.60103768 -4.5905032 10.966127
-0.5523544 0.52899665 -4.5965247 12.827544
-0.0889467 0.51867282 -4.414259 8.6752501
0.17349193 0.45397797 -4.4951029 10.648766
0.58134824 0.43256858 -4.487124 12.602521
1.9653481 0.65173393 -4.6720881 10
2.1032081 0.65987033 -4.5895381 10.362319
3.059675 0.51856434 -4.5980506 10.75
3.3110092 0.53005564 -4.6269307 10.25
3.8593688 0.62594748 -4.6596718 9.2568102
4.1036143 0.58228397 -4.5763321 12.317103
4.579618 0.59787548 -4.5729566 11.167063
4.8504968 0.61235446 -4.568553 11.154929
5.3558965 0.53602779 -4.5789165 10.714651
5.66151 0.57070494 -4.6031327 10.953242
-7.3778973 0.97437102 -4.6066833 14.094897
-1.6588849 1.0235512 -4.6494718 13.471727
-1.4395062 1.0040596 -4.5801387 13.609201
-0.94553941 0.98211956 -4.6061029 12.667434
-0.62894815 0.93511683 -4.5779972 14.153132
-0.091483414 0.86114454 -4.4194546 10.1775
0.22975343 0.86616766 -4.4021463 10.1765
1.9705954 1.025262 -4.6547136 11.5
2.1030328 1.0412637 -4.5934105 12.10606
2.7576523 0.91483313 -4.7667198 9.5
3.0391097 0.93150574 -4.6386118 11.876543
3.3577576 0.93942702 -4.6544824 10.469072
3.8181918 0.96270186 -4.6310143 9.5688667
4.1617393 0.97578108 -4.4974113 9.78053
4.4298635 1.0080583 -4.4122186 9.5
5.3734126 0.95181227 -4.58149 12.979872
5.6806712 0.94552791 -4.6185694 12.806429
-7.4295044 1.2592466 -4.6138382 14.8125
-1.6833081 1.3763779 -4.6192932 14.125
-1.3762995 1.3551965 -4.5607285 14.710166
-0.95919126 1.3565533 -4.6045299 13.937229
-0.74006057 1.4045194 -4.6160817 14.466031
1.9759115 1.4493521 -4.5863733 13.25
2.1041677 1.4319819 -4.6133761 13.862318
2.7515819 1.3637336 -4.7786784 11
3.0444725 1.3242559 -4.6619954 13.471066
3.3711281 1.3825876 -4.6609435 12.053922
3.8219464 1.4213564 -4.63657 11.027296
4.1655827 1.4455822 -4.5118761 11.008864
4.418879 1.4798855 -4.4153819 11
5.3574767 1.3588532 -4.5688238 14.63698
5.7535458 1.3828021 -4.6201315 13.888659
-0.99865931 1.7936382 -4.6375642 14.447619
-0.75019276 1.6315173 -4.6981993 14.93075
1.9770353 1.8239768 -4.5765481 14.714286
2.0988276 1.7419459 -4.581583 14.966666
2.7549741 1.6665941 -4.7820501 12
3.0146868 1.6866103 -4.7416935 12.130435
3.4003415 1.7103093 -4.6876392 12.173913
3.8266385 1.7425047 -4.6424751 12.054545
4.1621189 1.7707431 -4.512248 12.036666
4.4398236 1.7906195 -4.4831071 12.105542
4.9869804 1.8678902 -4.7553101 12.63
5.4158297 1.7790366 -4.5815835 14.785714
5.749032 1.7631158 -4.5961103 14.585433
-1.0047188 2.1105371 -4.6481943 15
2.7604997 2.1287384 -4.7907043 13.5
3.037782 2.1529069 -4.7526474 13.5
3.4208491 2.0983174 -4.6909847 13.25
3.8390162 2.14713 -4.6543441 13.323584
4.1429873 2.1179194 -4.5269704 13.143518
4.4356022 2.130863 -4.4921584 13.188876
4.9734192 2.3129313 -4.7629886 14.13
5.47334 2.0596042 -4.7330322 15
5.7434025 2.0747125 -4.687777 15
2.7602878 2.5983295 -4.7952032 15
3.0542541 2.6275663 -4.7529449 15
3.4122036 2.5718899 -4.697741 14.716981
3.7753704 2.5253463 -4.6180024 14.469804
4.1663561 2.4430459 -4.5251551 14.138576
4.4138308 2.4495702 -4.4376402 14
4.9635096 2.6154397 -4.7676077 15.13
-7.2822676 -0.14479803 -4.1827912 7.6859641
-7.1277061 -0.2109465 -4.2314534 6.6729598
-6.6335735 -0.26440984 -4.2075887 4.7173915
-6.2189708 -0.24409509 -4.2540812 4.7916665
-5.8051505 -0.22714624 -4.2504783 5.0454545
-5.3791914 -0.18502836 -4.2115636 5.15942
-5.0022182 -0.16933556 -4.2110076 5.375
-4.5720544 -0.11306224 -4.2099304 5.409091
-4.2192616 -0.087378509 -4.2031045 5.0588236
-3.8048227 -0.076685518 -4.2017522 5.1666665
-3.3874083 -0.04939498 -4.2337708 5.25
-3.0834339 -0.036554154 -4.1805372 5.75
-2.7297723 -0.016274802 -4.2990756 6
-1.3744857 -0.11272992 -4.1634698 7
-0.97287434 -0.095643319 -4.1217513 7
-0.52736056 -0.19159777 -4.2071757 6.9046478
-0.17316136 -0.18422696 -4.2194743 6.4285712
0.23531359 -0.22406933 -4.188776 5.8888888
0.58580375 -0.17975713 -4.2708206 6.5682745
1.0164416 -0.23186694 -4.1771235 5.0769229
1.3397757 -0.21346815 -4.2257829 5.2380948
1.7906344 -0.20834112 -4.1806402 5.0999999
2.1980073 -0.15050742 -4.1725125 5.625
2.622016 -0.20176902 -4.1576753 5.1333332
3.0327907 -0.17812455 -4.1936412 6.0588241
3.3700178 -0.18134737 -4.1834455 4.8263888
3.8277833 -0.14620374 -4.1878524 5.8583336
4.0852318 -0.11867639 -4.1958737 6.8188934
4.5526967 -0.13653216 -4.1471114 7
4.8708591 -0.12508756 -4.1893597 7
5.3575234 -0.16216806 -4.2348218 6.9642859
5.676434 -0.072342046 -4.2298703 7
-7.2726054 0.18302856 -4.170517 11.551772
-7.1878929 0.14253867 -4.2951188 11.815965
-4.2466264 0.011729315 -4.2322626 6
-3.7839887 0.020792866 -4.2240982 5.1666665
-3.3512027 0.050227851 -4.1793213 5
-2.9763675 0.060888715 -4.2027411 5
-2.6363344 0.072286233 -4.1814423 5.3684211
-2.2140837 0.075290851 -4.2471547 4.9500003
-1.7174325 0.16843817 -4.2122612 6.9742451
-1.4817334 0.22238137 -4.1796546 7.4649911
-0.95019484 0.23016132 -4.1792521 8.0276365
-0.54934591 0.13813594 -4.1925073 10.370173
-0.063075423 0.21721292 -4.2473345 7
0.27041098 0.23659207 -4.2203641 10.324884
0.56210053 0.18859603 -4.2866664 11.602991
1.9736412 0.27247322 -4.2001448 8.5
2.1148884 0.23120901 -4.2013178 8.5
2.6637995 0.22204983 -4.1390443 7
3.0789609 0.12145172 -4.2134099 8.6844063
3.300523 0.096515834 -4.185276 8.4589043
3.8623188 0.26630223 -4.1894016 8.4260626
4.0741034 0.17599539 -4.2023573 10.304441
4.6550341 0.13724013 -4.1543226 8.7950001
4.8087921 0.15432322 -4.1732903 8.75
5.3605928 0.13594128 -4.2075057 8.6396189
5.6708474 0.21331075 -4.1870236 8.9966888
-7.3155117 0.55806863 -4.2109017 12.82476
-2.8316753 0.45776531 -4.0221133 8.5
-1.6566237 0.54790169 -4.3180571 12.962909
-1.4400743 0.56110269 -4.272922 11.861862
-0.92768109 0.59325218 -4.1896882 11.078099
-0.58403879 0.53634268 -4.1969881 12.796823
-0.061739821 0.59185821 -4.2829452 9.1104994
0.22320251 0.53642386 -4.2376738 8.8787985
0.6162253 0.52904367 -4.2028813 9.6710482
0.88364995 0.58216441 -4.2250271 8.6774998
1.9712329 0.65889597 -4.2053528 10.1875
2.1132519 0.62798804 -4.2039242 10.487357
3.0775516 0.5259676 -4.2077155 10.980911
3.292279 0.49830177 -4.1976252 10.5
3.8566542 0.63553149 -4.1762934 10.018001
4.0913138 0.58641922 -4.2040343 12.524854
4.6492944 0.59750253 -4.1610641 11.807395
5.366209 0.54058146 -4.2020378 10.867122
5.6819601 0.58191001 -4.187593 11.617303
-7.3981376 0.95114297 -4.1835217 14.108843
-7.1946201 0.97434211 -4.1389751 14.1
-2.8430459 1.0095875 -4.0376706 10.75
-1.4629655 0.92893225 -4.2979546 13.944988
-0.9338311 0.98615634 -4.1784334 12.923624
-0.60805678 0.92838484 -4.2045231 14.149802
-0.065955199 0.82935023 -4.2952938 10.17075
0.16323139 0.84542072 -4.2417865 10.246308
1.9705707 1.0095717 -4.2218027 11.6875
2.1073785 1.0284269 -4.1986537 12.506897
3.0750241 0.93630415 -4.2076445 13.26492
3.2909453 0.90911418 -4.2024684 12.492754
3.7936342 0.99269748 -4.166503 10.441443
4.1408334 0.86965871 -4.2384348 12.576923
4.5547919 0.9181816 -4.2637 11.181818
5.3589911 0.97984934 -4.1949396 13.414582
5.7006583 0.97496063 -4.1703091 12.800583
-7.4659591 1.2587032 -4.1559019 14.895833
-2.8511941 1.5681027 -4.0432658 13
-1.3689218 1.3109092 -4.3354387 14.6775
-0.93910289 1.3712188 -4.1919651 14.101345
-0.77996606 1.3596706 -4.263329 14.151333
1.9664371 1.4417999 -4.1950622 13.5
2.1037841 1.4120618 -4.2033114 14.321428
3.1073706 1.3005644 -4.1972232 14.600939
3.2866864 1.3306882 -4.2103119 14.5
3.7744999 1.2462287 -4.197732 11.1362
4.474678 1.4870622 -4.3715343 11
5.3699479 1.3191112 -4.2413507 14.451319
5.747437 1.3905295 -4.179996 14.08888
-2.8591256 1.9517292 -4.054162 14.5
-0.97776163 1.7675669 -4.2062826 14.495832
-0.78718746 1.6747818 -4.3573771 14.5
1.9642923 1.8073485 -4.2003016 15
2.0612314 1.7175905 -4.1455407 15
3.0691395 1.638983 -4.2621293 15
4.4969053 1.8082374 -4.360249 12
5.3950992 1.7166914 -4.2360692 14.892858
5.7170634 1.7579957 -4.1682053 14.832231
-0.92285788 2.0558789 -4.2635036 15
4.3543663 2.1149335 -4.3945065 13
4.4947581 2.1314077 -4.3711782 13
5.7950068 2.0076349 -4.3638983 15
4.4857254 2.4568164 -4.3732648 14
-7.2818952 -0.14415704 -3.7973695 7.7369289
-7.0849905 -0.25743476 -3.8284841 5.4919114
-6.6640029 -0.29858339 -3.8069208 5.1666665
-6.2222972 -0.26662943 -3.8069038 4.8333335
-5.8256836 -0.25671664 -3.8240874 5.0555558
-5.4261584 -0.18986264 -3.7370472 5.6274509
-4.9718237 -0.12379357 -3.7842195 4.8888884
-4.5997872 -0.067246251 -3.7990055 4.877193
-4.2136898 -0.082726605 -3.8441978 4.6923075
-3.8313425 -0.07331457 -3.7832811 4.909091
-3.4279408 -0.039319284 -3.8549242 5
-2.9141514 -0.11262017 -3.7712796 6.3333335
-2.7153683 -0.086658888 -3.9062786 6.3333335
-1.3112932 -0.10035581 -3.8541682 7
-0.99340278 -0.11899591 -3.8252845 7
-0.55613619 -0.18569788 -3.7824795 6.8484616
-0.1561075 -0.245903 -3.7800293 5.5500002
0.2303561 -0.24027452 -3.7925484 5.2619047
0.59674734 -0.23204423 -3.8077247 4.9673915
1.0049788 -0.22142661 -3.8195212 4.8431373
1.3713516 -0.2166149 -3.7718806 4.5093751
1.7812625 -0.21375237 -3.7590253 4.729167
2.1632524 -0.14239487 -3.7866156 5.5787034
2.5552471 -0.19286834 -3.7806091 4.7222219
3.0401812 -0.18317027 -3.7693193 6.1847224
3.4222789 -0.16611558 -3.8145707 5.0789475
3.8700442 -0.12748443 -3.8051991 5.8716745
4.1464443 -0.094097354 -3.8047175 6.5666976
4.5718212 -0.090879925 -3.7416043 6.6658058
4.9128723 -0.080162555 -3.6989312 6.7639785
5.3551154 -0.1355025 -3.7525218 6.9478259
5.7105527 -0.075770468 -3.7772841 6.8948417
-7.2843227 0.15787949 -3.8111877 11.49369
-7.1889029 0.004517898 -3.9744251 11.347826
-5.3757491 0.16868384 -3.6713812 11.262004
-4.1226287 0.017526999 -3.7568898 4.5999999
-3.771872 0.042202491 -3.7931964 3.7
-3.4455249 0.072074696 -3.7866817 3.4615386
-2.8892479 0.11532693 -3.7285523 6.6119046
-2.706331 0.14861366 -3.7815919 6.8421988
-2.1113577 0.10724375 -3.8845522 6.3759694
-1.7987903 0.13186638 -3.9186378 6.4054055
-1.4108043 0.16161533 -3.8422346 4.8796296
-0.95997149 0.22237088 -3.8163385 7.4579029
-0.58104759 0.13309532 -3.7957478 10.423765
1.9770329 0.2535879 -3.8178318 8.5
2.1226046 0.22086571 -3.7899923 8.6459999
2.7343893 0.20404057 -3.6616814 7
3.0539055 0.11808407 -3.8103695 8.7689075
3.3491817 0.20072609 -3.8474693 8.125
3.9439716 0.17956348 -3.8342578 10.445417
4.1413021 0.17648134 -3.8166404 10.541226
4.6019163 0.20734765 -3.7588313 10.538284
4.8904881 0.20156388 -3.7081168 10.021889
5.372354 0.14175802 -3.8007615 8.7105436
5.7168713 0.21293153 -3.7794042 9.1248055
-7.3503571 0.56820315 -3.8037038 12.749142
-5.395237 0.54575861 -3.6715558 13.916667
-2.8428319 0.547876 -3.7583563 10.984479
-2.787729 0.60113674 -3.7659018 11.985714
-0.9498359 0.5810104 -3.8097756 11.225024
-0.60367405 0.52566355 -3.7865252 13.148055
1.9746014 0.68430763 -3.8259473 10.5
2.1199663 0.61771262 -3.7870588 10.908212
3.0513568 0.52246249 -3.811507 11.322246
3.3098364 0.61341333 -3.9100649 10.5
3.8952618 0.59076351 -3.8525758 12.110975
4.1371317 0.56821531 -3.8426478 12.896467
4.6024771 0.56654191 -3.7862601 12.95428
4.8964615 0.5604744 -3.7159884 12.876748
5.3746848 0.54028869 -3.8013737 11.065991
5.7209516 0.58215052 -3.7719507 11.905836
-7.4200845 0.93346065 -3.8111076 14.173738
-2.8491371 0.94066638 -3.7769837 13.518201
-2.7882946 0.98752993 -3.8224449 14.333334
-0.95092779 0.97300619 -3.8257008 12.909091
-0.61902994 0.9170996 -3.7821357 14.322481
1.9755498 1.0954396 -3.798269 12.416667
2.1178594 1.0214736 -3.7960029 13.165556
3.0504234 0.90738368 -3.8158121 13.663051
3.2860942 0.97853845 -3.8932343 12.375
3.8348885 0.96187294 -3.8742537 10.482
4.1493292 0.83350784 -3.8733578 13.395833
4.5966234 0.83165401 -3.7925441 13.442307
4.877564 0.84465057 -3.75577 12.857142
5.3680062 0.9520911 -3.8069067 13.47093
5.7384367 0.99853539 -3.7535856 13.181799
-7.4923487 1.2694032 -3.7891502 14.9
-2.9001472 1.3451546 -3.7787671 13
-0.96920675 1.3851566 -3.8396127 13.721944
1.9764303 1.4503058 -3.7734997 14.071428
2.104846 1.3731281 -3.8328958 14.576191
3.0795352 1.2560611 -3.8567936 14.639423
3.3369386 1.3505194 -3.905916 13.875
3.7538929 1.2205247 -3.8033435 11.132834
5.3897185 1.2966799 -3.8127677 14.596589
5.7522039 1.3669076 -3.786566 14.364382
-2.906667 1.744451 -3.7937188 14.060605
-0.98484862 1.8023102 -3.8531244 14.769231
1.9690243 1.6893467 -3.8452849 15
2.0326719 1.696479 -3.7588401 15
3.3742657 1.6562634 -3.8647978 15
5.4577174 1.7468654 -3.8224006 14.97436
5.6948638 1.7308551 -3.7980304 14.796297
-2.9096727 2.0101461 -3.8504333 15
-7.294467 -0.14874671 -3.396071 7.8753219
-7.1202068 -0.2820949 -3.4130199 5.6692462
-6.6503539 -0.27256817 -3.3700316 4.9285712
-6.2537107 -0.26334679 -3.3924739 4.8571429
-5.8235383 -0.2312279 -3.4034839 4.7936506
-5.366199 -0.12962693 -3.4305856 6.1216569
-5.0335217 -0.048390616 -3.4285071 5.625
-4.5951982 -0.051570382 -3.4043043 5.1708331
-4.1992607 -0.026066868 -3.3528562 6.1571426
-3.8095696 -0.027274635 -3.3643296 5.9730954
-3.4217761 -0.026192168 -3.4611032 4.8518515
-2.8825312 -0.1473428 -3.4216361 7.0999999
-2.7851648 -0.21601667 -3.2932863 7
-1.276505 -0.13278985 -3.5346622 7
-0.9393509 -0.12166257 -3.4503243 7
-0.58726519 -0.18064332 -3.3824744 6.8355889
-0.20232648 -0.23263671 -3.3889029 5.3872552
0.20254029 -0.22765779 -3.3733888 5.0027781
0.55917197 -0.21759193 -3.3879721 5.0294118
1.0002688 -0.2113011 -3.4107761 4.5343137
1.4172385 -0.21330301 -3.36321 4.6620369
1.8162209 -0.19944282 -3.4072697 4.4565215
2.1664481 -0.12607965 -3.4060841 5.9583335
2.6244569 -0.18291251 -3.4281616 4.8091402
3.0705981 -0.18703225 -3.3604698 6.4596496
3.3532469 -0.17153974 -3.390615 5.5277777
3.763839 -0.15632208 -3.3854423 5.2857141
4.1641512 -0.14339069 -3.3711162 5.1568627
4.5769992 -0.13416451 -3.3299763 5.5111113
4.9523458 -0.12530082 -3.3699582 5.7333331
5.3879919 -0.12910692 -3.4221635 6.9407716
5.7214212 -0.068141818 -3.4269457 6.884295
-7.3094983 0.16685489 -3.3926368 12.039898
-7.1775274 0.040547669 -3.3080528 9
-5.3815722 0.17302549 -3.4261498 10.973442
-4.9896894 0.19302687 -3.4101453 10.109098
-4.6198087 0.17859884 -3.3735096 9.6566763
-4.2077208 0.21984455 -3.3404179 10.065376
-3.7974579 0.2100345 -3.3094482 9.594245
-3.4246228 0.2007682 -3.2889624 8.8306084
-2.9094818 0.20498069 -3.3513014 8.3269768
-2.7338099 0.15905035 -3.4565833 6.6054893
-2.2414126 0.10951261 -3.4186804 4.9722223
-1.8037181 0.14054039 -3.3487828 5.0833335
-1.4286897 0.16597609 -3.4278281 4.7619047
-0.94603384 0.20911475 -3.3941841 7.287674
-0.59869033 0.16961385 -3.3789592 11.412193
1.9678299 0.25101078 -3.5249102 8.5
2.1151686 0.22113958 -3.3988471 8.726531
2.6363819 0.19120584 -3.3544462 7
3.062623 0.11687177 -3.3784645 8.8190165
3.2996001 0.115771 -3.3456292 8.7891998
3.9555676 0.22101259 -3.3717062 8.2016668
4.0674186 0.19402896 -3.2359531 8.7660751
4.4610295 0.20232509 -3.2599268 8.6037502
5.3821526 0.14517353 -3.3989408 8.8132858
5.70996 0.208894 -3.4010873 9.162982
-7.3967867 0.55636907 -3.4049549 12.651628
-7.1785221 0.43118954 -3.4142697 11.5
-5.4056988 0.57157612 -3.4583852 13.826638
-4.9821267 0.56891686 -3.4198263 14.264915
-4.5633812 0.56046051 -3.3849356 14.330306
-4.1840491 0.52055007 -3.35887 14.521975
-3.7656248 0.52477372 -3.3214421 14.54446
-3.3700488 0.53603911 -3.2882116 14.313391
-2.8757098 0.58383495 -3.3671775 12.7151
-2.7924402 0.50607389 -3.5001547 12.777557
-0.95884162 0.5592683 -3.3879373 11.330276
-0.64855325 0.53898293 -3.3667095 13.349721
1.9648631 0.65840364 -3.5304801 10.5
2.1108658 0.62485689 -3.4017158 11.170213
3.0607269 0.527915 -3.3797064 11.609382
3.2857614 0.51815695 -3.3656781 11.147368
3.9757071 0.55582482 -3.3089156 11.0525
4.0613842 0.57865888 -3.2342131 11.014613
4.4585915 0.59666634 -3.2634931 10.60375
5.3834229 0.53507769 -3.4023943 11.318511
5.7086782 0.5920803 -3.3931835 12.171656
-7.4507618 0.93700254 -3.4226425 13.874428
-7.189693 0.82601118 -3.3195605 14.1
-5.497807 0.90085131 -3.4698629 15
-2.870909 0.9366203 -3.4118798 13.689182
-0.94867885 0.93596429 -3.3885741 13.374211
-0.62740111 0.92119986 -3.3877649 14.330882
1.9679464 1.0369678 -3.3346655 12.5
2.111809 1.0107497 -3.4077899 13.439104
3.0617604 0.91634637 -3.3826683 14.083834
3.2862704 0.95529419 -3.3427267 13.818182
5.3804855 0.94133824 -3.4004707 13.788582
5.7223992 0.97179979 -3.3979466 13.602736
-7.5251484 1.2865589 -3.3986115 14.946428
-2.920656 1.3129772 -3.4084589 12.829545
-0.90782571 1.3151424 -3.4099586 13.8
1.9652429 1.4496882 -3.3420446 14.5
2.0919039 1.3702323 -3.4111931 14.752874
3.0892568 1.2307411 -3.3576708 14.961538
3.2446818 1.3457102 -3.4178977 14.7
5.3841562 1.2655547 -3.4341378 14.697426
5.7265134 1.3403701 -3.3854916 14.495833
-2.9345093 1.7761086 -3.3998418 14.576923
-0.93612921 1.7619288 -3.4012065 14.7275
5.4909859 1.7013923 -3.3794746 15
5.6840782 1.7184157 -3.3556767 15
-7.3030534 -0.16550824 -3.036562 7.5265393
-7.021955 -0.28066722 -2.9765601 5.1960783
-6.6091475 -0.2516737 -3.0010066 5.0625
-6.1893682 -0.22088858 -3.0062556 4.4736843
-5.8176799 -0.22824217 -2.9835024 4.416666
-5.4107981 -0.14930789 -2.9960887 5.7990141
-5.0047231 -0.11674819 -2.9189672 3
-2.8333354 -0.2128536 -3.0520043 7
-0.94090164 -0.087532967 -2.917017 7
-0.60588855 -0.17759614 -3.0035479 6.7061005
-0.11205485 -0.22209808 -2.9764495 5.1999998
0.20742032 -0.21485706 -2.9803317 5.2631578
0.63589138 -0.20943978 -2.979985 4.8236837
0.99820763 -0.20295399 -3.0130188 4.2264705
1.458431 -0.20773996 -2.9479742 5.0980387
1.7982663 -0.18097761 -2.9634302 4.7258062
2.1618304 -0.12087524 -2.9808087 5.7075472
2.5699327 -0.16968501 -2.9704335 4.7962961
3.039144 -0.13225287 -3.0511944 6.5309734
3.3994792 -0.16710943 -2.9852846 5.5294118
3.8095684 -0.15080972 -2.9907625 5.4608693
4.1409526 -0.10820913 -2.9355371 6.7196865
4.5635791 -0.1277986 -3.0184884 5.689189
4.9692712 -0.12466963 -2.9907649 5.5625
5.3816915 -0.12853026 -2.961731 6.9660196
5.6923356 -0.058662906 -2.9989104 6.8577776
-7.3444276 0.15307358 -3.0025015 11.495724
-5.4170675 0.12881447 -2.9880428 11.986112
-4.0612268 0.16141185 -3.0817308 3
-3.8867311 0.077687778 -2.9342277 3
-3.4116075 0.10749362 -2.9004393 3
-2.8591995 0.20326881 -2.9981151 7.7936573
-2.6006989 0.13174418 -3.0284314 5.0216765
-2.2814214 0.14414528 -3.002847 4.4358974
-1.8343894 0.15566123 -3.0251632 5.1999998
-1.3836884 0.18054983 -3.0017526 4.6750002
-0.96196616 0.21318951 -2.9798584 7.7815461
-0.64047796 0.17758632 -2.995996 11.63805
1.968991 0.24693237 -2.95928 8.5
2.1136365 0.21463498 -3.0074537 8.757576
2.7672694 0.20344964 -3.102459 7
3.061945 0.14955342 -2.9791374 8.8685923
3.3175294 0.14812833 -2.9486907 8.568182
3.9858036 0.15928261 -2.9655356 9.4629774
4.2402496 0.16124618 -2.9710321 9.1865768
4.4650769 0.16667892 -2.9619133 9.375
5.3920956 0.1459409 -2.9963357 8.8956146
5.6922669 0.2127018 -2.9979424 9.2487993
-7.3961291 0.55011958 -3.0103848 12.913452
-7.1994181 0.47539878 -3.1376226 12
-5.460465 0.48569551 -2.9886549 13.779487
-2.8683383 0.55423176 -2.9978144 12.289483
-0.96692067 0.56458056 -2.9753261 11.52888
-0.65479606 0.52044189 -2.9329877 11.671087
-0.32209679 0.53917438 -2.8975637 8.5
1.9763864 0.60856533 -3.0352535 10.5
2.1178429 0.61273354 -3.0145454 11.338485
3.0627229 0.58945376 -2.9843163 12.653325
3.3248494 0.51637167 -2.9911988 11.970589
3.9846847 0.53270644 -2.9674845 12.899901
4.2408605 0.52526146 -2.9767542 12.125723
4.4608016 0.53316587 -2.9805012 12.53125
5.3903012 0.54845917 -2.9916604 11.687496
5.6842346 0.57978523 -2.9837303 12.427526
-7.5089049 0.95421332 -2.9933507 14.239631
-2.9215276 0.93034172 -2.992017 12.698413
-0.95073783 0.93713415 -2.9897892 13.481488
-0.63500202 0.90570396 -2.8724799 11.720025
-0.33225635 0.94125456 -2.8990982 10.5
1.9588193 1.0283976 -2.9558825 12.75
2.1123197 0.99278635 -3.0132244 13.669578
3.0773275 0.91465658 -2.9762228 14.252253
3.3200786 0.86880702 -2.9788251 14.489584
5.3827195 0.94304115 -3.0039377 14.153906
5.6978807 0.99635112 -2.996067 13.619111
-7.5596399 1.2656592 -3.1237826 15
-2.9469252 1.315676 -2.9873941 13.077656
-0.92443287 1.3110831 -2.9388416 13.854095
-0.61517239 1.3150262 -2.8221231 12.5
-0.33591294 1.3506484 -2.9114416 12.5
1.9568244 1.4145396 -2.9701018 14.75
2.0931332 1.3471633 -3.0265689 14.845238
3.0703545 1.228079 -3.0620897 14.954545
5.3929439 1.2457242 -3.0102539 14.899123
5.7005792 1.3384291 -2.9939334 14.693548
-2.95612 1.6851933 -2.948853 14.683332
-0.9040066 1.6966287 -2.8968475 14.617647
-0.6212247 1.7341079 -2.8319261 14.5
-0.33520386 1.7706866 -2.9255331 14.5
5.476388 1.6387475 -3.132153 15
5.6760616 1.6515448 -2.9086699 15
-7.320972 -0.17167613 -2.6037173 7.3846951
-7.0018272 -0.28389642 -2.6103048 4.9607844
-6.6247053 -0.25725216 -2.6353891 5
-6.1752558 -0.21449059 -2.615664 4.121212
-5.8062596 -0.206239 -2.5621362 4.0961537
-5.4388976 -0.14735083 -2.6121776 6.0921416
-5.0716782 -0.10415146 -2.561955 3
-4.7943926 -0.10371222 -2.6992307 3
-2.8541048 -0.19714482 -2.6607225 7
-0.94252634 -0.079444386 -2.5471306 6.9868422
-0.65721983 -0.16707733 -2.6016414 6.6738997
-0.19738378 -0.20717125 -2.5894945 4.9413581
0.19892202 -0.19587088 -2.5959837 4.6666665
0.57132077 -0.20193218 -2.6155436 4.7614942
1.0112629 -0.19003692 -2.6429667 5.1794872
1.4463248 -0.18868813 -2.5868907 4.8397436
1.841423 -0.17450583 -2.5971246 4.6434107
2.1808453 -0.11906283 -2.6028185 5.6544442
2.5720243 -0.1643171 -2.605283 4.8708334
3.0466213 -0.11550922 -2.5437438 6.4454026
3.4107177 -0.14303102 -2.5749714 5.9086018
3.7664521 -0.15209374 -2.6338465 5.061111
4.1528339 -0.11034925 -2.6500516 6.6088438
4.5548444 -0.13243365 -2.596962 5.2986112
5.0080228 -0.12434315 -2.628036 5.4722228
5.3740196 -0.10615224 -2.5680714 6.9473686
5.6731191 -0.053906739 -2.6157312 6.8423615
-7.3473663 0.12752108 -2.619627 11.661572
-5.4427948 0.13247134 -2.6229281 12.200821
-2.877368 0.19482072 -2.5957489 7.8324466
-2.5864294 0.1408837 -2.6115601 4.6420293
-2.2570252 0.16043238 -2.5915375 4.3690476
-1.7893069 0.17897759 -2.6302705 5.023809
-1.3727069 0.18351598 -2.5952928 4.6851854
-0.98401642 0.21359178 -2.5980384 8.0531006
