# .PCD v0.7 - Point Cloud Data file format
VERSION 0.7
FIELDS x y z intensity
SIZE 4 4 4 4
TYPE F F F F
COUNT 1 1 1 1
WIDTH 1370
HEIGHT 1
VIEWPOINT 0 0 0 1 0 0 0
POINTS 1370
DATA ascii
1.7675235 -0.44858134 1.2756195 14
-3.5580249 -1.5539478 0.71858531 14
-1.284349 -1.3145251 2.1120224 14
-1.8726143 -1.474133 0.15789407 15
1.772589 -0.28772616 1.2774487 15
-1.2875601 -1.2625377 2.0809503 15
-1.9667759 -1.4238793 -0.11198694 15
-1.4638991 -1.7706478 1.1067796 5
-1.7955153 -1.8003626 0.25763571 5
-1.466848 -1.7756928 1.3538269 5
-1.4703245 -1.738811 1.1068323 6
-1.4944485 -1.7419779 1.2910987 6
-1.4727141 -1.7424617 1.3530959 6
-1.7931535 -1.7659197 0.25036389 6
-3.5295005 -1.9262502 0.72417039 6
-1.9319046 -1.7883768 -0.094581127 6
-1.4637656 -1.7064927 1.1072756 7
-1.4990151 -1.7103177 1.2908193 7
-1.8004043 -1.7315468 0.25670755 7
-1.4823011 -1.7098154 1.3512505 7
-3.5289052 -1.8827566 0.72543764 7
-1.2171558 -1.7036866 2.1765132 7
-1.933985 -1.7454321 -0.098469019 7
-1.4722468 -1.6750906 1.1072639 8
-1.8031032 -1.6971945 0.2566101 8
-7.4203339 -2.0981095 3.6629639 8
-1.2256075 -1.6484246 2.1733098 8
-3.5483377 -1.840917 0.72153032 8
-1.4848609 -1.6446253 1.1071217 9
-1.5083635 -1.6475681 1.2766403 9
-3.8613346 -1.5932658 -3.962142 9
-7.4344249 -1.8980218 3.6623523 9
-1.2290213 -1.5926963 2.1747808 9
-1.4931548 -1.6140068 1.1071095 10
-1.5033884 -1.6146672 1.2785045 10
-1.8067203 -1.6277686 0.25381202 10
-3.8778236 -1.4102277 -3.9651017 10
-1.2287344 -1.5358977 2.1797471 10
-3.5479512 -1.7538406 0.72386122 10
-1.5156016 -1.5846274 1.2765434 11
-1.7897344 -1.5893786 0.25034952 11
-3.8217936 -1.220077 -3.9848819 11
-7.3073368 -1.4714731 4.1431613 11
-3.5535412 -1.7101209 0.72354972 11
-1.2384702 -1.4807589 2.1753507 11
-1.5149236 -1.5518196 1.2774661 12
-1.7923466 -1.5535501 0.24997795 12
-3.8457584 -1.030329 -4.0125294 12
-7.3209257 -1.2647059 4.1415944 12
-1.2528092 -1.4270068 2.1666021 12
-1.5081147 -1.5166324 1.2797853 13
-3.8605311 -0.84224039 -4.0080843 13
-7.3492532 -1.0538971 4.1491208 13
-1.2575459 -1.3702163 2.166944 13
-1.9249619 -1.4996901 0.010480762 13
-1.7937124 -1.4784688 0.24355662 14
-7.3618164 -0.84225225 4.1466684 14
-2.08674 -1.3739469 -0.46869254 14
-1.2579523 -1.3108705 2.1714826 14
-1.927974 -1.457618 0.0094972849 14
-7.3833437 -0.62564492 4.1496239 15
-2.0908978 -1.3152583 -0.4722321 15
-1.263684 -1.2525136 2.1710379 15
-1.9311041 -1.4148147 0.0086452961 15
-1.5290735 -1.7848262 1.1241137 5
-1.5337472 -1.7519389 1.1243503 6
-1.7468245 -1.7738771 0.2435717 6
-3.5240474 -1.9201946 0.72740781 6
-1.7290335 -1.7326326 0.24389499 7
-1.5194145 -1.7181503 1.1241176 7
-3.5246789 -1.8793179 0.72856712 7
-1.213035 -1.7121375 2.1487145 7
-1.7267364 -1.6917651 0.23738325 8
-1.5237939 -1.6850202 1.1243482 8
-7.3999586 -2.0926025 3.6829224 8
-3.8703952 -1.7682159 -3.9561253 8
-1.2028701 -1.6545453 2.1604567 8
-3.5398023 -1.839764 0.7421149 8
-1.5402982 -1.653573 1.1248736 9
-7.4283195 -1.8973283 3.6903563 9
-3.8143387 -1.5781624 -3.9809871 9
-3.5215714 -1.798104 0.73240435 9
-1.208734 -1.5978373 2.1596737 9
-1.7636542 -1.6154402 0.24974549 10
-1.5408498 -1.6203188 1.1250088 10
-7.2718244 -1.6821223 4.1527405 10
-3.8285913 -1.3935418 -3.9778929 10
-1.2102101 -1.5402271 2.1623631 10
-3.5313613 -1.7577053 0.73032737 10
-1.7310307 -1.5678937 0.23132253 11
-1.5274923 -1.5838776 1.1248101 11
-7.2966614 -1.4808035 4.1590862 11
-3.8458524 -1.2067518 -3.9855065 11
-3.5356679 -1.7168553 0.73019379 11
-1.2162381 -1.4830436 2.1614842 11
-1.5368793 -1.5514429 1.1251624 12
-1.8167071 -1.5446981 0.25916928 12
-7.3071551 -1.2785182 4.1563683 12
-3.8620141 -1.0184114 -3.9884815 12
-1.2099562 -1.4220597 2.1704321 12
-1.7689111 -1.49259 0.24478257 13
-1.5493381 -1.5199735 1.1255871 13
-3.9549797 -0.83125055 -3.984746 13
-7.3169718 -1.0746008 4.1531491 13
-3.5508165 -1.6341283 0.74510145 13
-1.5516443 -1.4855623 1.1257703 14
-1.8228115 -1.4651425 0.25931448 14
-3.5487471 -1.5913243 0.7298373 14
-1.241468 -1.3113585 2.1532986 14
-1.5548929 -1.4508815 1.125978 15
-7.3539958 -0.6557579 4.1571398 15
-3.5431938 -1.5501196 0.73318183 15
-1.2375585 -1.2478817 2.1605675 15
-3.500634 -1.9504265 0.72531152 5
-1.5182327 -1.7590759 1.1164441 6
-1.5280834 -1.722772 1.1174705 7
-3.5060735 -1.8746105 0.72616136 7
-1.1862603 -1.7172034 2.1315742 7
-1.7034701 -1.6868104 0.2227748 8
-1.5216124 -1.685427 1.116914 8
-7.4274673 -2.0899496 3.6250186 8
-1.1955982 -1.6598194 2.1578507 8
-1.7090874 -1.641567 0.22556603 9
-1.53028 -1.6493771 1.1178249 9
-3.8452711 -1.5622088 -3.9670901 9
-7.4216356 -1.8979695 3.6160622 9
-3.5182438 -1.7991726 0.72383654 9
-1.1935115 -1.6011888 2.1338887 9
-1.5342216 -1.6128112 1.118278 10
-3.8621514 -1.3752807 -3.9744158 10
-7.2661533 -1.686902 4.156002 10
-1.2065849 -1.5433831 2.1577351 10
-3.5245085 -1.7609282 0.72261333 10
-1.7131207 -1.5491134 0.22273111 11
-1.5408854 -1.5766505 1.1189945 11
-3.8744917 -1.1886559 -3.9635901 11
-7.2776327 -1.4905263 4.1549573 11
-3.5190859 -1.7229033 0.72686422 11
-1.2034923 -1.4846039 2.1344714 11
-1.5390813 -1.5384014 1.1188931 12
-3.8946919 -0.99655646 -3.9825892 12
-7.2882729 -1.2928871 4.1533327 12
-3.5214646 -1.6844307 0.72747439 12
-1.2178999 -1.4258959 2.1574657 12
-1.7239969 -1.4570066 0.22777188 13
-1.5361291 -1.4990585 1.1186824 13
-7.2978649 -1.0936307 4.1509819 13
-1.2197045 -1.3680258 2.1310201 13
-1.7305167 -1.410825 0.23152256 14
-1.5224278 -1.456738 1.1795418 14
-7.3192501 -0.89000726 4.1558499 14
-3.5355814 -1.6046121 0.72443223 14
-1.2226486 -1.3072059 2.1327887 14
-1.3958235 -1.4065547 1.6042809 14
-1.5427351 -1.4217606 1.1194726 15
-1.5303563 -1.4188834 1.1801008 15
-3.5364022 -1.5646884 0.7258389 15
-1.2278605 -1.246123 2.1331053 15
-1.3981428 -1.3593855 1.6051667 15
-1.5015478 -1.7690438 1.1074569 6
-1.656262 -1.7850716 0.19803309 6
-3.5131636 -1.9089841 0.72686487 6
-1.5092976 -1.7283781 1.1086854 7
-1.7773588 -1.7411761 0.24045813 7
-3.5075026 -1.8718687 0.69793725 7
-1.4971654 -1.686216 1.1067846 8
-1.7816963 -1.6938829 0.24193633 8
-3.9494336 -1.7398586 -3.9499297 8
-3.5070388 -1.8358935 0.73463035 8
-1.6726919 -1.6321429 0.20518577 9
-1.5030767 -1.6452689 1.1077237 9
-3.9655654 -1.5519165 -3.9554205 9
-7.2127552 -1.8885758 4.1503797 9
-3.5108805 -1.8000945 0.73435736 9
-1.1779681 -1.6059167 2.1262631 9
-1.5122404 -1.6049131 1.1091747 10
-3.9033067 -1.3581775 -3.9629402 10
-1.1829517 -1.5459138 2.126719 10
-1.681303 -1.5296696 0.20737112 11
-1.5237389 -1.5652169 1.1109929 11
-3.9171009 -1.1690351 -3.9585834 11
-7.2445917 -1.5070766 4.1560345 11
-3.5235343 -1.7273828 0.73091251 11
-1.1883957 -1.4856751 2.1269355 11
-1.5202947 -1.5221941 1.1104596 12
-3.936954 -0.97467077 -3.9782553 12
-7.2698507 -1.3129952 4.1646147 12
-3.5193863 -1.6898021 0.71849465 12
-1.1938709 -1.4249924 2.1271586 12
-1.5192134 -1.4788636 1.1102988 13
-1.5202694 -1.4810332 1.1617498 13
-3.5165296 -1.6553 0.73914623 13
-1.1820874 -1.3586177 2.1371269 13
-1.692899 -1.3719516 0.20893264 14
-1.5309587 -1.4386711 1.1121557 14
-1.5229007 -1.4382371 1.1621988 14
-7.2967625 -0.91974103 4.1667266 14
-3.5242326 -1.6149788 0.71983743 14
-1.1874743 -1.295758 2.1375136 14
-1.53218 -1.3946942 1.1123574 15
-7.3011189 -0.72091675 4.161972 15
-3.5339954 -1.5724117 0.69887084 15
-1.2062628 -1.2370245 2.1303487 15
-1.4979111 -1.7878022 1.11695 6
-3.5070817 -1.9000556 0.70313603 6
-1.4941829 -1.7422825 1.1164293 7
-1.7645929 -1.7499602 0.22569501 7
-3.5137529 -1.8658212 0.71809596 7
-1.1840883 -1.7469623 2.1467876 7
-1.6854492 -1.6908607 0.20191395 8
-1.5119526 -1.6978334 1.100652 8
-7.320426 -2.0650175 3.7431664 8
-3.5110741 -1.8307861 0.70465517 8
-1.1930585 -1.6848284 2.1452014 8
-1.5021075 -1.6512711 1.0988799 9
-1.77298 -1.6461155 0.22879279 9
-7.340889 -1.8833623 3.7495275 9
-3.8729618 -1.523905 -3.9787192 9
-1.1983747 -1.6225826 2.1454463 9
-1.524255 -1.6086706 1.1031308 10
-1.783029 -1.5953407 0.23688567 10
-3.8871269 -1.3335298 -3.9823184 10
-7.1736193 -1.6854987 4.2655177 10
-3.5179901 -1.7625247 0.72165573 10
-1.1984134 -1.5593855 2.1483712 10
-1.7015977 -1.5274336 0.20972896 11
-1.5148246 -1.5610453 1.1014389 11
-3.9026937 -1.1408061 -3.991848 11
-7.1681814 -1.4990637 4.2555771 11
-3.5219264 -1.7277114 0.72092599 11
-1.5107888 -1.5133559 1.1007638 12
-1.7822011 -1.488067 0.22958827 12
-3.9157681 -0.94750786 -3.9892282 12
-7.1944246 -1.309116 4.2665129 12
-3.5206804 -1.6912422 0.70647526 12
-1.2099758 -1.4334139 2.1484656 12
-1.5307659 -1.471081 1.104605 13
-1.7869785 -1.4349164 0.23170972 13
-3.5256505 -1.6551287 0.70497751 13
-7.1954651 -1.1198295 4.2607689 13
-1.2145145 -1.3692955 2.1491861 13
-3.9123728 -1.6342349 0.87191218 13
-1.5367352 -1.4251416 1.1058125 14
-1.790444 -1.3805785 0.2323097 14
-7.2156734 -0.92529619 4.2675495 14
-1.2160761 -1.3033602 2.1514778 14
-1.5299176 -1.3742162 1.1046188 15
-3.5269413 -1.5861717 0.72641224 15
-7.2206631 -0.73072135 4.2642426 15
-1.2291296 -1.2402954 2.1478968 15
-3.9191182 -1.5421848 0.87296772 15
-1.4810516 -1.7934308 1.1484485 6
-1.4916193 -1.7439573 1.1501679 7
-1.7475426 -1.7542038 0.20524824 7
-3.5223515 -1.866648 0.71217746 7
-1.204634 -1.7428386 2.1405773 7
-1.4959487 -1.6936241 1.0875938 8
-7.2969189 -2.0511582 3.7602086 8
-3.5176227 -1.8337228 0.71930939 8
-1.2033436 -1.6773746 2.1140854 8
-1.514251 -1.6455438 1.0912521 9
-3.9052386 -1.5355109 -3.9734726 9
-7.3133121 -1.8741415 3.7648754 9
-3.51685 -1.801362 0.7225585 9
-1.2103937 -1.6129256 2.1136329 9
-1.5057917 -1.5940709 1.0893338 10
-1.7604022 -1.5837698 0.20854664 10
-3.92343 -1.3425763 -3.9983397 10
-7.0450358 -1.6808116 4.2909064 10
-3.520587 -1.7675291 0.70282847 10
-1.2137041 -1.547087 2.1445513 10
-1.5146581 -1.5448369 1.0910261 11
-1.7992945 -1.532138 0.21236432 11
-3.9371934 -1.1493979 -3.9999819 11
-7.063108 -1.5000632 4.297358 11
-3.5263348 -1.7340007 0.69974017 11
-1.2094626 -1.4807763 2.1192834 11
-1.5251758 -1.4959564 1.0930628 12
-1.8006785 -1.4744784 0.21035111 12
-3.9513841 -0.95404261 -4.003067 12
-7.0686302 -1.3187156 4.2950559 12
-3.5249557 -1.7010289 0.70372778 12
-1.2164216 -1.4134735 2.148809 12
-3.9584665 -1.6891422 0.87098551 12
-1.5255018 -1.4442658 1.0929711 13
-1.7739599 -1.4107624 0.21241355 13
-1.8196638 -1.4116211 0.15790176 13
-7.097702 -1.1321938 4.3089662 13
-3.5373259 -1.6678205 0.71300256 13
-1.2250302 -1.3472747 2.1476882 13
-1.5165945 -1.3887548 1.0909472 14
-1.7688752 -1.3477554 0.20350707 14
-1.8328074 -1.3561373 0.16907871 14
-7.1082621 -0.94548273 4.309988 14
-3.538897 -1.6337421 0.71411008 14
-1.2330072 -1.2802669 2.1468816 14
-3.9637747 -1.6017802 0.87229782 14
-1.518343 -1.3351387 1.0911453 15
-1.7710159 -1.2861774 0.20212018 15
-1.8290588 -1.2923278 0.16074467 15
-3.5387256 -1.5997314 0.71690333 15
-7.1280737 -0.75367689 4.317275 15
-1.2358495 -1.213554 2.1186233 15
-1.4852358 -1.7976886 1.151211 6
-1.4914646 -1.744143 1.1524105 7
-1.7705699 -1.7545873 0.22576618 7
-1.1830806 -1.7431136 2.1343079 7
-1.4935055 -1.6893086 1.0840795 8
-1.7718439 -1.6944482 0.22368193 8
-7.3169546 -2.0633523 3.7271347 8
-1.1968586 -1.675851 2.1318259 8
-1.5031784 -1.6359321 1.086205 9
-1.7656212 -1.6327655 0.21409416 9
-7.3317585 -1.8905177 3.7308097 9
-3.5199494 -1.8046732 0.70279211 9
-3.9697273 -1.5340388 -3.9801025 9
-1.1897789 -1.6066532 2.1372552 9
-1.5141948 -1.5830064 1.0886493 10
-3.5214536 -1.7729492 0.70409352 10
-7.079288 -1.7011138 4.2456217 10
-1.1830373 -1.5368876 2.1121142 10
-1.5007769 -1.5253686 1.0853069 11
-1.7781581 -1.5118792 0.21977592 11
-3.5184219 -1.7417768 0.71122366 11
-7.1183662 -1.5230491 4.2662315 11
-4.0004129 -1.1454649 -3.995791 11
-1.196872 -1.4688208 2.1401095 11
-1.5077103 -1.4708197 1.0867816 12
-1.7754216 -1.4482226 0.21352839 12
-3.5274706 -1.7084697 0.70289958 12
-7.1224532 -1.345165 4.2628369 12
-4.0144424 -0.94909883 -3.9955368 12
-1.1997259 -1.3987762 2.1418421 12
-1.5213716 -1.4177396 1.0898503 13
-1.7759614 -1.384315 0.21050858 13
-7.1335807 -1.1649117 4.2641907 13
-1.2092155 -1.3313099 2.1107039 13
-1.526389 -1.361912 1.0908685 14
-1.7900794 -1.3247874 0.22116733 14
-3.5216904 -1.6459714 0.71680796 14
-7.1511483 -0.98105109 4.2698374 14
-1.2073574 -1.2583485 2.1142082 14
-1.5266416 -1.3035426 1.0907536 15
-3.5204704 -1.6142476 0.72164416 15
-7.1448927 -0.7996136 4.259222 15
-1.2107971 -1.1855381 2.1158032 15
-3.6101491 -1.9363706 0.75822324 5
-3.6127741 -1.9049057 0.75801331 6
-1.752655 -1.7589344 0.22508585 7
-3.5031829 -1.8648111 0.67253512 7
-3.6207387 -1.8738925 0.75078642 7
-1.150095 -1.757027 2.1261928 7
-1.4936919 -1.695911 1.1036408 8
-1.7583941 -1.6949289 0.22761285 8
-3.5002899 -1.833009 0.68229568 8
-3.6170888 -1.8420434 0.7588076 8
-7.3332381 -2.0683544 3.6928515 8
-1.1656259 -1.686053 2.1238885 8
-1.477948 -1.6356201 1.099924 9
-1.7580581 -1.6300641 0.22440112 9
-3.5076351 -1.8011515 0.67309582 9
-7.3479934 -1.8997374 3.6971374 9
-3.6202335 -1.8105407 0.75792289 9
-3.918354 -1.5105126 -3.9942598 9
-1.1486174 -1.6120803 2.1321282 9
-1.4831227 -1.5770292 1.1012383 10
-1.7124667 -1.5582011 0.215644 10
-3.5076637 -1.7694805 0.67742461 10
-3.6213007 -1.7790048 0.75975418 10
-3.9320869 -1.3160448 -3.9972887 10
-7.1008682 -1.7175715 4.1967516 10
-1.1693304 -1.5419481 2.1281314 10
-1.4975296 -1.5199901 1.1047721 11
-1.7631874 -1.4995798 0.2233876 11
-3.508651 -1.7377093 0.67999136 11
-3.6091928 -1.747085 0.75800246 11
-3.9448557 -1.120831 -3.9935384 11
-7.1080246 -1.5462371 4.1963372 11
-1.1717851 -1.4691199 2.1300888 11
-1.4976853 -1.4598902 1.1048805 12
-1.7725298 -1.4353638 0.22928691 12
-3.5055797 -1.707009 0.68992877 12
-3.6105084 -1.7154536 0.7595495 12
-3.9604039 -0.92122078 -4.0063586 12
-7.1173811 -1.3735626 4.1973658 12
-1.1765735 -1.3960214 2.1313088 12
-1.5012956 -1.3997798 1.1058201 13
-1.7354079 -1.360045 0.2280587 13
-3.610007 -1.6840668 0.76351517 13
-7.1459451 -1.1962105 4.2112079 13
-1.1846639 -1.322982 2.1314676 13
-1.4941958 -1.3354799 1.1041878 14
-1.7806894 -1.3017966 0.23097908 14
-3.6127582 -1.651474 0.76323229 14
-7.1530972 -1.019294 4.2106194 14
-1.1849571 -1.2467899 2.1342442 14
-4.1374149 -1.6202154 0.93534017 14
-1.5098119 -1.2772582 1.1080139 15
-1.7814473 -1.2318537 0.228567 15
-3.6115568 -1.6198486 0.76816475 15
-7.1623149 -0.83945501 4.2113352 15
-4.1348457 -1.5775129 0.93875372 15
-1.1861446 -1.1692991 2.1367838 15
-3.7380457 -1.9495099 0.80156583 5
-3.7415438 -1.9174442 0.80025262 6
-3.7420053 -1.8851081 0.80253625 7
-1.6811478 -1.7677046 0.20713973 7
-1.117769 -1.7559452 2.1219397 7
-1.4208649 -1.6953123 1.0999602 8
-3.7485523 -1.8531188 0.79762948 8
-1.6916511 -1.6994483 0.2132895 8
-5.0915642 -1.7834756 -4.4267216 8
-7.3168583 -2.0537369 3.6325037 8
-3.8738971 -1.7231991 -4.0299606 8
-1.0958686 -1.6790156 2.1305702 8
-1.4224422 -1.6321198 1.1000454 9
-3.6942239 -1.8183779 0.78522933 9
-1.699034 -1.6312375 0.21670866 9
-5.1040893 -1.5659635 -4.4200459 9
-7.3154087 -1.8896776 3.6286576 9
-3.8861914 -1.5284694 -4.0269098 9
-1.1047444 -1.6035832 2.1301003 9
-1.4224236 -1.5682693 1.0997527 10
-3.6957071 -1.7868328 0.78631705 10
-1.7086914 -1.5634936 0.22214115 10
-5.1138411 -1.3486556 -4.4049129 10
-7.1435041 -1.7120301 4.1560411 10
-3.9015784 -1.3309996 -4.0465231 10
-1.1188979 -1.5289762 2.1280527 10
-1.4236664 -1.5039741 1.0997543 11
-3.7019813 -1.7544174 0.78114504 11
-1.7007902 -1.4916391 0.21200979 11
-5.1354766 -1.1266718 -4.4252424 11
-3.8296905 -1.133374 -4.0154095 11
-7.1554165 -1.5430961 4.1590815 11
-1.1194386 -1.4520161 2.1300797 11
-1.431386 -1.4404075 1.1012816 12
-3.7067146 -1.7215698 0.77805555 12
-5.1436739 -0.90748376 -4.404954 12
-3.8430014 -0.93465662 -4.0189171 12
-7.1694794 -1.3723798 4.163496 12
-1.1305807 -1.3764808 2.1289458 12
-1.447852 -1.3787401 1.1048733 13
-3.7037272 -1.6901428 0.78505188 13
-1.7180878 -1.3534658 0.22098756 13
-5.1576786 -0.6838547 -4.4015474 13
-7.191473 -1.1982729 4.1730709 13
-1.1245325 -1.2959833 2.1330123 13
-4.2213187 -0.60087299 -4.7339144 13
-1.4510174 -1.3130345 1.1053205 14
-3.7063925 -1.6570139 0.78472733 14
-1.7239307 -1.2825336 0.22293591 14
-5.1746783 -0.45530272 -4.4063034 14
-7.1995173 -1.0237019 4.1733851 14
-4.233326 -0.37389588 -4.7157984 14
-1.1221778 -1.214674 2.1360149 14
-4.5659237 -1.5854241 1.0853162 14
-3.326226 -1.555005 2.8524454 14
-1.442978 -1.2422779 1.1031111 15
-1.7237372 -1.2078918 0.2194314 15
-5.1825876 -0.2299062 -4.3838463 15
-7.2047005 -0.8472985 4.1717501 15
-3.3302608 -1.5032938 2.8583455 15
-1.1422632 -1.1392179 2.132246 15
-4.579937 -1.5288566 1.0829358 15
-3.8354919 -1.9248899 0.82636094 6
-3.8355851 -1.8921174 0.82903463 7
-1.651808 -1.7697983 0.19623697 7
-1.0479238 -1.7610587 2.0778544 7
-1.3784944 -1.694405 1.1156857 8
-3.8218834 -1.858794 0.82786506 8
-1.6548918 -1.6964802 0.19597781 8
-7.2840481 -2.0434296 3.5788913 8
-3.7458272 -1.7123377 -4.012022 8
-1.0751903 -1.6834935 2.1071401 8
-1.3870704 -1.6272216 1.1175922 9
-3.8232188 -1.8266057 0.8290543 9
-1.6726085 -1.6250116 0.2081039 9
-7.3216801 -1.8846296 3.5946665 9
-3.7569079 -1.5183238 -3.9994218 9
-1.0910687 -1.6055706 2.1054039 9
-1.3922318 -1.5595806 1.1187071 10
-1.6668706 -1.5500901 0.20035911 10
-3.7703986 -1.3219116 -4.0121794 10
-1.1027918 -1.5275435 2.1047051 10
-1.3886911 -1.489923 1.1178029 11
-3.7904091 -1.760637 0.81396806 11
-1.66775 -1.4753067 0.19818783 11
-3.7838097 -1.1235234 -4.0226469 11
-7.1481972 -1.5456388 4.0990372 11
-1.1053691 -1.4478356 2.1063316 11
-1.40583 -1.4238338 1.1216953 12
-3.787797 -1.7292259 0.82036841 12
-1.6772752 -1.4019728 0.20334816 12
-3.7967849 -0.92351395 -4.0270805 12
-7.1631393 -1.3790187 4.1039476 12
-1.0943611 -1.36423 2.1114521 12
-1.4078786 -1.3539109 1.1220859 13
-3.7622688 -1.697312 0.81542474 13
-1.680454 -1.3261644 0.20307207 13
-4.501029 -0.62326515 -4.6240101 13
-3.4355283 -0.52392638 -4.8865242 13
-7.1780806 -1.2101843 4.1087928 13
-1.0986874 -1.2836479 2.0791235 13
-1.3908772 -1.2788327 1.1467421 14
-3.7962489 -1.6623647 0.81549662 14
-1.6948322 -1.2534299 0.21233928 14
-4.514852 -0.39444339 -4.6194878 14
-3.4500523 -0.28897858 -4.8842402 14
-7.1763506 -1.0420809 4.1027422 14
-1.0920846 -1.197778 2.0830319 14
-3.0411899 -1.5649034 2.7366803 14
-1.3964083 -1.2071093 1.1479212 15
-3.7681189 -1.6310774 0.81378573 15
-1.6886526 -1.1715173 0.20395041 15
-4.5282488 -0.16287053 -4.6118193 15
-3.4647038 -0.051066995 -4.8786869 15
-7.1859121 -0.86953616 4.1039562 15
-3.0431828 -1.5178467 2.7439637 15
-1.1177766 -1.1188354 2.1126051 15
-3.9118662 -1.9641875 0.85368031 5
-3.9157689 -1.9325199 0.8516404 6
-3.9124913 -1.9002054 0.85873359 7
-1.6551952 -1.7735122 0.18538392 7
-1.0612895 -1.7597839 2.0841856 7
-1.3879986 -1.6919284 1.1355875 8
-3.9102821 -1.8680351 0.84371412 8
-1.6603237 -1.6961541 0.18642521 8
-3.5868807 -1.7089792 -4.0592208 8
-7.2616949 -2.0480249 3.5848937 8
-1.0791337 -1.6772516 2.0824003 8
-1.3748424 -1.6178902 1.1324757 9
-3.9033475 -1.8363637 0.85384578 9
-1.6622099 -1.6180465 0.18843699 9
-3.5924573 -1.5111915 -4.0618138 9
-7.282279 -1.8944694 3.5860722 9
-1.0865288 -1.5939937 2.0859699 9
-1.3732808 -1.5441118 1.13192 10
-3.9105906 -1.8042673 0.84741622 10
-1.6608652 -1.5390663 0.18423057 10
-3.6058302 -1.3117241 -4.079649 10
-7.0301509 -1.7252914 4.1018734 10
-1.1006093 -1.511888 2.0849786 10
-1.3811326 -1.4712472 1.1334414 11
-3.9052124 -1.7733037 0.85735303 11
-1.6791209 -1.4635776 0.19584584 11
-3.6189601 -1.1108372 -4.0882812 11
-7.0351477 -1.5679107 4.1004715 11
-1.0927451 -1.425765 2.0888159 11
-4.1542077 -1.7743245 0.93145782 11
-1.3984863 -1.4001706 1.1370618 12
-1.6710397 -1.3812829 0.18611777 12
-7.0488825 -1.40855 4.1049976 12
-1.0996966 -1.3412751 2.0894203 12
-4.1551323 -1.7381539 0.9329685 12
-1.4077921 -1.3270499 1.138903 13
-3.9084475 -1.7092879 0.85916209 13
-1.690215 -1.305764 0.19846714 13
-7.070343 -1.2458613 4.1147161 13
-1.0988419 -1.2538812 2.0917792 13
-1.408013 -1.2504519 1.138732 14
-1.6902328 -1.2232927 0.19521284 14
-7.0658035 -1.0853639 4.1066837 14
-1.0959327 -1.1641824 2.0946386 14
-2.9802449 -1.5668349 2.7297411 14
-2.8715587 -1.5566915 2.6703639 14
-1.4148639 -1.1745433 1.1400239 15
-1.7047043 -1.1451194 0.20369351 15
-7.0866652 -0.91721046 4.1158247 15
-1.1120126 -1.0788573 2.0932968 15
-2.9854641 -1.5244849 2.7212062 15
-2.8709686 -1.5091398 2.6778212 15
-4.0540905 -1.9777237 0.89714074 5
-3.4399128 -1.905683 0.70190257 6
-4.0549641 -1.9456676 0.89895982 6
-4.4592867 -1.984372 1.0339801 6
-3.4415607 -1.873504 0.69735372 7
-4.0590386 -1.9141124 0.89664996 7
-1.6819746 -1.7820755 0.18824387 7
-4.3117533 -1.9330959 1.0071522 7
-1.0955172 -1.7668886 2.0598004 7
-4.4595842 -1.9446611 1.0357132 7
-1.3862505 -1.6934967 1.1574916 8
-3.4435694 -1.8411653 0.69713819 8
-1.6908901 -1.7005434 0.19197118 8
-4.0590029 -1.8822724 0.89960957 8
-7.2707129 -2.0554788 3.5942073 8
-1.1205177 -1.6816087 2.0935998 8
-1.3985393 -1.6169406 1.1598959 9
-3.4459245 -1.8090504 0.70136428 9
-1.7008462 -1.6193869 0.19651973 9
-4.0623569 -1.8505085 0.89823699 9
-7.3028364 -1.9057742 3.6076002 9
-1.118943 -1.5940644 2.095798 9
-1.4153366 -1.5413384 1.1632948 10
-3.4470992 -1.7754726 0.68989301 10
-1.6992683 -1.5362415 0.19205201 10
-3.5371971 -1.7849405 0.72535795 10
-4.0418949 -1.817417 0.88634342 10
-7.0604649 -1.739531 4.1116157 10
-1.1296201 -1.5075421 2.0956984 10
-1.4079423 -1.4614639 1.1613601 11
-3.4502678 -1.744552 0.70508075 11
-1.7167329 -1.4563305 0.20246899 11
-3.5391936 -1.7533944 0.72605157 11
-4.0399485 -1.7860744 0.8920027 11
-7.0496874 -1.5871336 4.0989475 11
-1.1385119 -1.4205186 2.0959411 11
-1.4087355 -1.381879 1.1612262 12
-3.4781864 -1.7145287 0.70993829 12
-1.7205383 -1.3730645 0.20216787 12
-4.0435815 -1.7537321 0.89020407 12
-7.0761547 -1.430684 4.1121531 12
-1.12304 -1.3282073 2.0642343 12
-1.4131413 -1.3020554 1.1618853 13
-1.7104307 -1.2842342 0.19086754 13
-4.0463486 -1.7210884 0.88960671 13
-7.0767627 -1.2753363 4.107336 13
-1.1214991 -1.2365115 2.0664086 13
-1.4127822 -1.2196112 1.1614869 14
-3.4822545 -1.6474655 0.70697182 14
-3.5204897 -1.6522378 0.71524549 14
-1.7242304 -1.2016071 0.19833744 14
-4.0340991 -1.692902 0.90891075 14
-7.0877481 -1.1165377 4.1096497 14
-1.1361573 -1.1478778 2.0657485 14
-4.3337383 -1.6786342 1.0055522 14
-1.427212 -1.1405103 1.1643519 15
-3.484494 -1.6141433 0.70967674 15
-3.522583 -1.6199948 0.72053039 15
-4.0348911 -1.6608031 0.91093546 15
-1.7279416 -1.1141372 0.19780004 15
-7.0994091 -0.95495409 4.1123424 15
-1.1574337 -1.0592027 2.1002913 15
-4.1705241 -1.9885356 0.93143511 5
-4.1690292 -1.9561719 0.93622142 6
-3.4365451 -1.8791441 0.69236928 7
-1.6648221 -1.7930272 0.18670273 7
-3.6161814 -1.889171 0.75061864 7
-4.1741648 -1.9248528 0.93236566 7
-5.6589828 -2.0416391 1.4509103 7
-1.0975139 -1.7763712 2.0858793 7
-1.3751161 -1.6996261 1.1772727 8
-3.438216 -1.8447871 0.69046593 8
-1.669794 -1.7069474 0.18715239 8
-3.6181078 -1.8576086 0.74952406 8
-4.1753817 -1.8931209 0.93359888 8
-7.2814007 -2.0531738 3.6237969 8
-1.1070993 -1.6861526 2.085896 8
-1.379281 -1.6180484 1.1777283 9
-3.439172 -1.8099636 0.68492913 9
-1.677628 -1.6211158 0.18973517 9
-3.6200166 -1.8257712 0.74612117 9
-4.1742125 -1.8615174 0.93789834 9
-7.282887 -1.9070818 3.6210289 9
-1.1061203 -1.5949154 2.0876658 9
-1.3659384 -1.5334282 1.1744541 10
-3.4421456 -1.7757004 0.68943 10
-1.6798257 -1.5341904 0.18809509 10
-3.621958 -1.7936635 0.74377954 10
-4.1803894 -1.829484 0.93276262 10
-5.6626616 -1.825145 1.4537454 10
-7.0563488 -1.7453442 4.1149573 10
-1.1125515 -1.5039811 2.0882134 10
-1.3808804 -1.4523233 1.1771984 11
-3.4418771 -1.7391133 0.67738193 11
-1.680761 -1.4461694 0.18547761 11
-3.6366208 -1.7645364 0.760975 11
-4.1781092 -1.7980303 0.93848103 11
-7.0564127 -1.5967565 4.1097198 11
-1.0869772 -1.4070601 2.0558939 11
-1.3979449 -1.3717093 1.1803956 12
-3.4473171 -1.7066414 0.69447756 12
-1.6877789 -1.3586146 0.18738961 12
-4.181941 -1.765538 0.93641019 12
-7.0658131 -1.4465287 4.1110954 12
-1.1031616 -1.3160989 2.054996 12
-1.4035394 -1.2880197 1.1811434 13
-1.7028782 -1.2727501 0.19536018 13
-4.177166 -1.7347339 0.94528902 13
-3.640543 -1.700974 0.76355493 13
-5.6760759 -1.605449 1.4557009 13
-7.076417 -1.2944438 4.1132641 13
-1.1293471 -1.2265654 2.0903471 13
-1.395776 -1.1991481 1.1790305 14
-1.7181718 -1.1866248 0.2034657 14
-3.5510993 -1.652155 0.72417033 14
-4.1837664 -1.7006468 0.93978816 14
-7.0927792 -1.1389958 4.1194277 14
-1.1232345 -1.1283301 2.0930841 14
-4.3311639 -1.6961232 0.99324781 14
-1.3894658 -1.1083462 1.1772158 15
-3.4519618 -1.5960364 0.68476027 15
-3.5530634 -1.6168367 0.72235966 15
-4.1835527 -1.668077 0.94294024 15
-3.6446431 -1.6344724 0.76079881 15
-4.3313646 -1.6610647 0.99539691 15
-1.1350739 -1.0336473 2.0928092 15
-3.6861861 -1.9631582 0.78625882 5
-3.4170024 -1.9588467 0.68634689 5
-3.4173238 -1.9221919 0.68007493 6
-4.2799783 -1.9692544 0.97526276 6
-3.687676 -1.9319856 0.77549839 6
-3.422708 -1.8852972 0.68995285 7
-1.6539536 -1.7976611 0.18683279 7
-4.281208 -1.9375491 0.97639304 7
-3.6903031 -1.8999248 0.78880912 7
-7.240797 -2.1918478 3.6315074 7
-1.3274231 -1.6919699 1.181144 8
-1.6367755 -1.7057441 0.17061543 8
-4.287991 -1.9061289 0.97051775 8
-3.6918688 -1.8682485 0.77902782 8
-7.2505536 -2.0505514 3.6328435 8
-1.0391719 -1.6717881 2.0679851 8
-1.3369679 -1.6056983 1.1823144 9
-3.4093311 -1.8102996 0.68261325 9
-1.6402969 -1.6144525 0.16931343 9
-3.7065661 -1.8369769 0.77431476 9
-4.2906489 -1.8742462 0.96986783 9
-7.2568264 -1.9089887 3.6322589 9
-1.0552011 -1.576959 2.0669775 9
-1.3413415 -1.5185928 1.1823792 10
-3.4099984 -1.7724953 0.67748582 10
-1.663249 -1.5260382 0.18210804 10
-4.2862248 -1.8427635 0.9780885 10
-7.1093435 -1.7500974 4.0903273 10
-1.0513225 -1.4794378 2.0686798 10
-1.3620059 -1.4339871 1.1859256 11
-3.4137268 -1.7355319 0.68183827 11
-1.6644919 -1.4337947 0.17912686 11
-3.7488494 -1.7773917 0.792777 11
-4.2656541 -1.8099804 0.96602166 11
-7.1153688 -1.6035897 4.0889816 11
-1.060477 -1.3830584 2.0686152 11
-1.3532546 -1.3429962 1.1831666 12
-3.415236 -1.6972141 0.67917788 12
-1.6501634 -1.3362072 0.16472077 12
-3.750952 -1.7449453 0.78948176 12
-4.2641582 -1.7787244 0.97080773 12
-7.1264248 -1.4554642 4.0911374 12
-1.0766988 -1.2876436 2.0675888 12
-1.3573248 -1.2533495 1.1831418 13
-3.4163604 -1.6579517 0.67516613 13
-1.671401 -1.2467864 0.17623997 13
-3.7531614 -1.7113539 0.7834475 13
-4.2678881 -1.7461557 0.96873987 13
-7.1400037 -1.3051281 4.0949965 13
-1.0816185 -1.1888916 2.0681229 13
-1.3582485 -1.1613717 1.1824262 14
-3.4218924 -1.6215869 0.68512547 14
-1.6736557 -1.1506782 0.17382443 14
-8.0544014 -1.1655287 1.4476928 14
-3.7550962 -1.6797087 0.78952885 14
-4.2689848 -1.7138031 0.97016466 14
-7.1454749 -1.1541303 4.0930853 14
-1.0918658 -1.0902672 2.0679388 14
-5.0651827 -1.6452975 1.2304718 14
-1.3803735 -1.0748179 1.1862634 15
-3.4223557 -1.5803297 0.67872179 15
-1.6868749 -1.0570742 0.17940009 15
-8.0526352 -1.0087606 1.4492009 15
-3.756995 -1.6483496 0.79702348 15
-3.7191577 -1.6414351 0.78094286 15
-7.1609936 -0.99847943 4.0981154 15
-1.0888062 -0.9857583 2.0696158 15
-5.0568905 -1.5955961 1.2346067 15
-3.8051496 -1.9746144 0.80694687 5
-4.3959303 -2.0129089 1.0122354 5
-3.3814087 -1.9277867 0.6692071 6
-3.8072484 -1.9426478 0.81135952 6
-4.3996835 -1.9812012 1.0102706 6
-3.3872459 -1.888176 0.67711782 7
-3.8092484 -1.9111462 0.81194705 7
-5.7088108 -2.0512514 1.462435 7
-1.3132725 -1.6946118 1.1858764 8
-3.3879883 -1.8486164 0.67316449 8
-1.621763 -1.7081902 0.16912603 8
-4.4019213 -1.9173223 1.0126479 8
-3.8110838 -1.8795052 0.80296791 8
-7.2109628 -2.0520978 3.646296 8
-1.0485797 -1.677114 2.0663657 8
-1.3049481 -1.6023815 1.1832315 9
-1.6129284 -1.6116626 0.15909946 9
-4.4088874 -1.8853796 1.0068786 9
-5.7273746 -1.9170548 1.4616218 9
-7.2374802 -1.9150811 3.6568727 9
-1.0550268 -1.5783219 2.0666754 9
-1.3022044 -1.5096561 1.1817513 10
-3.3935003 -1.7695007 0.67464173 10
-1.6320438 -1.518342 0.16860831 10
-3.8152537 -1.816859 0.81473964 10
-4.3704071 -1.8520586 0.99584973 10
-4.4058371 -1.8535504 1.0130198 10
-7.0858498 -1.7588689 4.0996642 10
-1.0569575 -1.4784962 2.0675511 10
-1.3301723 -1.4215957 1.1867527 11
-3.3931592 -1.7284789 0.6679529 11
-1.6367688 -1.4224519 0.16802216 11
-3.8043423 -1.7829235 0.80396771 11
-4.3744845 -1.8199501 0.99330693 11
-7.0920143 -1.6161997 4.0980625 11
-1.0628657 -1.3784899 2.0679414 11
-1.3236091 -1.3265085 1.1844488 12
-3.3968015 -1.688495 0.6706953 12
-1.6325157 -1.3232598 0.16106892 12
-3.8065696 -1.751884 0.81223291 12
-4.3767586 -1.787693 0.99312031 12
-7.1038175 -1.4718394 4.1004953 12
-3.5929441 -1.7208958 0.73419392 12
-1.0802662 -1.280161 2.0669022 12
-1.3333197 -1.2337656 1.1855785 13
-3.3994117 -1.6476529 0.67090964 13
-1.6578808 -1.2311268 0.17496502 13
-4.3734679 -1.7564769 1.0000761 13
-3.8084769 -1.7180023 0.80513704 13
-7.1075449 -1.327052 4.0970278 13
-1.3396807 -1.1389904 1.1859863 14
-3.4034092 -1.6071818 0.67440975 14
-1.6473291 -1.1267159 0.16342807 14
-3.5013094 -1.6308714 0.71592665 14
-4.3766999 -1.7234004 0.99871504 14
-3.810782 -1.6876674 0.81715924 14
-7.1228909 -1.1782796 4.1018543 14
-1.0819721 -1.0723794 2.0690086 14
-1.3339276 -1.0385098 1.1837996 15
-1.6620421 -1.0291923 0.16971111 15
-3.5045404 -1.5924145 0.71837366 15
-4.3768892 -1.6907983 1.0012677 15
-3.8127542 -1.6521046 0.80879831 15
-7.1285028 -1.0291513 4.0995741 15
-3.599411 -1.6095554 0.73233807 15
-1.0899582 -0.96783566 2.0691941 15
-4.4857721 -2.0224113 1.0339842 5
-3.882726 -1.9841186 0.83444804 5
-4.4825916 -1.9897932 1.0403097 6
-3.8843598 -1.9529523 0.82552034 6
-3.3640332 -1.8938434 0.65878749 7
-4.4848061 -1.9583472 1.0400679 7
-3.8867745 -1.9209937 0.83626437 7
-5.7302456 -2.0536816 1.459818 7
-1.265156 -1.6930127 1.1928594 8
-3.3689084 -1.8516428 0.66303766 8
-1.5547233 -1.7085271 0.14659607 8
-4.4881272 -1.9269525 1.0384922 8
-3.8885756 -1.8894992 0.83127302 8
-7.1889811 -2.0501158 3.6484375 8
-0.99502754 -1.6719126 2.0371141 8
-1.2812374 -1.5986173 1.1949235 9
-3.3722034 -1.8094445 0.66426599 9
-1.5700986 -1.6095181 0.15269279 9
-3.9032934 -1.8586634 0.83046681 9
-4.4975581 -1.8952508 1.0296054 9
-7.2051716 -1.9168974 3.653203 9
-0.99518228 -1.5674138 2.0377364 9
-1.2653277 -1.4996939 1.1904054 10
-3.3732347 -1.7666057 0.66109061 10
-1.566036 -1.5076175 0.14572728 10
-4.4777794 -1.8634669 1.0359985 10
-3.9054356 -1.8276571 0.83862823 10
-5.75 -1.8590206 1.4590075 10
-7.042511 -1.7651099 4.0723372 10
-1.016557 -1.4652972 2.0362358 10
-1.2987523 -1.407939 1.1960402 11
-3.3746424 -1.7233682 0.65858638 11
-1.5781999 -1.4076494 0.14964616 11
-3.9074996 -1.796581 0.84319186 11
-7.051065 -1.6271091 4.0724902 11
-1.0171473 -1.359694 2.0368214 11
-1.2903733 -1.3078735 1.193043 12
-3.3767376 -1.6798302 0.65736043 12
-1.5924885 -1.3078485 0.15498674 12
-4.4813218 -1.8000646 1.0366337 12
-3.9094477 -1.7641295 0.8388595 12
-7.0681458 -1.4868214 4.0788922 12
-1.0250111 -1.2543724 2.0366826 12
-1.3011374 -1.2106897 1.1939869 13
-3.3817081 -1.6371212 0.661731 13
-1.6010814 -1.2058787 0.15644443 13
-4.4817863 -1.7682363 1.038577 13
-3.9114273 -1.7308093 0.83349639 13
-7.0684099 -1.347223 4.0727992 13
-1.0246906 -1.1458044 2.0373774 13
-1.293788 -1.1069919 1.191153 14
-3.3845358 -1.5929165 0.66182482 14
-1.5931547 -1.0969391 0.14661157 14
-3.9136772 -1.7028888 0.85492498 14
-4.4873056 -1.7346406 1.0344104 14
-7.0827026 -1.2034059 4.0769653 14
-1.0369387 -1.0389807 2.0368121 14
-4.6342525 -1.7267401 1.0714425 14
-1.3255048 -1.0139517 1.1964232 15
-3.3875062 -1.5480644 0.6621145 15
-1.6049404 -0.99267471 0.15009892 15
-3.9157209 -1.6695044 0.85219848 15
-4.639513 -1.6898274 1.0687685 15
-7.0806837 -1.061146 4.0690517 15
-1.0345252 -0.92581618 2.0377429 15
-4.6117682 -2.0361621 1.0732331 5
-3.9595082 -1.960077 0.85265571 6
-4.620121 -2.0047586 1.066292 6
-3.3531232 -1.9391589 0.66211891 6
-3.3256731 -1.8927295 0.64771974 7
-3.9618649 -1.9282409 0.85695368 7
-4.6170592 -1.9717703 1.0721251 7
-5.6158857 -2.0500114 1.4126925 7
-3.3279254 -1.846841 0.64643693 8
-1.5751679 -1.6997881 0.13662052 8
-3.9640439 -1.8966783 0.85835201 8
-4.6245375 -1.9397815 1.0661972 8
-5.6230822 -1.9921694 1.412008 8
-7.1712914 -2.0576508 3.5909615 8
-0.95660472 -1.6560261 2.0414021 8
-3.3389978 -1.8022743 0.65945756 9
-1.5830233 -1.5970045 0.13732934 9
-3.9659903 -1.8649201 0.85528809 9
-4.5730906 -1.9049089 1.0490768 9
-4.615757 -1.9074053 1.0783265 9
-7.1766043 -1.9291645 3.5892625 9
-0.96317291 -1.5477729 2.0415711 9
-3.3677588 -1.7601897 0.66665268 10
-1.5827181 -1.4924985 0.13256717 10
-3.9678149 -1.8325591 0.84927565 10
-4.5693178 -1.8734779 1.0563835 10
-0.95140266 -1.4361959 2.0433731 10
-6.9993463 -1.7795331 4.0425968 10
-3.3397033 -1.7092417 0.65065777 11
-5.7721596 -1.8102982 1.4616723 11
-3.970547 -1.801942 0.8618722 11
-4.5800023 -1.8406353 1.0458024 11
-4.6588511 -1.8420773 1.0752335 11
-7.0085821 -1.6464341 4.0430918 11
-0.99783158 -1.3337691 2.0400038 11
-3.3415828 -1.6621809 0.64865077 12
-1.5996537 -1.283975 0.13466549 12
-4.6536269 -1.8097174 1.0829611 12
-5.684248 -1.7539068 1.4274729 12
-7.0117331 -1.5129513 4.0389419 12
-0.9859302 -1.2198682 2.0418332 12
-3.3551056 -1.6196202 0.66582 13
-1.6015785 -1.1762526 0.13123775 13
-5.6982689 -1.6911718 1.4255686 13
-4.5749917 -1.7775433 1.0572791 13
-4.6582198 -1.775659 1.0805299 13
-7.0235958 -1.3769504 4.0412931 13
-1.0026193 -1.1109051 2.0411186 13
-3.3729725 -1.5730952 0.65466774 14
-5.7880974 -1.6162276 1.4612441 14
-1.6039157 -1.0667155 0.12800324 14
-4.5760798 -1.7450986 1.0586164 14
-4.6666641 -1.739893 1.0741855 14
-7.0366368 -1.2385932 4.0444245 14
-0.99924707 -0.99497753 2.0422139 14
-3.3775725 -1.526003 0.65710199 15
-5.7923756 -1.5497285 1.4612939 15
-1.6090872 -0.95604855 0.12659311 15
-4.6597562 -1.7077802 1.0836587 15
-7.0600986 -1.0949025 4.0552192 15
-1.0128908 -0.8821615 2.0417931 15
-4.6553788 -2.0412784 1.0845757 5
-4.0278721 -2.0045354 0.87744462 5
-3.9880817 -2.0031667 0.87000281 5
-4.6648574 -2.010807 1.0751812 6
-4.0299311 -1.9725336 0.87810332 6
-3.9895644 -1.9710259 0.8654834 6
-4.7345057 -2.0159202 1.1144093 6
-3.6214733 -1.9608492 0.7478255 6
-3.2932065 -1.905847 0.64689219 7
-4.6591878 -1.9781536 1.0845112 7
-4.0320897 -1.9406807 0.88018841 7
-3.9910321 -1.9387015 0.86074144 7
-4.7378368 -1.9835101 1.1129471 7
-3.6198199 -1.9207861 0.73868906 7
-3.2636583 -1.8545192 0.63595688 8
-1.513236 -1.7222304 0.14164817 8
-4.0337572 -1.9089172 0.87590742 8
-4.6675415 -1.9469658 1.0765469 8
-7.1449127 -2.0529237 3.5866876 8
-0.91751313 -1.6727715 2.055155 8
-3.2661645 -1.8044758 0.63486028 9
-1.5269678 -1.6153903 0.1454705 9
-4.035563 -1.876911 0.87323952 9
-4.6720915 -1.9150908 1.0732958 9
-7.1334453 -1.9284397 3.5749135 9
-0.91075277 -1.5586221 2.055444 9
-3.3017631 -1.7586607 0.64524841 10
-1.5280578 -1.5067047 0.14124358 10
-5.7222919 -1.8819735 1.4264319 10
-4.6677103 -1.8834397 1.0809731 10
-4.0384622 -1.8459326 0.88575691 10
-0.92637253 -1.4464424 2.0539033 10
-1.1973217 -1.381488 1.2193434 11
-3.275969 -1.7047572 0.63919079 11
-1.5329192 -1.3976505 0.13937664 11
-5.7243824 -1.8231604 1.42658 11
-4.6726685 -1.8511367 1.0772531 11
-4.0657997 -1.8155353 0.88289052 11
-0.92730904 -1.3314573 2.05356 11
-6.9551859 -1.656666 4.0007343 11
-1.196099 -1.2729554 1.2170776 12
-3.3701947 -1.6714846 0.66663277 12
-1.5440209 -1.2890338 0.14146149 12
-4.6645551 -1.820583 1.0894244 12
-4.067915 -1.7838513 0.88564253 12
-6.9664383 -1.5275004 4.0026507 12
-0.97083068 -1.2245134 2.0497458 12
-1.2139351 -1.1676037 1.218538 13
-3.3735147 -1.6230816 0.66682744 13
-1.5465255 -1.1770535 0.13797677 13
-4.6700907 -1.7875941 1.0850462 13
-1.9542544 -1.0996315 -1.1179606 13
-4.0698791 -1.7511508 0.88385904 13
-4.0036697 -1.7420217 0.86285698 13
-0.95359087 -1.1032107 2.0508771 13
-6.9680014 -1.3984084 3.9970622 13
-1.2182424 -1.0575589 1.2173077 14
-3.345397 -1.565659 0.65462005 14
-1.5577614 -1.0660776 0.14003932 14
-1.9553938 -0.96376872 -1.1283239 14
-4.6746058 -1.7540797 1.0819564 14
-4.0067782 -1.7103738 0.87217283 14
-5.6108227 -1.66079 1.3845477 14
-0.95197058 -0.98312175 2.0507307 14
-6.9906287 -1.2634306 4.0074868 14
-4.8567615 -1.7459117 1.1452713 14
-1.2231357 -0.94571304 1.2161566 15
-3.3527155 -1.5168999 0.66052186 15
-1.5569627 -0.94903481 0.13424444 15
-1.9708598 -0.83208311 -1.1194857 15
-4.0741591 -1.6860549 0.88812959 15
-4.6778679 -1.7202038 1.0804298 15
-5.6137476 -1.6032305 1.3845322 15
-4.0089941 -1.676553 0.8728928 15
-4.8577161 -1.7097191 1.1462455 15
-0.96340799 -0.86479259 2.0495191 15
-6.9836807 -1.1330733 3.9952364 15
-4.1131787 -2.0100746 0.91466349 5
-4.7414274 -2.047864 1.1230935 5
-4.1151466 -1.9780453 0.91400969 6
-4.7440872 -2.0162435 1.1221411 6
-3.2419264 -1.9555798 0.63904107 6
-5.5628605 -2.1254523 3.5639133 6
-4.1171236 -1.9460913 0.91356677 7
-5.7031274 -2.054687 1.4413012 7
-4.7443972 -1.9844414 1.1240526 7
-5.5701728 -2.0468938 3.566535 7
-1.1190507 -1.6850806 1.2051092 8
-3.2519398 -1.84982 0.64300501 8
-5.7515202 -2.0013368 1.4539175 8
-1.4742615 -1.7093425 0.12821567 8
-4.1327987 -1.9152368 0.92760998 8
-4.7519608 -1.9531478 1.1171288 8
-7.0833597 -2.0417218 3.5945582 8
-0.87409949 -1.6643543 2.0234964 8
-1.1450534 -1.5773764 1.2087872 9
-3.2497671 -1.7961566 0.63585603 9
-5.7630568 -1.9445475 1.451847 9
-1.49403 -1.5987035 0.13593268 9
-4.134778 -1.8838016 0.92770606 9
-4.7493734 -1.9213582 1.1225533 9
-7.087326 -1.9220766 3.5918913 9
-5.5772128 -1.8892691 3.5623999 9
-0.88275433 -1.5479559 2.0231786 9
-1.155292 -1.4682426 1.2092246 10
-3.2618814 -1.7445519 0.64691913 10
-5.7599807 -1.8873633 1.4531215 10
-1.497932 -1.486089 0.13366044 10
-4.1365309 -1.85185 0.92306602 10
-4.7471838 -1.8899249 1.1274698 10
-0.88270855 -1.4298995 2.023344 10
-1.1405509 -1.3539435 1.2044826 11
-1.5074775 -1.3736854 0.13492107 11
-5.7057314 -1.8329705 1.4430916 11
-4.1385746 -1.8200625 0.9239381 11
-4.7594643 -1.8587302 1.1347499 11
-0.89643455 -1.3131678 2.022747 11
-6.9747 -1.6565638 3.985672 11
-1.1618919 -1.2452431 1.2071935 12
-3.3657343 -1.6564879 0.67235255 12
-1.5003595 -1.2563207 0.12556946 12
-4.1408324 -1.7887857 0.92933154 12
-4.7660437 -1.8259282 1.1292856 12
-5.6166649 -1.7837628 1.3996429 12
-0.89778161 -1.1930913 2.0228381 12
-6.9886274 -1.5297124 3.9897618 12
-1.1709015 -1.1330972 1.207334 13
-5.6085238 -1.7314706 1.4027231 13
-3.3634434 -1.602916 0.66439497 13
-1.5109468 -1.1416377 0.12738526 13
-4.7691107 -1.7930862 1.1279622 13
-4.1295047 -1.7531767 0.91730702 13
-4.0897756 -1.747974 0.90717584 13
-0.89946055 -1.071305 2.0229139 13
-7.0038486 -1.400691 3.994741 13
-1.1730168 -1.0174423 1.2060137 14
-1.5189211 -1.0247488 0.12747705 14
-7.9690619 -1.2830935 1.066053 14
-4.1322117 -1.7226388 0.92875278 14
-4.7684822 -1.7607437 1.1309588 14
-4.0920606 -1.7146642 0.90884376 14
-7.00846 -1.2717342 3.9914927 14
-0.91941524 -0.95285881 2.0219741 14
-1.1753404 -0.89956582 1.2047023 15
-3.3808484 -1.5029383 0.67947757 15
-1.5194271 -0.90309072 0.12270617 15
-4.7692995 -1.7276803 1.1323016 15
-7.9654465 -1.1438572 1.0679016 15
-4.1342163 -1.6888845 0.92706072 15
-4.0949144 -1.6824949 0.91621846 15
-0.9247508 -0.82839918 2.0218508 15
-7.0097952 -1.1419175 3.9856572 15
-4.8511348 -2.0264909 1.1524557 6
-3.2952294 -1.9657106 0.66362953 6
-4.1971025 -1.9552165 0.93578637 7
-4.8530197 -1.994478 1.1524265 7
-3.2960711 -1.9121745 0.66028881 7
-5.7059002 -2.0035105 1.4426709 8
-1.4256859 -1.7141823 0.13836253 8
-4.1999512 -1.9236238 0.94771767 8
-3.3289938 -1.8608072 0.66205478 8
-7.0378695 -2.0460691 3.6140957 8
-0.83939672 -1.6643288 2.0171704 8
-5.7027459 -1.950581 1.4441942 9
-1.434423 -1.5981457 0.138556 9
-4.2016625 -1.8920324 0.94397324 9
-4.8571625 -1.9305234 1.1519356 9
-3.3272524 -1.8072128 0.65539312 9
-7.0322437 -1.930349 3.6055005 9
-0.85593724 -1.5446622 2.0159483 9
-1.4342673 -1.4803667 0.13337398 10
-3.3029387 -1.7506163 0.65545917 10
-4.2034502 -1.8601437 0.94101876 10
-4.8306613 -1.897887 1.1455736 10
-7.0420103 -1.8146021 3.606607 10
-0.85793281 -1.4229965 2.0154357 10
-5.7169209 -1.844125 1.4416397 11
-3.2647853 -1.6890435 0.63959861 11
-1.4524481 -1.3649728 0.1392231 11
-4.2057524 -1.8287859 0.94562548 11
-4.8282394 -1.8666018 1.1507393 11
-0.84508824 -1.2974119 2.0156403 11
-6.9185858 -1.6743321 3.9863732 11
-5.7307992 -1.7891942 1.438524 12
-1.4561434 -1.2459111 0.13628078 12
-3.3075168 -1.6408483 0.65207088 12
-4.2076507 -1.7964883 0.94384474 12
-4.8317604 -1.8344693 1.1487355 12
-4.141335 -1.7888596 0.9281984 12
-6.9321003 -1.5519367 3.9905746 12
-0.86954546 -1.1776054 2.0140276 12
-5.7616286 -1.7315836 1.4537506 13
-1.4673488 -1.1273667 0.13783693 13
-3.3103757 -1.5851159 0.65099883 13
-4.8387914 -1.8009995 1.1425569 13
-4.9146919 -1.8002763 1.175105 13
-4.1431751 -1.7552209 0.92623383 13
-6.9489937 -1.4270401 3.9973555 13
-0.87028408 -1.0514705 2.013562 13
-3.2711167 -1.5167363 0.63339472 14
-1.4761562 -1.0066848 0.13787138 14
-4.1446595 -1.7202867 0.92125964 14
-4.9221025 -1.7649095 1.1696072 14
-6.955822 -1.3019924 3.9960387 14
-0.88360238 -0.92682552 2.0124812 14
-5.76968 -1.6175876 1.4529819 15
-1.480196 -0.88229978 0.13490438 15
-4.1467161 -1.6855458 0.92030615 15
-0.88621473 -0.79690456 2.01191 15
-6.9596281 -1.17588 3.9922338 15
-4.2384963 -1.9892781 0.96718842 6
-0.80695653 -1.7989573 2.0184128 7
-4.2403874 -1.9575169 0.96703064 7
-4.9205112 -1.9979793 1.169147 7
-5.4866924 -2.0424771 3.5339503 7
-5.6872406 -2.0027862 1.4206729 8
-4.2419252 -1.9257249 0.963952 8
-4.92416 -1.9663483 1.1669579 8
-1.3816364 -1.7126532 0.10862339 8
-5.5419731 -1.9733938 3.5538316 8
-7.0114841 -2.0436223 3.5933421 8
-0.80388355 -1.673756 2.01862 8
-3.1639521 -1.7869718 0.62066746 9
-4.2437959 -1.8938377 0.96356374 9
-4.9225597 -1.9345816 1.1710528 9
-1.3849766 -1.5910156 0.1060853 9
-5.5403538 -1.9006029 3.5451438 9
-7.0098495 -1.931937 3.5874512 9
-0.82787275 -1.5506973 2.017756 9
-5.6875095 -1.9031914 1.4221897 10
-3.2170713 -1.7331598 0.63761783 10
-4.2448263 -1.861135 0.95585269 10
-1.3991256 -1.4703486 0.10995412 10
-4.9661341 -1.9036428 1.1822418 10
-7.0158691 -1.8201932 3.586472 10
-5.5002775 -1.8280569 3.533679 10
-0.79894519 -1.4205511 2.0189891 10
-5.6955333 -1.8527874 1.4203789 11
-3.2204022 -1.6735618 0.63725281 11
-4.2471523 -1.8291035 0.95914525 11
-4.9220276 -1.8714297 1.1760263 11
-1.4152098 -1.3498954 0.11497152 11
-0.81234789 -1.2947885 2.0185456 11
-6.8965664 -1.6842464 3.9540563 11
-3.2228231 -1.6131521 0.63586044 12
-4.2496476 -1.7972796 0.96393609 12
-1.4295738 -1.2286994 0.11894739 12
-0.82476425 -1.1681321 2.0181413 12
-6.9059162 -1.5664265 3.9553194 12
-3.6555631 -1.6997483 0.77856159 12
-5.0492487 -1.8376868 1.2157397 12
-5.6245127 -1.7593968 1.4044108 13
-1.3303502 -1.079725 0.11389649 13
-4.2506671 -1.7627472 0.95522636 13
-4.9770393 -1.8037549 1.1765529 13
-3.3129184 -1.5727621 0.66211152 13
-0.83627462 -1.0401599 2.0177741 13
-6.910078 -1.448107 3.9523139 13
-3.6556878 -1.6516724 0.77426314 13
-5.6382613 -1.7079637 1.4004058 14
-3.1869874 -1.4793913 0.62489617 14
-1.3356705 -0.94977099 0.11226559 14
-4.2528539 -1.7295688 0.95680726 14
-0.84261227 -0.90916431 2.0176136 14
-5.0507274 -1.7690229 1.217963 14
-6.9153452 -1.3282057 3.9501276 14
-5.6357546 -1.6584759 1.402199 15
-1.3452125 -0.81903887 0.11301363 15
-3.3209553 -1.4547412 0.66298926 15
-4.2555127 -1.6971335 0.96263927 15
-0.8481276 -0.77562523 2.0174866 15
-6.926055 -1.2050328 3.9522119 15
-3.6647825 -1.5572264 0.77933168 15
-5.0154238 -2.0350137 1.2041932 6
-5.6363187 -2.0920844 1.411875 6
-5.0123444 -2.0028186 1.2099068 7
-5.4886951 -2.0457852 3.5317886 7
-4.3406701 -1.9642758 0.99725956 7
-5.6354356 -2.0001695 1.4142028 8
-1.3438303 -1.7138743 0.11606991 8
-5.0195651 -1.9715294 1.2035923 8
-6.9645014 -2.0440524 3.5805821 8
-0.74318266 -1.6757674 1.9906558 8
-5.6473455 -1.9545652 1.4105115 9
-1.3514347 -1.5886183 0.11616385 9
-5.0156527 -1.9398559 1.2102394 9
-4.3443999 -1.901118 0.99785578 9
-5.4905591 -1.9083114 3.5222588 9
-6.9645376 -1.9370176 3.5763144 9
-0.75946331 -1.5467436 1.9903349 9
-5.6432304 -1.9086611 1.4131162 10
-1.3594294 -1.4629915 0.11646879 10
-5.0185566 -1.9081762 1.2089658 10
-4.3719683 -1.8713353 1.0004014 10
-3.2625914 -1.7353891 0.65444016 10
-5.5054364 -1.8384588 3.5383654 10
-6.9632821 -1.8301727 3.5712023 10
-0.83130932 -1.4257809 2.041085 10
-1.3688841 -1.3369389 0.11759508 11
-5.0147223 -1.8752561 1.1959153 11
-4.3741899 -1.840301 1.0058357 11
-3.2632685 -1.673888 0.65138113 11
-0.76986599 -1.284783 1.9902067 11
-6.8725476 -1.6983817 3.9445324 11
-5.5720015 -1.821059 1.3857453 12
-1.3730402 -1.2086794 0.1156131 12
-5.0114508 -1.8438643 1.201973 12
-4.3754897 -1.8072064 0.99782228 12
-0.82650709 -1.1629034 2.0415933 12
-6.8842206 -1.5839679 3.9485312 12
-5.5659866 -1.7774523 1.3894765 13
-1.3775752 -1.0788136 0.11379302 13
-5.0143175 -1.8112106 1.2007749 13
-4.377367 -1.7747535 0.99774277 13
-3.2688212 -1.5496548 0.64956272 13
-0.83450747 -1.0309994 2.0414596 13
-6.8672686 -1.4733859 3.9287238 13
-5.5991402 -1.7281619 1.395668 14
-1.3867989 -0.94843757 0.11464012 14
-4.3792496 -1.7417796 0.99734563 14
-5.2800145 -1.7627664 1.2929367 14
-0.84550357 -0.89816725 2.0412149 14
-6.8755713 -1.3573864 3.9298177 14
-4.1788187 -1.7074723 0.93516642 14
-3.9193707 -1.6530449 0.8579824 14
-5.6074734 -1.6800159 1.3932514 15
-1.3883765 -0.81318641 0.11094415 15
-5.0158758 -1.7456474 1.2033896 15
-4.381412 -1.7093338 1.0009596 15
-5.2765775 -1.7258939 1.2968503 15
-0.80787683 -0.74780703 1.9895592 15
-6.8905754 -1.2374744 3.9363322 15
-4.181334 -1.6707845 0.93649781 15
-3.9185245 -1.6074033 0.85121238 15
-4.4041762 -2.0336807 1.0171925 5
-5.105617 -2.0782897 1.2299165 5
-4.4046683 -2.0025296 1.004801 6
-5.1065955 -2.0462084 1.2310829 6
-5.5910511 -2.091939 1.3881817 6
-5.7106605 -2.1147752 2.9115057 6
-5.6118684 -2.0509458 1.3987257 7
-5.6990366 -2.058233 2.8991616 7
-4.4078226 -1.9703977 1.0133855 7
-5.1166153 -2.0151868 1.221927 7
-3.1846948 -1.9071648 0.63848531 7
-5.4496918 -2.0469918 3.5128231 7
-0.95839524 -1.6606374 1.2380416 8
-5.6287808 -2.0088999 1.3920858 8
-5.7092209 -2.0039456 2.9046638 8
-1.2745228 -1.6832719 0.12142622 8
-4.4103742 -1.9387996 1.0173848 8
-5.1157637 -1.982935 1.2251796 8
-6.9285526 -2.0544419 3.5712056 8
-0.71112466 -1.6386409 2.0247707 8
-0.95281148 -1.5314904 1.2351675 9
-5.6280279 -1.9656029 1.3936422 9
-5.7084761 -1.9490534 2.9012485 9
-1.2812266 -1.5529149 0.12018096 9
-4.412241 -1.9071163 1.0158134 9
-5.1140747 -1.9509616 1.2293613 9
-6.9156408 -1.951537 3.5580039 9
-5.4520521 -1.9166077 3.5034273 9
-0.71994615 -1.5046002 2.0245776 9
-0.97281742 -1.4048535 1.2371711 10
-5.6244316 -1.9225079 1.3965067 10
-5.6989908 -1.8947846 2.8907592 10
-1.3005865 -1.4240258 0.12593126 10
-4.413868 -1.8750045 1.0120773 10
-5.0935731 -1.9180557 1.2160974 10
-6.9221363 -1.849012 3.5580034 10
-5.4607754 -1.8508806 3.5111363 10
-0.74724579 -1.3729246 2.0238791 10
-0.98791623 -1.2773095 1.2382334 11
-5.6379061 -1.8784237 1.3915119 11
-1.3013391 -1.2913435 0.12133455 11
-5.088892 -1.8869249 1.224063 11
-4.4552026 -1.8470833 1.0213357 11
-4.4162683 -1.8432746 1.0147872 11
-0.72444558 -1.232138 2.0245533 11
-0.99312639 -1.1468467 1.2373832 12
-5.6494164 -1.8333545 1.3874524 12
-1.2991745 -1.1561265 0.11504233 12
-5.0924616 -1.8547703 1.2221965 12
-4.456778 -1.81405 1.0142382 12
-4.4176497 -1.8099635 1.0084419 12
-0.74079776 -1.0967765 2.0241551 12
-6.8277988 -1.6140249 3.9072905 12
-0.98672891 -1.0115484 1.2342685 13
-5.6123428 -1.7928565 1.3866541 13
-1.3207183 -1.0253921 0.1219207 13
-5.1004038 -1.8210738 1.2151945 13
-4.4596205 -1.7837152 1.0250934 13
-4.4202352 -1.7779368 1.0124867 13
-0.75173092 -0.95895946 2.0239062 13
-6.8414536 -1.5028774 3.9130399 13
-4.2769361 -1.754961 0.96987039 13
-1.01544 -0.88400614 1.2379067 14
-5.6487436 -1.7440476 1.3902563 14
-1.3366237 -0.89198387 0.12560618 14
-5.0917816 -1.7910891 1.227807 14
-4.4627204 -1.7547441 1.0402555 14
-4.422596 -1.7452463 1.0143749 14
-5.157218 -1.7889528 1.2509167 14
-0.78196478 -0.82518232 2.0231276 14
-6.8436542 -1.392355 3.9089525 14
-4.2816877 -1.7216494 0.97927606 14
-1.0058258 -0.74255657 1.2340969 15
-5.6200638 -1.7031329 1.3855567 15
-1.3314948 -0.74895513 0.11739337 15
-4.4646792 -1.7215891 1.0378321 15
-3.2219579 -1.3795042 0.64011717 15
-4.4244752 -1.710838 1.0114685 15
