# .PCD v0.7 - Point Cloud Data file format
VERSION 0.7
FIELDS x y z intensity
SIZE 4 4 4 4
TYPE F F F F
COUNT 1 1 1 1
WIDTH 1296
HEIGHT 1
VIEWPOINT 0 0 0 1 0 0 0
POINTS 1296
DATA ascii
3.2559476 -0.74624443 -5.7074757 11.2
2.4522533 -0.78150612 -5.5455093 11.5
2.2269273 -0.80643028 -5.4642563 11.5
1.8274839 -0.84560233 -5.3258505 11.5
3.2336152 -0.37358856 -5.6811857 13.5
2.4335017 -0.54475337 -5.5401688 13
2.2070775 -0.57029635 -5.467598 13
1.8080146 -0.61246359 -5.3264198 13
3.1995416 -0.11181808 -5.7277203 15
3.2183595 -1.4289477 -5.9935169 7
3.1645021 -1.1752676 -6.0793419 8.5
3.1290412 -0.74314755 -6.0748644 11
3.0929184 -0.30191004 -6.0755138 13.5
3.070694 -0.029669166 -6.0763569 15
3.0220804 -1.1721829 -6.4951334 8.5
2.991539 -0.79801965 -6.4927158 10.5
2.960443 -0.4192332 -6.4871702 12.5
2.9284277 -0.028334618 -6.4950361 14.5
2.8380823 -1.4765735 -6.9767761 7
1.1351327 -1.6125633 -6.3857746 7
0.68204379 -1.6504203 -6.2265635 7
2.8564215 -1.1708164 -6.9098806 8.5
2.61057 -1.1905968 -6.9021273 8.5
1.0931587 -1.3223851 -6.376709 8.5
0.77099776 -1.3482343 -6.2678595 8.5
2.8233662 -0.76697862 -6.9104519 10.5
2.5878434 -0.77104855 -6.9057198 10.571428
1.0418954 -0.93299043 -6.3709373 10.5
0.740731 -0.9561944 -6.2633209 10.5
2.7898645 -0.35746264 -6.9095831 12.5
2.5545444 -0.36108267 -6.9024105 12.571428
1.0284922 -0.53486866 -6.3764629 12.5
0.66904616 -0.56050855 -6.2522936 12.5
2.7584467 0.026314139 -6.9079123 14.333333
2.5432286 0.026708484 -6.9117641 14.4
0.95769095 -0.13142943 -6.3629189 14.5
0.65591311 -0.15187311 -6.2557449 14.5
2.8916955 -0.99742466 0.21967936 15.1685
2.7729254 -1.1275194 -0.18316853 14.664
4.5157218 -1.1473728 -2.1596742 9.0524998
2.2595017 -1.2307346 -1.6817834 13.6095
3.3244076 -1.2953212 -2.362438 8.5739994
2.1703758 -1.3710032 -1.9639782 9.1049995
3.1952255 -1.3007423 -2.5285325 8.5775003
2.2187598 0.0049877167 -6.8420153 14.5845
1.831625 -0.043254018 -6.7119989 14.5865
1.3843374 -0.19473326 -6.5567055 14.089
1.3627863 0.015788555 -6.5714645 15.089
-7.8090925 -2.4985259 -0.27066827 5
-7.9131894 -2.5015988 -0.67591256 5
-7.7281103 -2.4958732 0.087919772 5
-6.0079675 -2.3796542 -0.85400581 5
-7.8147407 -2.4672334 -0.26978689 6
-7.9227977 -2.4710817 -0.67675102 6
-7.7346826 -2.4590483 0.090957761 6
-7.8186202 -2.4356561 -0.26989484 7
-7.930666 -2.4400058 -0.67758888 7
-7.7387328 -2.4217877 0.091150045 7
-7.9227901 -2.4077201 -0.67832732 8
-8.5172234 -2.4780512 -2.7922349 8
-7.9241724 -2.3755231 -0.65267771 9
-7.845562 -2.3747668 -0.30544513 9
-7.8233199 -2.3722048 -0.27180767 9
-8.5324841 -2.3879237 -2.8067431 9
-7.8347869 -2.3431652 -0.31284261 10
-7.9280705 -2.3439856 -0.65344673 10
-8.5328007 -2.2970495 -2.8001392 10
-7.8371549 -2.3115082 -0.31377485 11
-7.9261727 -2.312438 -0.65433699 11
-7.9496708 -2.3133225 -0.73511529 11
-8.5395956 -2.2057233 -2.8026288 11
-7.9340353 -2.2800684 -0.65504581 12
-7.849205 -2.278558 -0.31002742 12
-7.9530711 -2.2804556 -0.73602176 12
-8.5467072 -2.113555 -2.8054974 12
-6.1832819 -2.0940926 -1.4613624 13
-7.8410349 -2.2474749 -0.31610811 13
-7.935945 -2.2476776 -0.65587938 13
-8.5511436 -2.0209279 -2.804564 13
-6.1916246 -2.0541186 -1.4576454 14
-7.8490515 -2.213798 -0.31439409 14
-7.9279366 -2.2164373 -0.65688872 14
-8.5652046 -1.9246225 -2.816901 14
-5.9836049 -2.0373142 -0.68470067 14
-6.0442057 -2.0574582 -0.89032638 14
-6.1960225 -2.0123172 -1.4576101 15
-7.9295111 -2.1835639 -0.65774238 15
-7.8475723 -2.1813133 -0.31727463 15
-7.8389301 -2.1766059 -0.27708733 15
-7.7654972 -2.1156697 0.085510314 15
-8.5683622 -1.8296947 -2.8139873 15
-6.0521231 -2.0215807 -0.8902632 15
-5.9899998 -1.9992398 -0.68573523 15
-4.263885 -2.1243761 3.806808 7
-4.6480412 -2.149864 3.9005656 7
-4.2887726 -1.8487673 3.7942762 8.5
-4.5010839 -1.8661427 3.8457732 8.5
-4.9546118 -1.9203032 3.9517226 8.3999996
-5.3328142 -1.8441713 4.0247602 9
-5.5976381 -1.8652843 4.0781927 9
-6.5129204 -2.0361423 4.2925897 8.3999996
-6.8041601 -2.0388968 4.3482728 8.5
-4.3176999 -1.4791491 3.7846889 10.5
-4.5307198 -1.501291 3.8345199 10.5
-4.9449086 -1.5418211 3.9299722 10.5
-5.3380847 -1.4655858 4.0111246 11.125
-5.622426 -1.5120218 4.0784788 11
-6.533916 -1.5993078 4.2771502 10.875
-6.8322601 -1.6851166 4.3355536 10.5
-4.3483067 -1.1047068 3.7728634 12.5
-4.5978637 -1.0782781 3.8325071 12.8
-4.987474 -1.1096764 3.9219375 12.875
-5.3980455 -1.0568875 4.0094705 13.4
-5.6616049 -1.034434 4.0611386 13.666667
-6.6002359 -1.1587292 4.274631 13.333333
-6.8367796 -1.2771862 4.3254662 12.75
-4.3755679 -0.71877265 3.7676311 14.5
-4.5804281 -0.74993515 3.812181 14.5
-5.0105276 -0.71235943 3.907238 15
-5.3910708 -0.755831 3.9998727 15
-5.6818018 -0.78946555 4.0517449 15
-6.6247282 -0.85125649 4.2654419 15
-6.8973656 -0.86630344 4.3066192 15
-6.9215159 -2.067981 4.0250525 8.5
-6.9544458 -1.6545671 4.0058112 11
-6.9880533 -1.2360072 3.9762931 13.5
-7.0085783 -0.97474265 3.974894 15
-6.9987516 -2.0169263 3.6938467 9
-7.0293374 -1.6351252 3.65276 11.5
-7.0605683 -1.2398273 3.6466808 14
-7.0870309 -2.057436 3.2706099 9
-7.1199923 -1.6390287 3.2465298 12
-7.148396 -1.2802892 3.234292 14.5
-7.1824627 -2.1004527 2.8162403 9
-7.2172718 -1.6965207 2.7835009 12.285714
-7.2317386 -1.380888 2.8176141 14.666667
-5.4371786 -1.963609 1.8341162 9.5
-7.2707996 -2.0831144 2.4191141 9.5
-5.4650798 -1.5893011 1.8265841 13
-7.2931628 -1.6883503 2.4320076 13
-5.4740448 -1.3636925 1.834389 15
-7.3111229 -1.4582063 2.4218142 15
-5.5014229 -2.2360153 1.4562547 7
-7.3687496 -2.3714676 1.8530946 7
-5.4955044 -1.9938205 1.5565197 9.5
-7.3570461 -2.1299021 1.999006 9.5
-5.52072 -1.6004322 1.5543969 13.5
-7.3833394 -1.7330513 2.0011771 13.555555
-5.5844069 -2.272197 1.1787159 6.6666665
-7.4225326 -2.377969 1.6225553 7
-5.5765848 -1.9918282 1.1863108 10
-7.4429007 -2.132302 1.6021314 10
-5.6006417 -1.6495831 1.1729853 14
-7.4703445 -1.787636 1.5829265 14.142858
-5.6286864 -2.277446 0.84973234 6.6666665
-7.5050383 -2.4116611 1.2312572 6.6666665
-5.6576481 -2.0210564 0.80653852 10.25
-7.5211673 -2.1602771 1.2275615 10.272727
-5.681304 -1.7240245 0.78419036 14.333333
-7.5360203 -1.8676353 1.2669966 14.2
-5.7159753 -2.2945542 0.45943099 6.5
-6.1676044 -2.3920748 0.41626948 5
-6.375247 -2.404453 0.54383415 5
-7.36165 -2.4798348 0.64958221 5
-7.5928593 -2.4280763 0.81870943 6.5
-5.7452703 -2.0493579 0.3941229 10.619047
-7.6047773 -2.1679792 0.83900565 11
-5.7540431 -1.7967895 0.42539328 14.6
-7.6111021 -1.9378514 0.88301224 14.666667
-5.8198972 -2.3157406 0.044558108 6.1999998
-6.1785622 -2.3901372 0.062615573 3.5
-6.6990547 -2.4333038 0.099003434 3
-6.8306966 -2.4496043 0.0994277 3
-7.4082203 -2.4895167 0.42274457 4.5
-7.6595988 -2.4558866 0.44879705 6
-5.8271418 -2.0531044 0.032496989 11.444445
-7.6860447 -2.1988626 0.44823354 11.529411
-5.8105507 -1.8369501 0.16915625 15
-5.9064913 -2.3268938 -0.32952511 5.9000001
-7.0343246 -2.4805849 0.029217601 3
-7.4929352 -2.503809 0.16728997 4
-7.7468653 -2.4701219 0.045177341 5.7142859
-5.9109716 -2.0911648 -0.3410176 11.681818
-7.764699 -2.2524002 0.053651214 11.588235
-5.9837952 -2.3451059 -0.73243248 5.8571429
-6.9696665 -2.4803867 -0.66375518 29
-7.0393686 -2.4854512 -0.64735377 29
-7.8032379 -2.4820547 -0.21443832 5.5
-6.0016918 -2.1246862 -0.74174643 11.842105
-7.8278003 -2.2734461 -0.25542384 12
-6.0916357 -2.3814769 -1.1330078 5.3333335
-6.9906292 -2.4843905 -0.75407892 21
-7.0603313 -2.489455 -0.73767751 21
-7.9558735 -2.5035539 -0.79823011 5.2857141
-6.0988712 -2.1595445 -1.1404488 11.388889
-7.9614177 -2.2783847 -0.76829469 12
-6.0097389 -2.4342458 -1.6665151 5
-6.1873822 -2.3927679 -1.3982846 5.5
-6.5211406 -2.4688504 -1.5438683 4
-7.8947916 -2.5567858 -1.1239989 4
-8.0243368 -2.4882019 -1.027158 6.25
-6.1683125 -2.1557415 -1.414459 11.5
-8.0464897 -2.3059587 -1.0576504 11.0625
-5.3388042 -2.4003234 -2.3221817 6
-6.2373061 -2.4562683 -1.8463793 5
-6.6792798 -2.4875665 -1.8262968 4.5
-7.0520082 -2.5109708 -1.6689811 4
-7.4085431 -2.5350049 -1.5829611 4
-7.8861408 -2.5665743 -1.4925861 4.5
-8.1235695 -2.5351415 -1.4226186 5.875
-8.1473827 -2.2552712 -1.4008615 11.857142
-8.2236786 -2.0657778 -1.6325483 15
-5.5379791 -2.4204814 -2.5078692 6
-6.7728992 -2.5005012 -2.0543668 5
-7.1902623 -2.5312119 -2.0598807 5
-7.5123615 -2.5517614 -1.9741321 5
-7.8035917 -2.569479 -1.8234885 5
-8.2321253 -2.524384 -1.7810044 6.6666665
-8.2560024 -2.2768362 -1.791707 10.933333
-8.3160181 -2.04637 -1.9456422 14.4
-5.7704282 -2.4404454 -2.6490633 6
-6.1835399 -2.4789903 -2.8845232 6
-7.8778009 -2.574033 -2.4747865 6
-8.3560972 -2.5498645 -2.2222748 6.75
-8.3636484 -2.3261812 -2.1891942 9.8999996
-8.4130373 -2.0159731 -2.2830129 14
-6.4465513 -2.4999115 -2.9574921 6
-6.8958216 -2.5347264 -3.018724 6
-7.3090668 -2.5642185 -2.9977729 6
-7.6757121 -2.5891497 -2.9218841 6
-8.2790737 -2.625701 -2.6457937 6
-8.4663448 -2.5810976 -2.6933248 6.75
-8.2182713 -2.2842073 -2.8919349 10
-8.4504213 -2.3293123 -2.6365004 9.6923075
-8.21173 -2.1070795 -2.8988431 12
-8.4799747 -1.9836286 -2.6783893 13.636364
-3.5024583 -2.2707584 -4.1203709 7
-4.1143622 -2.3038919 -3.9681828 7
-4.6983218 -2.3358448 -3.8214869 7
-5.1001797 -2.3579762 -3.7166646 7
-5.5047326 -2.3807323 -3.6148822 7
-5.7966914 -2.3974161 -3.5415831 7
-6.3421397 -2.4291213 -3.3999569 7
-6.6652966 -2.4490807 -3.330256 7
-6.9325619 -2.4647603 -3.243979 7
-7.3227463 -2.4892495 -3.1395996 7
-7.6955252 -2.5132968 -3.035229 7
-8.0936546 -2.539717 -2.9180162 7
-3.6161947 -2.0233719 -4.1065316 8.5
-3.9939933 -1.9817239 -4.0137687 9
-4.3922133 -2.0272224 -3.9129224 9
-4.7463121 -2.0670094 -3.8249965 9
-5.0593319 -2.1137917 -3.7393339 8.8999996
-5.3724813 -2.134944 -3.6652789 9
-5.7726307 -2.1213527 -3.5603526 9.5
-6.1899586 -2.1440704 -3.4556839 9.7142859
-6.5605831 -2.2047019 -3.3543267 9.5
-6.9492836 -2.2409215 -3.2481036 9.5
-7.3508496 -2.2495773 -3.1405721 9.7777777
-7.7311616 -2.2569966 -3.0348384 10
-8.0868053 -2.3359377 -2.9331801 9.333333
-3.6455226 -1.5987225 -4.1201048 11
-4.0106792 -1.6098926 -4.02776 11.333333
-4.3775005 -1.6016454 -3.9393957 11.833333
-4.7354956 -1.6330056 -3.8477712 12.1
-5.0662208 -1.730813 -3.758503 11.857142
-5.4156923 -1.7154105 -3.6738904 12.5
-5.8182449 -1.7344489 -3.5702751 13
-6.1878843 -1.7488575 -3.4734948 13.5
-6.6155791 -1.8172708 -3.3583424 13.555555
-6.9834652 -1.8763961 -3.2571676 13.5
-7.3520083 -1.89942 -3.1549747 13.714286
-7.7560215 -1.9068425 -3.0404572 14
-8.1575432 -1.9680886 -2.929167 13.5
-3.6753163 -1.1648245 -4.1340604 13.5
-4.0345049 -1.2297217 -4.042706 13.666667
-4.3510723 -1.2389251 -3.9626453 14.125
-4.7849965 -1.3001907 -3.848829 14.5
-5.1406631 -1.3937612 -3.7544641 14.5
-5.4291158 -1.4032876 -3.6810832 15
-5.8845391 -1.5166574 -3.5627265 15
-3.702034 -0.90051579 -4.1341534 15
-4.0351048 -1.002763 -4.0508571 15
-5.6863923 -2.0757802 3.4360719 8.0024996
-5.7783704 -1.852433 0.3592996 14.0185
-5.7799568 -1.7891756 0.36049038 15.0185
-5.8506222 -1.9290892 0.0092035532 14.023
-7.7014747 -2.2179916 0.32716578 11.656999
-5.9290543 -2.0357935 -0.39336574 13.141776
-7.7329488 -2.1510708 0.21362954 13.655
-5.9942412 -2.0476143 -0.68727052 13.83785
-7.8280444 -2.2087719 -0.25141394 14.032223
-6.0962138 -2.1567471 -1.1906811 11.451999
-7.953557 -2.2366338 -0.81374174 13.85241
-8.0256405 -2.2865872 -1.1891494 11.933773
-8.2855892 -2.1155145 -2.2833409 13.1025
-8.2827806 -2.0089784 -2.2719071 14.6025
-6.1510501 -2.3132656 -3.0011499 8.073
-6.1953816 -2.3473535 -1.4658537 6
-6.2021923 -2.295259 -1.4599032 7
-6.2144051 -2.2442205 -1.492664 8
-6.8303022 -2.1340435 4.2203193 8
-8.4599466 -2.3913748 -2.8515801 8
-6.2078466 -2.1915123 -1.4648477 9
-6.8406134 -1.97955 4.2317834 9
-8.4665127 -2.2795937 -2.85167 9
-6.2219968 -2.1387482 -1.4937472 10
-6.8510747 -1.8269371 4.210875 10
-8.4700089 -2.1677794 -2.8465891 10
-6.215498 -2.0871472 -1.465651 11
-6.8615532 -1.6692092 4.2282991 11
-8.4857254 -2.0541468 -2.8619063 11
-6.2233887 -2.0294461 -1.5091454 12
-6.872077 -1.5161009 4.2040224 12
-8.4986277 -1.9390619 -2.8723423 12
-6.2331157 -1.9777751 -1.4964287 13
-6.8827543 -1.3576776 4.2036338 13
-8.4985142 -1.8256344 -2.8610249 13
-7.733078 -2.1525562 0.27086848 13
-7.7501373 -2.1589904 0.15863146 13
-5.928421 -2.0477505 -0.28942683 13
-6.2336459 -1.9208442 -1.5048779 14
-6.8935342 -1.1985921 4.1964874 14
-8.514287 -1.7063012 -2.8758769 14
-5.9269552 -2.0123427 -0.29068077 14
-7.8755193 -2.1154611 -0.27796435 14
-7.734024 -2.1176908 0.26971954 14
-5.8805156 -1.992502 0.0063727349 14
-7.933588 -2.0952404 -0.53405356 14
-7.7597055 -2.1232324 0.15972881 14
-6.2347522 -1.8627522 -1.5122538 15
-7.872633 -2.0773742 -0.27756745 15
-6.904561 -1.0347642 4.1978054 15
-8.5286341 -1.5846503 -2.8881016 15
-7.9325247 -2.052283 -0.53314948 15
-5.8843956 -1.9561412 0.0054823607 15
-5.9387369 -1.9806097 -0.28974825 15
-7.737195 -2.0818908 0.26934963 15
-4.3074384 -2.130553 3.713393 7
-4.1864843 -1.8775177 3.674155 8.5
-4.4084845 -1.8600938 3.7263684 8.7142859
-4.733674 -1.8397555 3.7943325 9
-4.2122593 -1.4655347 3.6695921 11
-4.431386 -1.4898274 3.7150545 11
-4.7602129 -1.4429476 3.7876539 11.5
-4.2621179 -1.0495799 3.6601686 13.5
-4.4919863 -1.0813949 3.7148969 13.5
-4.7815876 -1.1186001 3.7825334 13.5
-4.2555294 -0.78479314 3.6610818 15
-4.5002952 -0.82593381 3.7088633 15
-4.7979479 -0.86920202 3.7788858 15
-5.6460438 -1.8293524 3.998687 9.5
-6.0953083 -1.9535596 4.1048379 8.875
-6.415657 -1.9530908 4.1791081 9
-6.7139111 -1.9700625 4.2411628 9
-5.6669726 -1.5223773 3.9925206 11.5
-6.1051683 -1.5347135 4.093811 11.6
-6.4597483 -1.5688457 4.1723452 11.5
-6.7400889 -1.5800309 4.2384586 11.5
-5.6926618 -1.1281643 3.9882338 14
-6.1217103 -1.1798573 4.0831413 13.857142
-6.4862828 -1.1725956 4.16681 14
-6.7671289 -1.1798319 4.2312088 14
-6.9009185 -2.0035076 3.9537666 9
-6.925519 -1.6393434 3.9483602 11.5
-6.9507933 -1.2652547 3.9434545 14
-6.9782763 -2.0326514 3.6160347 9
-7.0055723 -1.6299192 3.6102605 12
-7.0288205 -1.285253 3.6028502 14.5
-7.0286236 -2.3025422 3.3266933 7
-7.0786285 -2.0710294 3.1739216 9
-7.0455227 -2.0571899 3.3289435 9
-7.0941982 -1.6701113 3.2187221 12.285714
-7.1108932 -1.3709272 3.2266636 14.666667
-7.1654139 -2.0300038 2.8138258 9.666667
-7.1919599 -1.6492586 2.7980626 13.25
-7.1951485 -1.4434063 2.8360384 15
-5.4866877 -2.2326245 1.6160405 6.6666665
-6.9668727 -2.3822031 2.1757381 6
-7.2477965 -2.3189607 2.3834598 7
-5.4996185 -1.9694811 1.6294446 10
-7.2648716 -2.0783136 2.3766019 9.666667
-5.5232925 -1.6354053 1.6190712 14.142858
-7.2827635 -1.7046626 2.3943081 13.636364
-5.5756512 -2.2306933 1.2264466 6.75
-7.3141198 -2.3639698 2.0186782 6.5
-5.601573 -1.9668157 1.1947854 10.8125
-7.3503661 -2.0902233 2.0049467 10
-5.6148157 -1.7222184 1.2050735 14.4
-7.3725419 -1.7706163 1.9914408 14
-5.7116261 -2.2747624 0.81139886 6
-5.9777784 -2.3367059 0.94092155 5
-6.9191747 -2.3956995 1.219515 5
-7.4239807 -2.3554339 1.6136968 6.6666665
-5.6842079 -1.9917189 0.82539707 11.25
-7.4443536 -2.1036146 1.5926988 10.5
-5.693397 -1.7755497 0.84871387 15
-7.4631176 -1.8355612 1.5847485 14.5
-5.761333 -2.2668178 0.4155581 6.1428571
-7.0103455 -2.4064567 1.0128211 4.5
-7.4472671 -2.385632 1.1493204 6
-7.4779005 -2.3965657 1.3809574 6
-5.7690725 -2.0285482 0.45067084 11.529411
-7.5403142 -2.1211891 1.180447 11.125
-7.5040369 -2.0589552 1.3604568 11.714286
-7.5537024 -1.8993556 1.2054076 15
-7.5230265 -1.8678075 1.3308141 15
-5.8461261 -2.2735777 0.040346101 6
-5.8051434 -2.2916536 0.22793521 5.5
-7.1428199 -2.4197421 0.7680037 4
-7.5862994 -2.4004397 0.76985979 5.7142859
-5.8618379 -2.0735409 0.039766505 11.588235
-5.8291969 -2.0625515 0.19746958 11.5
-7.627018 -2.1502886 0.79953426 11.529411
-5.9330168 -2.281117 -0.32321146 6
-6.7950096 -2.4095759 -0.14144906 29
-6.860322 -2.4134495 -0.11191455 29
-7.7110734 -2.4091272 0.33426237 5.5999999
-5.9462719 -2.1004212 -0.33055115 11.5
-7.7259645 -2.2021792 0.34575075 11.4
-6.0314827 -2.3113439 -0.73482794 5.6363635
-6.8330088 -2.4137137 -0.22602323 21
-6.8983212 -2.4175873 -0.19648872 21
-7.7931857 -2.4199481 -0.049007401 5.5
-6.0437331 -2.101743 -0.74563706 11.5
-7.8020687 -2.2062643 -0.018579215 11.647058
-6.1506577 -2.3512232 -1.0792469 5.375
-6.4895735 -2.4649878 -0.88910568 3.3333333
-7.6842465 -2.4753342 -0.53896064 4
-7.8868198 -2.4240537 -0.44146633 6
-6.1280613 -2.0834219 -1.1079528 11.529411
-7.896153 -2.2088647 -0.42093104 11.411765
-6.2568169 -2.4100275 -1.4584882 4.75
-6.6709085 -2.4226975 -1.3684411 4.6666665
-7.0208693 -2.4400446 -1.0682005 4
-7.3802714 -2.4619832 -0.90863824 4
-7.9662848 -2.4421268 -0.79406643 6.125
-7.9427629 -2.4828002 -0.64126766 5
-6.1993694 -2.0796285 -1.4113942 11.2
-7.9788613 -2.190871 -0.76321149 11.466666
-7.9437342 -2.2099855 -0.61959416 11.2
-6.2219849 -1.8660288 -1.4879994 15
-5.8937159 -2.3852487 -2.2565954 6
-6.8820577 -2.4380198 -1.4952636 5
-7.1928301 -2.4589276 -1.4451416 5
-7.5555229 -2.4799378 -1.2725832 5
-7.9821882 -2.4627829 -1.121727 6
-8.0601091 -2.1716678 -1.0963273 11.384615
-8.0734577 -1.9642863 -1.0939506 15
-6.2523193 -2.4113467 -2.3683422 6
-6.6010709 -2.4354501 -2.4217739 6
-8.1547174 -2.4611554 -1.5607959 6.6666665
-8.1637468 -2.2068791 -1.5389507 10.35
-8.1919193 -1.9187293 -1.5824071 14.333333
-6.8826632 -2.4551172 -2.4340513 6
-7.1747155 -2.4746511 -2.4054921 6
-7.617166 -2.503015 -2.294837 6
-7.9475155 -2.5223367 -2.1336846 6
-8.2144594 -2.4973769 -1.9853361 6.5
-8.250309 -2.2240987 -1.9052649 9.8571424
-8.2976685 -1.8897114 -2.0204637 13.714286
-5.2812061 -2.3138568 -3.6727898 7
-5.5890517 -2.3299387 -3.5890138 7
-5.9505286 -2.3497567 -3.5059743 7
-6.3913045 -2.3743491 -3.3938053 7
-8.1013899 -2.4696808 -2.6587687 7
-8.3023081 -2.4699702 -2.1960347 7
-5.3055959 -2.0440636 -3.6640861 9
-5.5178695 -2.0641642 -3.6138537 9
-5.9466686 -2.0792472 -3.5112205 9.1999998
-6.363286 -2.1224401 -3.4086945 9.1428576
-8.3419266 -2.2467735 -2.3043191 9.4444447
-5.3343229 -1.6352968 -3.6697509 12
-5.5458422 -1.6687226 -3.618798 12
-5.9792385 -1.733011 -3.5129826 12
-6.3890343 -1.6965005 -3.4162886 12.75
-6.658391 -1.7605574 -3.3494146 12.5
-8.3783026 -1.8527467 -2.3491268 13.5
-5.3559322 -1.2832597 -3.6818039 14.5
-5.5725975 -1.3207877 -3.6218641 14.571428
-6.0298958 -1.4327137 -3.5127614 14.4
-6.4075279 -1.4224856 -3.4209034 15
-6.6963749 -1.4684327 -3.3464301 15
-6.7951884 -2.3976755 -3.2915041 7
-7.1608124 -2.4196625 -3.1988063 7
-7.5383048 -2.4430978 -3.1021819 7
-7.8868456 -2.4661303 -3.02754 7
-8.4216576 -2.4960823 -2.7109435 7
-6.7787418 -2.140537 -3.311105 9.2857141
-7.1738343 -2.1648989 -3.2148085 9.333333
-7.5277147 -2.1526535 -3.128592 9.666667
-7.9557433 -2.1962457 -3.0229452 9.5
-8.3467913 -2.2274811 -2.8736024 9.416667
-8.4078388 -2.232522 -2.5826671 9.5
-6.8424797 -1.7805128 -3.3085091 12.5
-7.1856728 -1.7572267 -3.2238524 13
-7.5540624 -1.8018823 -3.1316066 12.857142
-7.9871159 -1.8080518 -3.0262079 13
-8.3817205 -1.8316191 -2.9012542 12.916667
-8.4376249 -1.8128941 -2.5915532 13.5
-6.9023967 -1.4952271 -3.2993374 15
-7.190062 -1.528291 -3.2256994 15
-7.5228052 -1.5549169 -3.1499925 15
-8.00387 -1.5780965 -3.0336871 15
-8.4022522 -1.5957025 -2.871733 15
-5.6349249 -2.0816529 3.327301 8.1774998
-5.8912191 -2.0980101 3.3933873 8.1754999
-5.686502 -1.9724325 0.82489002 11.679501
-5.7152252 -1.7973466 0.75820863 15.0135
-7.475174 -2.2484009 1.3855371 8.6569996
-5.876965 -1.9705784 0.015440568 14.5275
-5.8320966 -1.9405751 0.20080401 14.523
-7.6491213 -2.0499625 0.71128094 14.3472
-5.960537 -2.0760772 -0.3802653 12.402954
-7.72365 -2.1479244 0.37463236 12.939
-6.0421462 -2.002476 -0.72508484 14.4245
-7.8065252 -2.1717889 -0.010041356 12.994434
-6.1434345 -1.9527407 -1.1435937 14.726001
-7.879745 -2.1742029 -0.30224407 12.803525
-7.9771891 -2.3595281 -0.86358213 8.1070004
-8.0672073 -1.9977657 -1.0339975 15.105
-1.6983023 -2.2298498 -1.7656181 6
-1.3502629 -2.0845535 -0.52738976 6
-1.6985651 -2.1989539 -1.773386 7
-2.8683352 -2.0675774 0.70400876 7
-1.3086969 -2.0393946 -0.39929026 7
-0.8493644 -1.8846682 1.1315312 7
-3.8487027 -2.4672737 -2.5846353 7
-1.6982973 -2.1677828 -1.7824378 8
-1.3523192 -2.0215974 -0.53169709 8
-2.8809948 -2.0085607 0.65305227 8
-0.86057556 -1.7996286 1.1152866 8
-1.3095698 -2.0040147 -0.40130192 8
-3.1960006 -2.4513366 -3.9870005 8
-0.76080394 -1.7069488 1.0753367 9
-2.8878489 -1.9447323 0.6512813 9
-3.2018061 -2.338274 -3.9900498 9
-0.57136083 -1.5413284 2.1063344 9
-0.77232385 -1.621393 1.0593617 10
-1.361304 -1.959708 -0.54037702 10
-1.7043732 -2.1043763 -1.7857649 10
-2.8844569 -1.8730403 0.68851954 10
-0.5802114 -1.4187818 2.0954142 10
-3.2188826 -2.2262745 -4.0233393 10
-2.8027034 -2.2054291 -4.0827465 10
-0.77503157 -1.5319322 1.0570233 11
-1.6954944 -2.0711374 -1.7819455 11
-1.3583515 -1.9266686 -0.54006314 11
-2.8986058 -1.8164659 0.64126474 11
-0.59190989 -1.2969748 2.0787446 11
-3.2286639 -2.112047 -4.0368862 11
-2.81407 -2.0932283 -4.1051149 11
-0.7900995 -1.447641 1.0355649 12
-1.3635207 -1.895546 -0.54484391 12
-1.6993446 -2.0393639 -1.7818983 12
-2.8941834 -1.741818 0.6755175 12
-3.874032 -2.0451415 -2.6183383 12
-0.60552645 -1.1757022 2.0582008 12
-2.8247116 -1.9793968 -4.1240034 12
-3.1806231 -1.9965122 -4.027637 12
-0.78817296 -1.3533739 1.040453 13
-1.3731601 -1.8659637 -0.552405 13
-1.7078524 -2.0090725 -1.7712493 13
-2.898211 -1.675746 0.66703683 13
-1.7278569 -2.0043731 -1.8647952 13
-0.60942876 -1.0466315 2.0575616 13
-3.2530937 -1.8787431 -4.0764523 13
-2.8341928 -1.8641777 -4.1376171 13
-0.79578733 -1.2629542 1.0305858 14
-1.3684536 -1.8305976 -0.55108231 14
-2.9015212 -1.6094446 0.65689939 14
-1.7131709 -1.9780434 -1.7677867 14
-1.7309656 -1.969509 -1.8670291 14
-3.2003779 -1.7638589 -4.0550041 14
-0.619488 -0.91979945 2.044457 14
-2.8413181 -1.748444 -4.1410475 14
-3.2109165 -1.8718745 -0.38615215 14
-1.7121251 -1.9436233 -1.7791717 15
-2.9120185 -1.5571344 0.60316318 15
-1.3760908 -1.7997442 -0.55742562 15
-1.3325423 -1.7537344 -0.42839229 15
-3.212075 -1.6438544 -4.0733299 15
-0.62903082 -0.79037213 2.032532 15
-2.8535688 -1.6281192 -4.1652951 15
-3.2101846 -1.8266052 -0.39282745 15
-5.1147861 -2.7466736 -4.1298547 7
-4.758543 -2.7276421 -4.243732 7
-5.0564423 -2.437573 -4.1858783 9
-4.6676025 -2.4274194 -4.3007007 9
-4.3541861 -2.41817 -4.4009171 9
-5.0873728 -2.053339 -4.2240219 11.5
-4.693151 -2.0573728 -4.3377547 11.5
-4.3664656 -1.9839439 -4.4459949 12
-5.1007471 -1.6597444 -4.2661929 14
-4.7273016 -1.6770413 -4.3749838 14
-4.417274 -1.6868563 -4.4631786 14
-3.6780884 -2.3239648 -4.6104579 9.5
-3.5683358 -2.3195808 -4.6429291 9.5
-2.690619 -2.3431416 -4.8538418 9
-3.7037351 -1.974213 -4.6409535 12
-3.5948322 -1.9705938 -4.675209 12
-2.7523005 -1.9286306 -4.8996539 12
-3.7315311 -1.6149366 -4.6755738 14.5
-3.6238866 -1.6120771 -4.7132559 14.5
-2.7588377 -1.572638 -4.9225268 14.5
-2.5272582 -2.3172619 -4.5072546 9
-3.2503633 -1.9952329 -4.0819983 12
-2.5536535 -1.9414003 -4.523747 12
-2.5802257 -1.6181746 -4.5674915 14.5
-3.0433419 -2.2717254 -3.9642172 9.5
-2.8002946 -2.2608998 -4.0794363 9.5
-2.4445548 -2.2998409 -4.2320848 9
-3.0773292 -1.8807378 -4.0158496 13
-2.8588631 -1.8664252 -4.1133666 13
-2.4603586 -1.9071975 -4.2220101 12.4
-3.0936584 -1.6487701 -4.0457273 15
-2.8825037 -1.6296395 -4.1580496 15
-2.4967256 -1.5970927 -4.2826071 15
-3.904232 -2.4912243 -2.7609434 7
-3.9265718 -2.2670703 -2.7873442 9.5
-2.2902274 -2.2179937 -3.7132521 9.5
-2.3782735 -2.231643 -4.0045309 9.5
-3.953763 -1.8903967 -2.8215556 13.6
-2.319772 -1.8271422 -3.7439542 13.5
-2.4112258 -1.798757 -4.0421939 13.5
-2.4242835 -1.6309074 -4.0595465 15
-3.7806675 -2.4339936 -2.3310401 7
-3.7787921 -2.4983866 -2.5484023 6.5
-2.1790631 -2.4156177 -3.3803864 7
-3.7976735 -2.2043462 -2.3564227 10
-3.8488836 -2.2115915 -2.5310388 10
-2.1987484 -2.1603777 -3.4061329 10
-3.8154297 -1.8927823 -2.3703833 14
-3.879173 -1.8748584 -2.5794637 14
-2.2253861 -1.8127148 -3.4372048 14
-3.7085505 -2.4394794 -2.1066718 6.5
-2.0752199 -2.3681946 -3.0309224 7
-3.7237744 -2.158535 -2.1121418 10.5
-2.0812886 -2.1238289 -3.0152252 10.352942
-3.7501402 -1.894886 -2.1590371 14.2
-2.1229324 -1.8251619 -3.1028402 14.333333
-3.5905871 -2.3810351 -1.7082512 6.5
-3.2014778 -2.4200301 -1.7593067 5
-3.0188942 -2.4240882 -1.956697 5
-2.1162758 -2.3939791 -2.3465929 5
-1.9460104 -2.3400207 -2.6075923 6.5
-3.6033292 -2.1271563 -1.7172041 10.785714
-1.9673104 -2.0778224 -2.6338866 11
-3.6268957 -1.8870996 -1.7435045 14.75
-2.0067027 -1.8494145 -2.7284601 14.666667
-3.4630494 -2.3486483 -1.3693612 6.125
-1.8944057 -2.3114476 -2.0995984 5.5
-1.8391426 -2.3071785 -2.2342725 6
-3.4969289 -2.0951881 -1.3638639 11.105263
-1.7991847 -2.0970361 -2.0758841 10.5
-1.8502879 -2.0427697 -2.2480385 11.722222
-3.54774 -1.8868732 -1.4863821 15
-3.3601198 -2.297863 -0.93776965 6
-1.7552032 -2.2667265 -1.8748429 5.5
-3.3749387 -2.0484529 -0.95374638 11.529411
-1.7373905 -2.0610528 -1.8846271 11.388889
-3.2363179 -2.2460523 -0.5233959 6
-3.2798986 -2.2644086 -0.68406928 6
-2.120939 -2.2597511 -0.96999145 29
-2.0584559 -2.2583127 -1.0053021 29
-3.251375 -2.0042555 -0.5317263 11.529411
-3.2973454 -2.0268755 -0.70309353 11.5
-3.1302819 -2.2082908 -0.16816384 6
-2.8646913 -2.2595725 -0.34427816 4
-2.4422643 -2.2843561 -0.54762393 3
-2.0798602 -2.2495532 -0.88844353 20.608696
-2.0133154 -2.2472086 -0.92497236 21
-3.1452422 -1.9514465 -0.18152398 11.5
-2.9872684 -2.1556921 0.20983452 6.25
-2.5840268 -2.2125616 0.035132468 4
-2.4275422 -2.2241628 -0.10200089 3.5
-1.3314375 -2.0466537 -0.46826243 7
-3.0292835 -1.8974578 0.20846027 11.136364
-1.3552148 -1.8746756 -0.5205127 12.4
-3.0376484 -1.679215 0.21197289 15
-2.9080153 -2.101496 0.57935625 6.6666665
-2.4533515 -2.1885493 0.28783363 4
-2.1423979 -2.1439645 0.28197664 4.6666665
-1.7837169 -2.1482649 -0.048301578 4
-1.3364726 -2.092119 -0.27808464 5.3333335
-1.3178885 -2.1127024 -0.44734079 5
-2.9261098 -1.84881 0.55834955 10.769231
-1.2960575 -1.8573442 -0.3190574 11.5
-1.3374387 -1.9180077 -0.47095528 10.8
-2.9366801 -1.6050673 0.55902487 14.5
-2.922003 -2.1149809 1.2013948 6
-1.9222407 -2.115823 0.38712078 5
-1.5840101 -2.0993605 0.29825288 5
-1.2201502 -2.0502467 0.084610403 5.8571429
-1.1903586 -1.7672518 0.039297998 11.5
-1.1728212 -1.5434047 0.14218515 15
-2.478076 -2.0703597 1.3165131 6
-2.1261013 -2.0398886 1.3637619 6
-1.7849476 -2.0168948 1.3283758 6
-1.4702696 -2.0002043 1.2470837 6
-1.1243987 -1.9862829 1.1224699 6
-0.80185544 -1.9791936 0.94528085 6
-3.8626423 -1.9518421 3.203289 7
-0.7918098 -1.8771483 1.1778862 7
-3.9572632 -1.718153 3.1943107 8.5
-3.7998285 -1.6758025 3.1417308 8.75
-0.78191459 -1.595365 1.4123232 9.666667
-0.81557131 -1.6307675 1.1552563 9.7777777
-3.9866776 -1.3173307 3.1538582 11
-3.858289 -1.2910817 3.1089311 11.2
-0.81112599 -1.1963935 1.3757875 13.666667
-0.8516134 -1.2694801 1.1393785 13.714286
-4.0153461 -0.90957582 3.1098065 13.5
-3.8657818 -0.87474 3.0612149 13.8
-4.0404258 -0.65296888 3.0983567 15
-3.9552846 -0.66578841 3.0690498 15
-3.4069145 -1.9264729 3.0506454 7
-2.9122286 -1.8998482 2.8831735 7
-2.4175081 -1.8720576 2.7417221 7
-2.1489072 -1.8597997 2.634877 7
-1.843783 -1.8437431 2.5465961 7
-0.63851714 -1.8128223 1.8532519 7
-3.6078682 -1.6345997 3.0714931 9
-3.3252203 -1.6298913 2.9884806 9
-2.9447389 -1.6026759 2.8710628 9.1428576
-2.5417328 -1.6143832 2.7453513 9
-2.1087146 -1.6020396 2.612431 9
-0.69293559 -1.5546734 1.7091408 9.5
-3.6373231 -1.2531452 3.0366344 11.5
-3.3218546 -1.2208202 2.937654 11.8
-2.9750955 -1.2027633 2.833569 12
-2.5657864 -1.2150128 2.7029314 12
-2.1433849 -1.2184672 2.577858 12
-0.72383296 -1.1726425 1.6668921 13
-3.6676297 -0.8610307 3.0008318 14
-3.3861809 -0.88707328 2.9164712 14
-3.0042381 -0.85827541 2.7994149 14.4
-2.5919094 -0.87177694 2.672657 14.5
-2.1711614 -0.88867092 2.5484314 14.5
-0.73615873 -0.94019449 1.6615427 15
-1.573019 -1.8297746 2.4700732 7
-1.3076494 -1.8166292 2.3931668 7
-0.90230227 -1.7979258 2.2686806 7
-1.7379981 -1.5895506 2.4999914 9
-1.3143294 -1.5731697 2.3660345 9
-0.96762323 -1.5570602 2.2611957 9
-0.65726066 -1.5732836 2.1577847 8.75
-1.7664994 -1.2155195 2.4626508 12
-1.3576506 -1.2053165 2.3354003 12
-0.99590564 -1.1888375 2.224607 12
-0.70921993 -1.1723809 2.1322126 12
-1.7908071 -0.89526129 2.4305685 14.5
-1.3719925 -0.90144718 2.3052545 14.4
-1.021517 -0.87492681 2.1898522 14.5
-0.73350215 -0.85493553 2.1011205 14.5
2.0749087 -1.4050125 4.6977434 7
3.7884178 -0.75054753 7.036696 8
3.6175442 -0.41047335 7.0478015 9
3.9096909 -0.39146125 6.959784 9
3.5194921 -0.066911459 7.0373902 10
3.8062644 -0.045962095 6.9437985 10
3.5151587 0.49691677 6.962831 11.6
3.8465381 0.40365744 6.8789773 11.25
3.4390435 0.99322653 6.9352593 13
3.8081818 0.91213465 6.8301759 12.666667
3.4091377 1.3535213 6.8969417 14
3.699173 1.390573 6.8080673 14
4.0530453 -0.38311267 6.9082246 9
4.0324197 -0.026934624 6.8821678 10
3.9461384 1.0504646 6.7726679 13
3.922739 1.421391 6.7430673 14
-3.2790308 -1.7551799 -4.131321 14.1755
-3.3015583 -1.6273754 -4.1774707 15.1755
-2.7306855 -2.3782177 -4.2302885 8.6709995
-3.9049852 -1.8680754 -2.6489053 14.009
-3.5370126 -1.9975038 -1.4950092 13.0205
-1.8440541 -1.9443682 -2.2092147 14.1595
-3.540164 -1.8865929 -1.5036279 15.0205
-1.7346934 -1.9420855 -1.8295977 15.153749
-3.2731688 -2.0313239 -0.60369456 11.181857
-3.2667837 -1.9085293 -0.6202547 14.039
-3.1951213 -1.8432511 -0.3466236 14.5455
-3.0637317 -1.74801 0.085366428 14.5545
-1.3077508 -1.7608801 -0.42274457 15.1025
-1.6112728 -2.2446201 -1.4201062 5
-1.6115553 -2.2128677 -1.4340181 6
-1.163589 -2.0207024 0.11587167 6
-2.9081888 -2.0730207 0.61376303 7
-0.85102856 -1.8916005 0.97573298 7
-3.2267556 -2.4778705 -4.062634 8
-1.6198989 -2.1447117 -1.4231063 8
-2.9129806 -2.0183177 0.60907561 8
-0.85041761 -1.8269192 0.97712296 8
-0.61427939 -1.6835796 2.0263455 8
-0.77619243 -1.7588849 0.94520789 9
-2.9235053 -1.9628232 0.6103248 9
-1.6197615 -2.1122828 -1.4395595 9
-3.2373934 -2.3444524 -4.0785165 9
-0.61881161 -1.5826547 2.0214727 9
-2.8609662 -2.327826 -4.1643438 9
-1.6069912 -2.0765235 -1.3828888 10
-0.77710938 -1.6926966 0.94372064 10
-2.9139814 -1.9097021 0.59074515 10
-3.2547717 -2.2109652 -4.1111388 10
-0.63421655 -1.4863514 1.9935989 10
-2.8747623 -2.1955032 -4.1921186 10
-0.78724694 -1.6296519 0.92920369 11
-2.932519 -1.8516748 0.6000362 11
-0.64431238 -1.3877263 1.9769597 11
-2.8900595 -2.0612993 -4.2247725 11
-1.1772598 -1.8212707 0.095722079 12
-1.6132481 -2.0133846 -1.3817263 12
-0.79188097 -1.5639768 0.92246157 12
-2.9267263 -1.7980673 0.58432537 12
-0.63846993 -1.2779408 1.9942391 12
-3.2837107 -1.9374897 -4.1614189 12
-0.79447412 -1.4963801 0.91860038 13
-2.9322851 -1.7413064 0.58008403 13
-0.65076923 -1.1785216 1.9730177 13
-3.2965937 -1.797701 -4.1823745 13
-2.9124846 -1.7872043 -4.2611628 13
-0.79495347 -1.4262053 0.91772062 14
-2.9313297 -1.6859921 0.56919569 14
-0.65689254 -1.0732152 1.9650109 14
-3.3139815 -1.6542544 -4.2142353 14
-2.9271395 -1.6457868 -4.2905388 14
-2.9437613 -1.6247823 0.57144624 15
-0.80672014 -1.3622309 0.90089744 15
-0.66278505 -0.96563077 1.9575925 15
-4.8946037 -2.7786622 -4.3080945 7
-5.0840731 -2.5267916 -4.2881098 8.5
-4.7405396 -2.5174685 -4.3967676 8.5
-5.1148982 -2.088815 -4.3315673 11
-4.7767506 -2.0908256 -4.4307909 11
-4.5304127 -2.0912375 -4.5222487 11
-5.1489124 -1.6418906 -4.3787789 13.5
-4.8003521 -1.6558797 -4.4807544 13.5
-5.1672506 -1.3667583 -4.4049745 15
-4.8244505 -1.3867223 -4.5142388 15
-4.5800481 -1.3978355 -4.5916581 15
-4.458148 -2.5086412 -4.4788618 8.5
-3.6763263 -2.4016399 -4.7299604 9
-2.8877387 -2.3697784 -4.9707966 9
-4.4787512 -2.0904207 -4.5272679 11
-3.6895366 -2.0777946 -4.7667308 11
-2.9121528 -2.0478766 -5.0074673 11
-4.519063 -1.6638985 -4.5641956 13.5
-3.700753 -1.665012 -4.8206825 13.5
-2.9587939 -1.6384262 -5.0480757 13.5
-4.5072942 -1.4013953 -4.6063414 15
-3.7355297 -1.4109688 -4.8423185 15
-2.9584308 -1.3860995 -5.0671439 15
-2.6890993 -2.3839777 -4.8553033 8.8000002
-2.7403035 -2.0106244 -4.9457011 11.2
-2.7683699 -1.5899364 -4.9540377 13.833333
-2.8343878 -1.3769028 -5.1148281 15
-3.1132042 -2.336586 -4.0592155 9
-2.8847499 -2.3292093 -4.1676536 9
-3.1442623 -1.9361122 -4.1300783 12
-2.9282711 -1.8982993 -4.2308345 12.2
-3.1603353 -1.6140549 -4.1703944 14.333333
-2.955617 -1.5998206 -4.2867942 14.333333
-2.4901762 -2.3096166 -4.2570262 9
-2.5190463 -1.9076749 -4.2958174 12
-2.5440826 -1.5633365 -4.330687 14.5
-3.9198353 -2.5107851 -2.6909156 7
-3.9515569 -2.2472246 -2.7651947 9.5
-2.3138776 -2.2389901 -3.6776268 9.2857141
-3.9759676 -1.8335758 -2.7877362 13.285714
-2.3556938 -1.8476911 -3.7578747 12.714286
-4.0041399 -1.6340382 -2.8512368 15
-2.3687961 -1.5786865 -3.7663383 15
-3.7833567 -2.4489226 -2.2503109 7
-3.8141472 -2.2211452 -2.3168273 9.5
-3.8748925 -2.2327876 -2.5112884 9.5
-2.1911483 -2.1929214 -3.2714353 9.5
-3.8356037 -1.8349615 -2.338161 13.555555
-3.8981164 -1.8263811 -2.5394611 13.5
-2.2211142 -1.7958503 -3.3193107 13.5
-3.674329 -2.4292333 -1.9163053 6.6666665
-3.4753141 -2.4892747 -2.1090231 6
-2.0275443 -2.368387 -2.7751105 7
-3.7009237 -2.1566408 -1.948833 10
-2.0763555 -2.1495318 -2.8995893 9.8000002
-3.7306309 -1.8184103 -1.9987166 14
-2.1098633 -1.7988164 -2.9589195 13.875
-3.561516 -2.3859129 -1.5398879 6.5
-1.9173021 -2.3386431 -2.4122925 6.6666665
-3.5839505 -2.1131363 -1.5711331 10.333333
-1.9466841 -2.0987873 -2.4701517 10.272727
-3.614203 -1.843212 -1.6291416 14
-1.9753156 -1.8200562 -2.5281649 14.2
-3.4477215 -2.3283491 -1.152849 6.5
-2.9442167 -2.3680539 -1.2934018 5
-2.7752223 -2.3779771 -1.50459 5
-1.8174425 -2.2979255 -1.9948645 6.25
-1.8602886 -2.2900889 -2.220664 7
-3.4643979 -2.0653963 -1.1775286 10.769231
-1.8295929 -2.0470328 -2.0890167 11
-1.8757052 -2.0783165 -2.2422538 10.5
-3.4944615 -1.8275708 -1.250062 14.5
-1.842996 -1.8222929 -2.1027806 15
-1.893476 -1.8312653 -2.2622287 14.5
-3.2894485 -2.2547944 -0.64252043 6.5
-3.2659721 -2.2964499 -0.82077587 6
-1.7030962 -2.263299 -1.6528189 5.7142859
-3.3084657 -1.9944969 -0.66772848 11.5
-3.3579485 -2.0328896 -0.83863139 11
-1.70895 -2.0244694 -1.6994753 11.529411
-3.3437302 -1.8066461 -0.73067313 15
-3.3812208 -1.8074617 -0.87307978 15
-3.2074196 -2.2442672 -0.38551545 6
-1.6309226 -2.2445776 -1.4498792 5.1999998
-3.2332683 -1.9742656 -0.42321306 11.5
-1.6269658 -2.0294504 -1.4320194 11.5
-3.0769334 -2.1890545 0.051938117 6
-2.6739082 -2.2158787 0.0015009642 4
-1.85246 -2.207047 -0.51365691 29
-1.7903361 -2.2061872 -0.54961419 29
-3.0983918 -1.9304962 0.018776834 11.333333
-2.9454737 -2.1378698 0.42806613 6.125
-2.550261 -2.1907032 0.15317678 4
-2.2098811 -2.2398126 -0.034052074 3
-1.8116125 -2.1966929 -0.43164408 20.608696
-1.744316 -2.194757 -0.46983111 21
-2.983398 -1.8687625 0.40094954 11.347826
-2.9775143 -1.6555851 0.45155936 15
-3.3591702 -2.1363785 1.2501447 6
-2.6235859 -2.1476226 0.62314659 5
-2.336792 -2.1779182 0.48339373 3.75
-2.0909455 -2.1289775 0.4320721 4
-3.1279922 -2.1017318 1.4244101 6
-2.2139902 -2.1279984 0.78873235 4.3333335
-1.8578269 -2.0810359 0.73177046 4.6666665
-1.5126364 -2.0900195 0.4067207 4
-1.1902697 -2.0530651 0.15625918 5
-1.1771889 -1.8367587 0.099039018 11.5
-2.7190318 -2.0501463 1.6389999 6
-1.6345923 -2.052588 0.85224706 5
-1.3320589 -2.0398803 0.76001066 5
-0.9996078 -2.035207 0.57196897 5
-5.3717203 -2.0153205 3.5547838 7
-4.644455 -1.9742866 3.3364401 7
-2.3604481 -2.0122237 1.7549703 6
-1.9973438 -1.9804431 1.8113694 6
-1.8297915 -1.9686043 1.8018117 6
-0.85168803 -1.9218005 0.99904186 6.5
-5.6162434 -1.6388361 3.5821919 9
-5.2829609 -1.7152127 3.4884417 8.6000004
-4.8778715 -1.7289448 3.3646235 8.5
-4.4590135 -1.7247957 3.2344079 8.5
-0.86172402 -1.6622401 0.9818731 10.5
-5.635169 -1.3459587 3.5498929 10.5
-5.2785673 -1.3650218 3.4407883 10.5
-4.9042492 -1.3266301 3.3202448 10.833333
-4.4904609 -1.3218453 3.1970229 11
-0.86419219 -1.4391854 1.1743467 13
-0.88212889 -1.3990613 0.94899446 14.5
-5.6680441 -0.94857347 3.5139899 12.5
-5.3193889 -1.0077899 3.410439 12.4
-4.9845562 -0.90223193 3.2945619 13.2
-4.5196195 -0.91089582 3.1545124 13.5
-5.6889267 -0.57872748 3.4699132 14.333333
-5.3396277 -0.60544598 3.3708096 14.5
-4.9279375 -0.58868158 3.2355072 15
-4.5345306 -0.65931916 3.1239452 15
-4.0915585 -1.9455425 3.1484673 7
-3.6375895 -1.9217335 3.0013242 7
-3.2197328 -1.8997546 2.8718882 7
-2.909672 -1.8847709 2.7646313 7
-2.5600982 -1.8657228 2.6738839 7
-1.508853 -1.9484296 1.7715542 6
-1.1714017 -1.931788 1.7003372 6
-0.80624652 -1.8875111 1.4621627 6.5
-0.43313074 -1.9182045 1.3147991 6
-0.30924463 -1.9205376 1.2021213 6
-4.1150866 -1.6453416 3.118948 9
-3.7187552 -1.6455317 2.9945896 9
-3.3640437 -1.6612196 2.8870096 8.875
-2.9375844 -1.6418349 2.7520347 9
-2.6444149 -1.6388934 2.6617661 9
-0.79860687 -1.6216322 1.3531253 10
-4.1397715 -1.2675781 3.0763028 11.5
-3.7431118 -1.222198 2.9507678 12
-3.3793044 -1.2475592 2.8432086 12
-2.9535975 -1.2392473 2.7074256 12.285714
-2.653183 -1.2238841 2.6103339 12.555555
-0.81385016 -1.2859591 1.347913 14.142858
-4.1693001 -0.87839079 3.0390599 14
-3.8073545 -0.89927697 2.9281209 14.2
-3.3803558 -0.89748299 2.7981524 14.6
-2.996932 -0.9561305 2.6879716 14.5
-2.7034483 -0.9267354 2.5886843 15
-2.3329473 -1.8557067 2.5908287 7
-2.0547459 -1.842617 2.5029256 7
-1.72534 -1.8273568 2.4032376 7
-1.3657604 -1.8115306 2.2931867 7
-1.0355444 -1.7993052 2.175406 7
-0.67114317 -1.7984959 1.9095905 7
-2.4386578 -1.6367133 2.5957508 9
-2.1542592 -1.5783484 2.4972529 9.5
-1.7753081 -1.5720797 2.3794551 9.5
-1.3858192 -1.5621538 2.2579122 9.5
-0.97874063 -1.5485119 2.1268072 9.5
-0.66394126 -1.5733702 1.7963336 9.5
-2.457094 -1.2590183 2.5523813 12.333333
-2.177855 -1.1957989 2.4577098 13
-1.7890174 -1.1855466 2.3327389 13.2
-1.4151222 -1.1536915 2.2152138 13.5
-1.0100756 -1.1292136 2.086025 13.636364
-0.70216036 -1.2038002 1.8069017 13.3
-2.495806 -0.9471395 2.5258675 15
-2.1974311 -0.97145569 2.4324665 15
-1.8832332 -0.98889637 2.3370571 15
-0.71998727 -1.5363436 2.0500929 9.5
-0.75675797 -1.0251123 1.9961865 14.5
2.3764808 -1.3326669 5.0527139 7
2.773524 -1.3367317 4.7408667 7
3.7613986 -0.75447762 6.8926835 8
4.4644156 -0.72197723 6.6754947 8
3.6638062 -0.4340179 6.8713856 9
3.9798625 -0.41395402 6.7836676 9
4.3648882 -0.39148855 6.6587758 9
4.7588348 -0.36867595 6.5240545 9
3.6347015 0.058611393 6.8283963 10.5
3.9418261 0.082009315 6.7288127 10.5
4.3242931 0.111696 6.6009798 10.5
4.7419605 -0.024764061 6.4964337 10
3.5984023 0.55393982 6.77562 12
3.9068177 0.58395696 6.6777477 12
4.3756886 0.51728439 6.5455213 11.666667
4.7249079 0.49513555 6.4385982 11.5
3.5734942 0.8884294 6.7394962 13
3.8832991 0.923388 6.6433024 13
4.2643747 0.96589756 6.5136099 13
4.6611223 1.0141115 6.3814988 13
3.5540025 1.2308691 6.7105689 14
3.8960035 1.2731316 6.5998707 14
4.246129 1.3187041 6.4850836 14
4.641264 1.3723156 6.3503942 14
-3.5041637 -1.8248188 -1.2676237 14.51825
-3.3176203 -1.83296 -0.66817033 14.5275
-1.7014225 -1.9465966 -1.6581221 13.662
-3.1851189 -1.8665894 -0.25543052 13.369083
-3.154182 -1.7649858 -0.11318511 15.039
-3.0168157 -2.0714545 0.21929187 8.0454998
-1.1597109 -1.7209064 0.11065966 15.098
-1.774123 -1.7849882 -0.55006558 5
-1.7808019 -1.7532969 -0.55319339 6
-1.2993053 -1.7171104 1.0891061 6
-1.1673089 -1.7053934 1.0628455 6
-1.7824447 -1.7211685 -0.56892413 7
0.63231122 -1.5505371 1.5529141 7
-1.2811342 -1.6727 1.0789295 7
0.89709508 -1.535607 1.2028461 7
-1.8298464 -1.8457085 -5.414032 7
-1.1565976 -1.6635737 1.0874999 7
-1.7768407 -1.6881511 -0.54865777 8
0.6135571 -1.4728601 1.4900905 8
-1.3055382 -1.6315616 1.0892709 8
-7.3569002 -1.9130981 3.4883811 8
0.83958578 -1.4605931 1.2052794 8
1.0938015 -1.4445261 -6.2713518 8
-2.5913558 -1.7068341 -5.1781154 8
-1.8416526 -1.6566315 -5.4101238 8
-1.7749816 -1.6560743 -0.54648107 9
0.60438108 -1.3925183 1.5332195 9
-1.3101259 -1.5884514 1.0945319 9
-7.3748169 -1.6582589 3.4858005 9
0.89012325 -1.3762097 1.2036407 9
1.0877874 -1.2132273 -6.3009167 9
-2.6063502 -1.5195932 -5.1876416 9
-1.856885 -1.4669863 -5.4280062 9
-1.7892129 -1.6237442 -0.55426991 10
0.60297894 -1.3154216 1.4884028 10
-1.3113229 -1.5457684 1.0877686 10
-7.3788509 -1.402974 3.47545 10
0.88204181 -1.2967606 1.2007796 10
1.0704901 -0.98258281 -6.2972665 10
-2.6197419 -1.3314246 -5.191802 10
-1.8661394 -1.2781324 -5.407773 10
-1.1786917 -1.5414417 1.0612388 10
-1.7907462 -1.5911173 -0.55417848 11
0.60520327 -1.2340703 1.4953009 11
-1.3155472 -1.5020082 1.0915606 11
-7.4207954 -1.144253 3.4860833 11
0.82760775 -1.2243642 1.2053984 11
1.0560582 -0.74966413 -6.3024826 11
-2.6325722 -1.1421256 -5.1939168 11
-1.882005 -1.0853971 -5.4284329 11
-1.1810834 -1.5003918 1.058166 11
-1.7977072 -1.5564921 -0.57320797 12
0.59613621 -1.148603 1.5390961 12
-1.3173776 -1.4588773 1.0869476 12
-7.425148 -0.88581604 3.4757545 12
0.92549098 -1.1246744 1.1957352 12
1.0389216 -0.51590681 -6.2999363 12
-2.6443515 -0.95166159 -5.1924 12
-1.8925188 -0.8943944 -5.415391 12
-1.1712458 -1.4533812 1.0858283 12
-1.7857254 -1.5263457 -0.54899788 13
0.59017205 -1.0737414 1.4892795 13
-1.3210946 -1.4143211 1.0887185 13
-7.444334 -0.62325275 3.4734972 13
0.8764739 -1.0498841 1.2057129 13
-1.2215576 -1.418406 1.0549808 13
1.0251355 -0.27752817 -6.3081589 13
-2.655195 -0.75989109 -5.1875892 13
-1.9052281 -0.70006931 -5.4150748 13
-1.791199 -1.4923728 -0.55130595 14
0.58776808 -0.98135763 1.540302 14
-7.4642305 -0.35690868 3.471452 14
-1.3018724 -1.3722582 1.0753789 14
0.91642702 -0.95561814 1.1953382 14
-1.2257569 -1.3742654 1.0601572 14
1.0084138 -0.037570119 -6.308095 14
-2.6715579 -0.56247866 -5.1994209 14
-1.9229157 -0.49718022 -5.4431562 14
-1.7890368 -1.4594014 -0.54891282 15
0.58424592 -0.89515728 1.5417457 15
-1.3280184 -1.3233647 1.0899564 15
-7.4825993 -0.0865376 3.4683559 15
0.90521991 -0.87165952 1.1905435 15
-1.2281137 -1.3313559 1.0566458 15
0.99271798 0.20731568 -6.3120489 15
-2.6840143 -0.36430717 -5.1984878 15
-1.934675 -0.29826355 -5.4347944 15
0.9794265 -1.2233264 -6.2776423 9
0.96281981 -0.99450034 -6.2754598 10
0.93820155 -0.64834249 -6.2737079 11.5
0.91721678 -0.29571497 -6.2845297 13
0.88386798 0.18378222 -6.2844176 15
0.68267965 -1.6975516 -6.1632576 7
0.45723605 -1.3826909 -6.1113691 8.5
0.75862241 -1.35744 -6.1964712 8.5
0.41933632 -0.83610255 -6.1103468 11
0.71945393 -0.90967757 -6.1971369 10.5
0.45587683 -0.60631835 -6.1307917 12
0.71355546 -0.56730545 -6.204165 12
0.39319766 -0.3872267 -6.1298094 13
0.7067548 -0.1991421 -6.2171226 13.571428
0.36151505 0.070594668 -6.1292067 15
0.65246344 0.13247681 -6.2146573 15
0.18344247 -1.7256341 -6.0195413 7
-0.0275141 -1.4227983 -5.9616823 8.5
0.22732759 -1.4019711 -6.0408278 8.5
-0.055840373 -1.0028605 -5.9637671 10.5
0.23227096 -0.98462397 -6.0539112 10.428572
-0.082303166 -0.57408118 -5.9804282 12.5
0.14567208 -0.56310415 -6.0426068 12.4
-0.10531926 -0.24947917 -5.9754219 14
0.21283615 -0.23728549 -6.0732093 13.8
-0.12039757 -0.02787292 -5.9757524 15
0.14909172 0.026613116 -6.0627227 15
-0.36874771 -1.7573427 -5.8554101 7
-0.31363356 -1.4457887 -5.8829718 8.5
-0.5531621 -0.95302445 -5.8362336 11
-0.31597471 -1.0516065 -5.8951931 10.4
-0.36911917 -0.61596441 -5.89011 12.5
-0.39753795 -0.18696129 -5.896328 14.5
-0.83941841 -1.7853817 -5.7265401 7
-0.88649845 -1.4907875 -5.7077484 8.5
-0.88521576 -1.0912449 -5.7218084 10.5
-0.91304255 -0.6726715 -5.7291546 12.571428
-0.91880798 -0.27024567 -5.7407532 14.5
-1.286325 -1.8120046 -5.5789065 7
-1.3308747 -1.5243498 -5.5722828 8.5
-1.3568046 -1.1368091 -5.5760708 10.5
-1.3898468 -0.74339753 -5.5820732 12.5
-1.4165044 -0.34131002 -5.5800877 14.5
-1.7146313 -1.8383715 -5.4449019 7
-1.7345998 -1.5537359 -5.454854 8.5
-1.7608359 -1.1715651 -5.4630294 10.5
-1.8016653 -0.75242597 -5.461987 12.666667
-1.8247349 -0.42031038 -5.4707508 14.333333
-2.5822883 -1.8941962 -5.1877284 7
-2.7094014 -1.7143928 -5.1626806 8
-2.7163382 -1.5270009 -5.1474957 9
-2.7352133 -1.244671 -5.1499829 10.5
-2.7559285 -0.95891523 -5.1570082 12
-2.7882504 -0.4713769 -5.1602926 14.5
-2.9573493 -1.9191716 -5.0759974 7
-1.9158293 -1.8230634 -4.3061838 7
-3.0302484 -1.6407652 -5.0546265 8.5
-3.0598063 -1.264684 -5.0432901 10.5
-3.0920365 -0.88347083 -5.0374737 12.5
-2.7638807 -0.76846188 -5.1444826 13
-3.1183197 -0.49188006 -5.0411701 14.5
-3.1547053 -1.6511834 -4.9013548 8.5
0.78896451 -1.3310921 -2.541172 9.5
0.86523354 -1.3340747 -2.2882023 9.5
-3.1740754 -1.3733444 -4.9054956 10
0.76627004 -0.94675744 -2.5388963 13
0.83906388 -0.92641473 -2.2840946 13.4
0.74906015 -0.72318691 -2.5279179 15
0.79527235 -0.73810029 -2.4032936 15
1.0758424 -1.5681783 -1.6368234 7
-2.9694068 -1.6547892 -4.3156257 8.5
-2.8317995 -1.5839949 -3.8609669 9
0.94036722 -1.3366771 -2.0375645 9.5
1.0184104 -1.337585 -1.7739227 9.5
-3.0109797 -1.2400591 -4.3491669 11
-2.8686185 -1.2104602 -3.8888736 11.5
0.89158809 -0.92472005 -2.0954843 13.571428
0.99074602 -0.95423788 -1.7748712 13.5
-3.0408776 -0.8172276 -4.3562846 13.5
-2.8927612 -0.8280651 -3.8891556 14
-3.0529828 -0.55935073 -4.347332 15
-2.6906824 -1.8593357 -3.4738662 7
-0.83329433 -1.7796923 -2.3867383 6
-0.45948601 -1.7551106 -2.3472247 6
1.0378711 -1.6070557 -1.3921406 6.5
1.1801164 -1.5564981 -1.2655411 7
-2.7169867 -1.5928028 -3.4932094 9
1.0957487 -1.3378749 -1.4934926 9.5
1.18419 -1.3032403 -1.1963969 9.8571424
-2.7512779 -1.1850728 -3.510833 12
1.0740077 -0.9591971 -1.4953722 13.6
1.1514275 -0.96363336 -1.2295982 13.636364
-2.7735813 -0.8364892 -3.5117922 14.5
-1.6912254 -1.8376312 -2.3004911 6
-1.3093896 -1.8128 -2.3870416 6
1.1867912 -1.6006831 -0.94510245 6.4000001
1.3342404 -1.5411848 -0.70783371 7
-2.6145542 -1.6005367 -3.1736021 9
-2.5419436 -1.5492917 -2.9234884 9.5
1.2541065 -1.2880294 -0.92057717 10
1.3224277 -1.2897354 -0.68265188 9.916667
-2.6515994 -1.226293 -3.2001343 12
-2.556704 -1.1542004 -2.8816941 13
1.2292058 -0.93480814 -0.93169326 14
1.3052073 -0.92922151 -0.6682291 14
-2.6726654 -0.90664738 -3.2022798 14.5
-2.5882926 -0.90694827 -2.9353771 15
-2.3193374 -1.8015076 -2.2602396 7
-1.9487145 -1.8548204 -2.2107036 6
-0.90233123 -1.776307 -1.4452021 5
-0.62966824 -1.758261 -1.4086822 5
0.1561799 -1.6991137 -0.78855515 5
1.3311877 -1.587486 -0.41080001 6.4000001
1.477598 -1.5291297 -0.15845177 7
-2.4397392 -1.5628778 -2.6003163 9.5
-2.3278201 -1.5532532 -2.2449393 9.7777777
1.3897507 -1.2639959 -0.42012903 10.125
1.4603345 -1.2651336 -0.16978607 10
-2.4584119 -1.1711189 -2.5760541 13.333333
-2.3607552 -1.1903481 -2.2716382 13.714286
1.3755226 -0.91927695 -0.41013184 14
1.4430349 -0.9297055 -0.15058705 13.714286
-2.5137143 -0.96226192 -2.7089989 15
-2.2185326 -1.8303375 -2.0617485 6.5
-2.1547322 -1.7934935 -1.751285 6.75
-1.3678222 -1.807516 -1.3993996 5
0.039012074 -1.7057878 -0.59102714 4.5
0.3089025 -1.687009 -0.45030802 5
1.4295647 -1.5710343 0.093842767 6.5
1.6127913 -1.5200006 0.34247115 7
-2.2667379 -1.5446762 -2.0462866 10
-2.1833944 -1.5352782 -1.7795737 10.352942
1.5374787 -1.297433 0.11430331 9.5
1.6103361 -1.2834427 0.40558407 9.5
-2.289556 -1.2085178 -2.0497606 14
-2.2098522 -1.249487 -1.8033431 14.125
1.5165241 -0.92119557 0.12124308 13.555555
1.5858669 -0.89827359 0.40310904 13.5
-2.0811045 -1.7652467 -1.50556 7
-1.9313593 -1.7997525 -1.2302759 5.4444447
-1.5368634 -1.8030764 -1.1337389 3
-1.2871473 -1.7939894 -0.8191402 3
-0.077769637 -1.7118734 -0.34119165 4
0.16795135 -1.6936289 -0.050477065 4.5
0.35377276 -1.6802601 0.17835408 5
1.2349551 -1.6200845 0.53769708 6
1.6936128 -1.5153236 0.66589832 7
1.7470248 -1.5125768 0.92440557 7
-2.096396 -1.5432409 -1.5080171 10.5
-2.0096428 -1.5354351 -1.2367749 11
1.6774781 -1.2687925 0.67614663 9.5
1.7497351 -1.2516425 0.96214521 9.5
2.2787278 -1.2078774 1.3595525 9
-2.1147916 -1.2832873 -1.5117121 14.5
-2.0496449 -1.2964742 -1.311121 15
1.6538627 -0.8660782 0.66879421 13.5
1.7314954 -0.85262632 0.96598625 13.25
2.2517772 -0.82925767 1.3541682 12
1.7307343 -0.65091336 1.0263686 15
2.2288628 -0.50509918 1.3496306 14.5
-1.9256674 -1.7881508 -0.99919832 6
-1.824893 -1.7643293 -0.70947742 6
-1.0197386 -1.769452 -0.09621267 29
-0.95751983 -1.7650177 -0.060685292 29
-0.087660074 -1.7040563 0.34830573 4
0.26851225 -1.677294 0.52157885 5
1.0984876 -1.6173184 0.99170089 6
1.8354006 -1.5084721 1.2213979 7
1.920922 -1.5050466 1.5811262 7
