# .PCD v0.7 - Point Cloud Data file format
VERSION 0.7
FIELDS x y z intensity
SIZE 4 4 4 4
TYPE F F F F
COUNT 1 1 1 1
WIDTH 1264
HEIGHT 1
VIEWPOINT 0 0 0 1 0 0 0
POINTS 1264
DATA ascii
1.1676466 -1.6985803 2.1038909 8.583334
1.3935555 -1.7644068 2.2125704 6.229816
1.8996276 -1.8170424 2.1706614 5
2.2134171 -1.7885838 2.3241115 5.5
2.904825 -1.7232988 2.2116046 6.4499998
-8.0147228 -1.257827 2.0059214 12.5
-7.8656821 -1.4637293 2.3064411 11.5
-7.3792949 -1.4252919 2.2079804 12.761905
-7.1492882 -1.3776267 2.1893568 14.5
-2.0216584 -1.4684629 2.3801184 9
-1.7961309 -1.453838 2.3353431 10.98542
-1.3689932 -1.4009241 2.2147455 11.753142
-1.0415058 -1.4251112 2.1193292 10.545173
-0.64552414 -1.4735444 2.0738368 9.5027781
-0.27714458 -1.4090544 2.1592805 10.4
1.1936015 -1.5260905 2.1697161 13.529411
1.3853394 -1.5294828 2.1849461 12.804199
1.6405642 -1.572163 2.3530321 7
2.2871754 -1.5175039 2.1788218 7
2.8579969 -1.3747519 2.1854367 7.9785719
3.8475065 -1.3037794 2.2664568 5
4.0601301 -1.2920319 2.1540053 5
6.0585194 -1.2013848 2.2779803 7
-7.8916411 -1.0825375 2.2324719 13.75
-7.2602119 -1.0768938 2.251564 11.5
-2.0305843 -1.0625701 2.3708425 11.8
-1.7763815 -1.0404283 2.3359776 12.55
-1.4448296 -0.98373044 2.2744646 13.183333
-0.94410384 -1.0336756 2.1016402 12.746023
-0.6433633 -1.0219004 2.093828 11.981482
-0.23915637 -0.96162254 2.2208614 10.166667
2.2927175 -1.1806099 2.1934035 8.5
2.5724416 -1.0617154 2.1686087 9.7887402
2.9605718 -1.0095365 2.2852685 14.2
3.4171147 -1.1390442 2.2596292 9.3888893
3.7253008 -1.0074441 2.1597323 9.5
4.0680761 -1.0288805 2.1394677 9
4.4051838 -0.98781168 2.3335233 9
5.1019263 -1.0288749 2.1580236 8.590909
5.5428152 -0.98046666 2.0951669 9
6.1249733 -0.89969718 2.2854116 8.6499996
-7.9741507 -0.73547614 2.3437569 14.5
-7.2990522 -0.61113715 2.2924995 14
-2.0972703 -0.7031951 2.3782585 14.2
-1.7789882 -0.66881782 2.317014 12.90625
-1.3782953 -0.58894885 2.2746184 14.55
-0.96685845 -0.60146517 2.1225841 13.877778
-0.66459447 -0.65479213 2.0525255 13.866667
-0.26627195 -0.62805831 2.1978779 11.625
2.2840219 -0.75739026 2.1594267 10.5
2.4719419 -0.62268215 2.2124243 11.925926
2.9158964 -0.6036852 2.1341052 8.7250004
3.4432602 -0.65252477 2.2572975 13.484127
3.6973367 -0.65811336 2.1715698 12
4.2167034 -0.67489767 2.2550197 10.75
5.1575561 -0.51854181 2.1500156 10.714286
5.3654666 -0.60838759 2.1929364 9.6428566
5.9852605 -0.53597236 2.2187006 11.2
6.2121153 -0.51170164 2.3830023 10.5
-7.2850876 -0.3185991 2.1863871 14.5
-1.8343667 -0.21641356 2.303715 13.537037
-0.95773965 -0.26097408 2.0897868 14.333333
-0.58884037 -0.25515094 2.1487899 14.642857
-0.22839808 -0.21219122 2.2551548 13.25
0.2891154 -0.10187023 2.2260916 6.25
0.66517138 -0.12289179 2.2789056 6
0.98331761 -0.19512674 2.2233276 5.5
1.4318626 -0.13822357 2.3088741 20.388889
1.7681898 -0.16850813 2.1877091 4.8888888
2.2892838 -0.22390631 2.1826396 11
2.6285038 -0.17988858 2.2392209 10.954333
2.9565718 -0.17178054 2.1380882 10.002778
3.3177009 -0.24150079 2.3571355 21
3.8037717 -0.22061917 2.1305985 9.75
4.163063 -0.23773474 2.0046291 4
4.6184363 -0.25842774 2.201576 4.8333335
4.8291254 -0.2512399 2.1127691 5.5
5.3631897 -0.20881464 2.1774991 9.7468252
5.7986922 -0.08565703 2.1440911 10.4
6.1657753 -0.088176489 2.3582387 12.8
-1.7376963 0.15826295 2.3254998 13
-0.95919824 0.1222887 2.1241531 15
-0.44338536 0.12336874 2.1810603 15
-0.27342606 0.15424645 2.2106464 14.75
0.27266696 0.12091134 2.198422 11.16314
2.2210197 0.21481526 2.1657212 14.625
5.3776374 0.18567254 2.091774 11.753846
5.8019481 0.17581725 2.1617246 12
-1.6804104 0.55673105 2.1939323 13.395333
-1.5628688 0.6884824 2.1242149 13.59325
5.5814557 0.64630544 2.0942421 14
5.6494923 0.63117838 2.0631986 11.6
-1.751104 1.0139703 2.2746689 14
-1.5988901 0.91386855 2.0696712 14.177501
5.6409693 0.99751592 2.0432148 14
6.5289078 0.97308481 2.3776867 14.6665
-1.7540636 1.2003191 2.3470006 15
-7.7427392 -2.1691337 2.5435119 7.5999999
-7.261116 -2.1786621 2.4783473 7.8333335
-7.0228829 -2.2022755 2.6194491 6.8125
-6.5418892 -2.2121871 2.6743741 5.1999998
-6.2309341 -2.2091763 2.4321647 4
-5.7677832 -2.1174543 2.6837442 5.6848483
-4.9873695 -2.1156032 2.7451987 4
-4.6108603 -2.0876617 2.463712 5.3333335
-4.2636976 -2.0650959 2.7099099 5.5
-3.8374016 -2.0323801 2.5061016 5
-3.2201452 -2.0064349 2.5493934 5
-7.7967319 -1.7246902 2.5973873 9.958333
-7.294982 -1.835328 2.5605204 11.136054
-7.088975 -1.7776067 2.6775393 12.434807
-5.7239375 -1.938493 2.7672746 10.315721
-3.6092057 -1.9894595 2.6748586 6
-3.3243561 -1.9269282 2.5955064 6
-2.9974706 -1.788803 2.7178712 8.3411818
-2.5870123 -1.7520688 2.6230423 8.4332657
-2.2073851 -1.7940503 2.5189939 7.5269485
-1.8162637 -1.7491398 2.4838758 7.6666665
-1.573019 -1.8297746 2.4700732 7
-1.0434332 -1.7262852 2.7173083 8.1999998
-0.5424121 -1.7921345 2.5889223 6.234694
-0.22803771 -1.7419236 2.5400362 7.9041672
0.086099617 -1.7672571 2.6350081 5.9166665
0.62798101 -1.7523981 2.6558917 10.8
0.94162881 -1.8197041 2.5366445 5.5
1.2046554 -1.6401589 2.460844 7
1.6949928 -1.7755535 2.6083982 4
2.1504347 -1.7711214 2.6271343 5.6666665
3.0612926 -1.6684103 2.596493 6.7777772
-7.7482429 -1.3493103 2.6442282 12.2
-7.3009682 -1.4905826 2.4743912 13
-7.1140475 -1.3991375 2.6727343 11.5
-3.3645308 -1.2810233 2.7642853 12.5
-3.014801 -1.343874 2.7335036 13.682969
-2.6208427 -1.3531891 2.6149032 12.520763
-2.2130222 -1.4010493 2.4954107 11.936811
-1.8294315 -1.4479333 2.4730973 10.1375
-1.2649401 -1.4922099 2.7119212 8.833334
-1.0011125 -1.4495593 2.7069392 12.028584
-0.51276761 -1.4544588 2.5818658 10.326819
-0.23824468 -1.532447 2.5406871 13.138228
2.6281276 -1.4174218 2.477627 7
3.0443017 -1.3983203 2.5564373 9.833333
4.9984326 -1.2372659 2.5922964 6
5.6941309 -1.2194805 2.5697289 7
-7.7896729 -1.01794 2.6442478 13.875
-7.2590418 -1.0057389 2.5577478 12.75
-7.1325026 -1.021461 2.6346252 11.583334
-3.4066174 -0.93421412 2.7719836 14.8
-2.9725444 -1.0112664 2.7275636 14.266666
-2.5726829 -0.93892825 2.6106634 14.535001
-2.2275569 -0.99534923 2.507025 13.336905
-1.8604392 -1.0435537 2.4729447 12.728571
-1.2966893 -1.1112375 2.6800914 11.083334
-0.95913088 -1.0533084 2.6508067 10.708333
-0.49311078 -0.95452023 2.5384455 10.464286
2.263876 -0.985098 2.5484743 9.25
2.5608125 -1.082242 2.5657842 8.8999996
2.9560454 -0.96257228 2.5916169 13.514194
3.3361428 -1.1291177 2.6667507 9.5
3.8146482 -1.0326329 2.6214862 9.25
5.1496987 -1.0354947 2.5362682 8.333333
5.6510606 -0.95265007 2.4862525 9
6.1304936 -0.91665351 2.5461409 8.666667
-7.8757019 -0.73323834 2.624635 14.5
-7.2569919 -0.47237444 2.6446824 15
-7.1424456 -0.66662812 2.6166813 13
-2.828126 -0.77226597 2.7118363 14.6
-2.2456765 -0.64605069 2.6268907 14.5
-1.8522321 -0.70704705 2.5291107 12.333333
-1.3271018 -0.73880875 2.6468725 13.25
-0.98756081 -0.66817725 2.610208 12.78125
-0.49803162 -0.57891273 2.4872508 12.3
2.216608 -0.44486582 2.5339365 11.5
2.5783608 -0.72425085 2.5906241 10.833333
2.959707 -0.67927462 2.6049612 10.9337
3.2971797 -0.64498258 2.6652179 14
3.7833514 -0.67201138 2.6170511 11.75
4.6432729 -0.73096776 2.7100508 6
5.0864563 -0.64618826 2.4778013 9.8571434
5.2587395 -0.63508135 2.6600838 7
5.6144238 -0.54968691 2.4727933 12
6.0984983 -0.51886261 2.5472767 11
-7.2050848 -0.25518095 2.4317973 14.666667
-7.1223726 -0.27349567 2.6923909 14.5
-2.2290702 -0.35968161 2.5115857 12.666667
-1.7821276 -0.14856592 2.5628281 10.166666
-1.3777374 -0.3571974 2.7102959 14.5
-1.0508453 -0.2899684 2.6384087 14.166667
-0.56229091 -0.14969444 2.5429873 13.5
0.25186849 -0.10415569 2.545481 7.5
0.60279775 -0.14617667 2.6523581 4.5
1.045645 -0.19887185 2.7614641 5.5
1.4865037 -0.13682586 2.4920368 12.617022
2.1130998 -0.25201643 2.5199308 4.5
2.5309014 -0.207564 2.5782869 15.053175
2.8807502 -0.20488505 2.5851505 7.3000002
3.3369277 -0.22939631 2.4336066 20.75
3.8085084 -0.24737351 2.6099181 8.8999996
4.2629509 -0.29754239 2.5937567 6.5
4.5885248 -0.27231869 2.5658426 5
4.8123212 -0.19797212 2.6102388 6
5.3639402 -0.17595224 2.6099105 9.7580242
5.6459742 -0.094840735 2.52636 7
6.0621767 -0.084615231 2.5468979 13.5
-2.4073868 0.30561519 2.5538273 15
-2.190721 0.12725012 2.4869292 14.444444
-1.8237959 0.13029519 2.560015 11.916666
-1.126075 0.13059282 2.6935091 15
-0.59818006 0.19535708 2.5133324 15
0.30448639 0.12735257 2.5596354 11.261183
2.1710138 0.042176604 2.5147328 13.5
2.4510407 0.17921424 2.6172218 14.25
4.3623486 0.021227002 2.417994 13.5
5.3968697 0.18650061 2.5401156 11.133334
5.6599584 0.20771213 2.5591905 9.166667
6.0952978 0.23284984 2.4782364 14.833334
-1.7326308 0.60959375 2.6372659 13
-1.5151165 0.71266842 2.7143152 13.757999
-0.56490672 0.54279482 2.4581003 12.8324
-0.37243986 0.46329328 2.4126179 15.0115
2.1557252 0.42807567 2.5421195 15
5.4933019 0.50001681 2.6019845 12.35
5.6457443 0.6305545 2.5447421 12.75
-1.738012 1.0158983 2.6111846 14.4648
-1.5356791 0.96928805 2.7774789 14.5025
-0.66214466 0.84169734 2.4739547 14.5
5.5349174 1.0126721 2.4564443 12.857142
5.6691804 0.9975456 2.5948868 14
5.5282903 1.4112349 2.4642534 15
-7.6666641 -2.301564 2.9081059 7
-7.5333204 -2.1782339 3.0226216 7.375
-7.0533109 -2.1448631 2.9931045 7.651515
-6.5959363 -2.1672628 3.129437 6.2857141
-6.1521916 -2.1479299 3.1071596 6.5
-5.8418779 -2.0917933 2.931103 6.4772725
-5.3939328 -2.1118476 2.9737172 5.833333
-4.9497814 -2.1142902 2.9737856 4.75
-4.5857768 -2.0691793 3.0374384 5.7916665
-4.1918592 -2.0269599 2.997438 5.5
-3.9030752 -2.0187786 3.0294731 6.1666665
-7.6418214 -1.8708152 3.0363004 9.166667
-7.4566345 -1.913295 3.1211867 9
-7.0237274 -1.7898746 3.0154319 10.977515
-6.7876835 -1.8758942 3.1789122 10.631579
-6.1898637 -1.9343513 3.0881732 8.2523336
-5.8380737 -1.9372884 2.900533 9.6025
-5.5725908 -1.9248393 3.0810828 8.7740002
-4.6085701 -1.7264829 3.1568861 11.102875
-4.1818304 -1.7938819 3.1018751 9.048502
-3.8144839 -1.7775788 3.0270762 8.8354902
-3.4013565 -1.800624 2.8958898 8.301693
-2.9609549 -1.7656915 2.9631872 7.8616071
-2.4854207 -1.7523901 3.0268774 7.75
-2.0877869 -1.8486735 3.0165553 7
-1.7093809 -1.7497518 3.0512519 7
-1.2248098 -1.7887895 2.8356493 7
-0.92383581 -1.7105612 2.9590063 7.5625
-0.72683519 -1.8098941 3.1805556 5.5999999
-0.24993581 -1.8297082 3.0109873 4.5
0.14425039 -1.8237295 2.8927813 6
0.72696614 -1.7957309 2.9378078 25
0.80316502 -1.7883941 3.0663843 21
1.7956166 -1.7435968 2.9915717 4.625
2.1370528 -1.7285725 2.9701061 5
3.1225972 -1.6335322 3.0097961 6.5500002
3.2083786 -1.6516174 2.8683727 7
-7.6649528 -1.4685644 3.0396898 11.166667
-7.3572803 -1.4595287 2.9718359 13.083334
-7.0610542 -1.4222218 3.0082421 12.285714
-4.6109114 -1.4580203 3.1547484 13.5323
-4.1959696 -1.381626 3.0740492 13.406885
-3.7927601 -1.3478836 3.0306001 12.359778
-3.3998396 -1.3885591 2.8904707 12.880889
-3.0241644 -1.3461294 2.9311635 10.645833
-2.4866221 -1.2299063 2.976923 11
-2.134937 -1.5073143 3.074213 8.5999994
-1.7561054 -1.4447322 3.0252628 8.5249996
-1.2679722 -1.3208899 2.931716 8.5
-0.92423087 -1.4073025 2.9799554 12.326407
1.6774559 -1.5740718 3.0868883 7
2.1390316 -1.5393944 2.894608 7
2.6722937 -1.4065351 2.9940231 7
3.0656984 -1.3127784 2.9147141 9.0499992
3.255703 -1.4281331 3.1019497 8.606061
4.2651772 -1.2760547 3.0968587 6
4.5909834 -1.2587693 2.9289815 6
-7.7021904 -1.0587584 3.0429747 13.166667
-7.5010986 -1.1540877 3.1278696 14
-7.0072837 -1.0370911 3.0739937 12.833333
-4.5509596 -0.91358244 3.1184893 13.75
-4.163836 -0.91196823 3.080596 13.979166
-3.8414018 -0.94857478 3.0609846 13.62619
-3.4076426 -0.9723084 2.9074187 14.062499
-3.0429204 -0.9120034 2.9593029 13.303572
-2.4629667 -0.81088048 3.0139666 13
-2.1332812 -1.0875801 2.9921045 11.14
-1.7377945 -0.98990458 2.9934454 10.566667
-1.3145711 -0.89233637 2.8905158 10.5
-0.87244111 -1.1838641 2.9940565 15
2.6251309 -1.1117351 3.0071151 8.5666666
2.9837894 -1.0200143 3.020529 11.458333
3.3092153 -1.0357083 3.0472381 11.650794
3.8961749 -1.0697709 3.076721 9
4.0590782 -0.99287653 3.0747857 9
5.1908689 -1.0021771 2.8770325 8.5555563
5.2002692 -1.1491766 2.9210999 7
5.760602 -0.92449784 2.8705828 9
6.2909813 -1.0577948 2.9886298 7.75
6.4463696 -0.99420434 2.9132631 7.75
-7.7554636 -0.72213215 2.9936337 14.5
-7.0946212 -0.59407276 3.0265834 13.833333
-5.0077367 -0.675125 3.176882 15
-4.5345306 -0.65931916 3.1239452 15
-4.154521 -0.60893941 3.1222067 15
-3.8571742 -0.62084657 3.0407066 15
-3.2211761 -0.76623285 2.8795757 14.642857
-3.0401783 -0.54496062 3.0688791 15
-2.5350876 -0.56804562 2.9212179 15
-2.0689225 -0.70466667 3.0447078 12.25
-1.7411197 -0.65752667 2.9529171 12.166667
-1.3499973 -0.56740451 2.8591175 12
2.3939731 -0.74488747 3.0894904 10
2.6604552 -0.75231296 2.9660912 10.333333
2.9148755 -0.60259724 3.0219774 12.625
3.3547134 -0.62740517 3.0467975 13.873016
3.8646455 -0.68753934 3.0756099 11.5
4.2107091 -0.69356138 2.9578626 8.5
5.1673236 -0.54877257 2.906251 13.277778
5.2953076 -0.52886558 3.1103899 8
5.7186446 -0.51784867 2.8368089 11.8
6.3033328 -0.50028992 2.8916655 10.5
-7.0262489 -0.2442584 2.9799201 14.5
-2.4447048 -0.39951944 3.0585253 14.5
-2.1139283 -0.34163314 3.0156922 14
-1.8059474 -0.30760071 2.934449 13.833333
-1.392411 -0.25994015 2.8312469 13.4
0.27318648 -0.15513429 2.8774042 5
0.79192764 -0.14398812 2.8295965 5
1.2435839 -0.18104184 3.1510255 5
2.2060723 -0.19517049 2.9988744 6.125
2.629159 -0.24373198 2.9883764 9.9111109
2.935457 -0.097902395 2.9607906 14.390332
3.4162951 -0.25460961 2.9865551 7.3333335
3.8246753 -0.21711971 3.0086012 7.75
4.2062483 -0.25217354 2.9665351 3.75
4.4966607 -0.23659042 3.111016 5
5.0599532 -0.04519067 3.1542263 7
5.3980145 -0.21051909 2.9983411 7.375
5.710722 -0.12513013 2.9556425 10.45
6.2662973 -0.08473289 2.8827033 12.65
-2.1808186 0.047002077 3.0595961 15
-1.7488924 0.17394015 2.994998 10.694445
-1.4565032 0.10755744 3.0170908 10.1
2.3129785 0.033317924 3.0404749 13
2.5482204 0.076280653 2.940228 14
2.9341073 0.050624132 2.8253641 15.1025
3.9703336 0.063983917 3.0881343 15
5.1121311 0.20059942 3.1370745 8.6094999
5.3347235 0.16599573 3.0509498 10.652177
5.6988339 0.18659182 2.9762609 8.9810829
6.2418551 0.30900884 2.9095454 14.583334
-1.7274047 0.592713 2.9659204 12.190475
-1.470381 0.65322065 3.0663676 13.6915
2.2888536 0.44181216 3.0537276 14.5
2.5393047 0.45795834 2.9589589 15
5.1537204 0.5137825 3.1325338 11.703167
5.4504681 0.51859325 3.0427322 11.866269
5.6836715 0.67452413 3.004185 13.408112
-1.7300307 0.88000578 3.0621989 14.166667
-1.5032272 1.0081105 3.1463711 14.75
5.5454841 0.98268962 3.0341437 12.571429
5.7161903 1.0128415 3.0679333 14.019101
-1.7186942 1.2015357 3.0671687 15
5.5410037 1.3630172 3.0502632 14.555556
-7.4056902 -2.1662574 3.4619098 7.5
-6.9844055 -2.1429229 3.399174 7.3954544
-6.6379762 -2.1214314 3.491962 7.3125
-6.0670919 -2.0791881 3.505197 7.3107858
-5.8038955 -2.0942307 3.363709 7.3364997
-5.380671 -2.0633388 3.4336655 6.9484997
-4.9358912 -2.0520709 3.317044 6.5416665
-4.6540699 -2.0279322 3.2494445 6.666667
-4.153708 -2.0237668 3.2497389 7
-7.4121985 -1.8163601 3.4738224 9
-6.9706607 -1.8099644 3.4222357 10.295054
-6.7334423 -1.7443851 3.4456165 10.5
-6.0697322 -1.8107618 3.5513701 10.454212
-5.7797484 -1.7364998 3.4683824 11.000445
-5.4206033 -1.8013086 3.4248269 10.356787
-4.9432454 -1.777456 3.3826494 9.3051281
-4.5959396 -1.8019466 3.3209984 8.6153126
-4.2327375 -1.7782805 3.2354734 8.25
-3.9207253 -1.9212344 3.2096353 7
-0.84762764 -1.7632141 3.3402278 6.6666665
-0.62378109 -1.7788472 3.4387589 5.9583335
-0.13877495 -1.8001404 3.4054403 3.6666667
0.024421811 -1.6982342 3.4652114 7
0.56631124 -1.6573036 3.3750153 7
0.99961704 -1.7269561 3.5761595 6
1.3337977 -1.7295866 3.4205933 6
1.7426059 -1.7177643 3.3311679 4.75
2.0462971 -1.6911399 3.4214144 5
2.9811089 -1.6425399 3.3737066 6
3.3370147 -1.6128556 3.2702527 7
-7.4225473 -1.4268364 3.5072792 10.9
-6.9890881 -1.3963634 3.3659563 12.967099
-6.7284689 -1.4037068 3.4992709 13.75
-6.1365194 -1.5567856 3.5517998 14.451396
-5.7713132 -1.4932761 3.4921932 13.5425
-5.3479476 -1.43878 3.4525948 12.873775
-4.9623604 -1.4144423 3.3614247 12.758285
-4.6105137 -1.3613237 3.3070331 12.449031
-4.233192 -1.2943941 3.2388182 11.400001
-0.86622936 -1.4137005 3.309319 12.72619
-0.74541968 -1.3600297 3.4642782 12.524
2.7540555 -1.4346133 3.2965465 7
2.9851537 -1.2759181 3.2703831 8
3.3595097 -1.3877755 3.4566486 8.4740267
5.9031467 -1.2143028 3.2866161 7
-7.4504294 -1.0291121 3.5016448 12.583333
-6.8741012 -0.96468163 3.453963 12.93
-6.2447095 -0.94402361 3.5840189 12.5
-5.7503176 -0.97289443 3.489594 12.5
-5.4338388 -0.99795014 3.4705739 13.569387
-4.9460754 -1.0015427 3.3844459 13.596667
-4.5935087 -0.9566595 3.3113503 13.966667
-4.2139578 -0.94633532 3.2494118 13.916666
-0.7716431 -1.1735049 3.3079853 14
2.7710116 -1.1133749 3.4251847 8.5
3.0404124 -1.1455126 3.4732163 8.5
3.3876083 -0.95486522 3.4253416 11.700757
4.0786414 -1.1131239 3.5954702 8.5
4.8692851 -0.90312749 3.3640356 9
5.2444196 -0.95609981 3.3033988 8.8222227
5.9114547 -0.95899272 3.3920832 8.5666666
6.4798031 -0.9664042 3.3616269 8
-7.5147481 -0.65930343 3.5053272 13.75
-6.9321613 -0.61568969 3.4042337 13.166667
-6.2344179 -0.56042492 3.533107 14.333333
-5.7753954 -0.58790314 3.4476869 14.416666
-5.4375787 -0.55176568 3.396488 14.583333
-4.9668674 -0.55279326 3.3969913 14.6
-4.5951605 -0.53259778 3.3082626 15
-4.1711922 -0.59932274 3.2384725 15
2.7359052 -0.67937815 3.3864989 10.25
2.9762125 -0.76194555 3.3215945 10.5
3.4001641 -0.57347941 3.3804922 13.4
4.0420246 -0.68465763 3.5886056 11
4.8507051 -0.64711154 3.3635082 10
5.2155724 -0.49047804 3.283741 13.183333
5.883399 -0.53963131 3.4065771 11.1
6.3973465 -0.4904477 3.416496 10.5
6.6745906 -0.7937268 3.5741839 8.5
-7.4734149 -0.22172314 3.4699039 14.5
-6.9487514 -0.24827103 3.379051 14.633334
-6.3777556 -0.38837337 3.5485947 15
-0.53240848 -0.17097977 3.5492988 6
0.31600058 -0.17587519 3.3515639 6
0.47020113 -0.16047122 3.340663 5
1.0823246 -0.10966364 3.4431252 5.5
1.3910105 -0.15125537 3.4776101 5.25
1.7964926 -0.14085837 3.381798 4.8333335
2.2552445 -0.25333363 3.373349 5.1666665
2.6185949 -0.22435266 3.4111636 6.6388888
3.0757542 -0.24258573 3.4059985 6.75
3.4932013 -0.21786791 3.4298635 10.041667
4.1388865 -0.24173304 3.5065928 9.25
4.6250443 -0.23093031 3.4304326 6
4.9773331 -0.12989004 3.4349372 7.9595237
5.3038244 -0.18498567 3.3653576 9.1990747
5.8899145 -0.099861026 3.5516374 13.5
6.3646975 -0.083638072 3.4178412 12.5
6.5791917 -0.24498095 3.4558582 11
-1.6937315 0.20263705 3.3474202 9.5
-1.4649166 0.18434754 3.3960409 9.375
2.6854384 0.1308095 3.4050548 13.888889
2.9626453 0.17809653 3.4214084 14.75
3.9861212 0.025025249 3.5986526 15
4.7640982 0.33773363 3.5070691 13.5
5.0254011 0.18501168 3.3960278 11.17706
5.3577027 0.2181447 3.3752432 12.216125
5.8329086 0.11722776 3.4575424 12.697833
6.3265972 0.33146989 3.4128168 14.5
6.5027747 0.25992596 3.3585308 13.333333
-1.4499767 0.61736655 3.3917539 13.25
2.6528563 0.44569695 3.3335741 14.5
5.06359 0.48057428 3.3141112 12.375
5.2838092 0.49813691 3.5122025 13.197833
5.7759762 0.69832039 3.4197159 13.089001
6.4865737 0.65654707 3.4081309 15
-1.6978693 0.83541173 3.349159 13
-1.4959884 0.91803169 3.3723502 14.1
2.5441051 0.87758589 3.531024 15
5.7170067 0.94057721 3.3904095 13.929168
-1.7009978 1.2086445 3.3455067 15
5.6084208 1.3706925 3.3355441 14.6095
-7.4278383 -2.074774 3.6322744 8
-6.8802218 -2.0746069 3.751358 8
-6.590178 -2.1313007 3.7304478 7.2527776
-6.2019501 -2.1116734 3.7236526 6.7222219
-5.7316661 -2.0791945 3.6999106 7
-5.5823412 -2.0904822 3.608283 7
-4.8460484 -2.1363618 3.9663982 7
-4.6480412 -2.149864 3.9005656 7
-4.3130908 -2.1170437 3.7749329 7
-7.3287306 -1.8043109 3.7518034 9.174242
-6.868803 -1.7610135 3.7790294 10.864253
-6.5686755 -1.8071172 3.8216739 9.9689541
-6.1951671 -1.7702701 3.7508101 10.188537
-5.8205795 -1.8172059 3.7275808 9.3590908
-5.4627185 -1.7509764 3.6761563 8.7777777
-4.9154892 -1.8770738 3.9519618 8.4499998
-4.5346942 -1.8339974 3.8089595 8.6428576
-4.2376285 -1.8631425 3.7342157 8.5
-0.62726468 -1.7328496 3.7373481 6.25
-0.19537137 -1.7536675 3.7396553 5.6666665
0.26280689 -1.7355088 3.8051162 4.625
0.64512467 -1.7297876 3.6775758 6
0.90896618 -1.701362 3.7937341 4
1.3603214 -1.6831255 3.8259516 4.3333335
1.7713451 -1.6716133 3.7977364 4.8333335
2.9423814 -1.6238267 3.6854825 6
-7.3271775 -1.3825179 3.8272133 11.166667
-6.8832946 -1.3973386 3.8008988 13.38855
-6.5643206 -1.4483355 3.823837 12.535556
-6.2050219 -1.4831052 3.7546747 12.34368
-5.7982311 -1.4148067 3.7134407 11.995238
-5.4292302 -1.2924556 3.7090323 10.5
-4.9380579 -1.4862659 3.9325194 10.5
-4.5656462 -1.4443609 3.7990479 10.8
-4.2649794 -1.4723419 3.7271404 10.75
-0.70907658 -1.3620392 3.7243581 12.553218
2.6988361 -1.3510038 3.8007305 7.3333335
3.1407213 -1.4206399 3.7662694 7
3.4935372 -1.3906977 3.8350503 8.2142859
-7.35741 -0.98900765 3.8206329 13.066667
-6.9011154 -1.0443977 3.8726795 14
-6.5752149 -1.027451 3.8554511 13.604166
-6.1841388 -1.0866638 3.8125451 13.31111
-5.7920599 -1.0383533 3.7372525 13.5625
-5.2975025 -0.89542031 3.6517384 12.5
-4.9924517 -1.0577499 3.9277403 12.723214
-4.6173887 -0.99537551 3.7755597 13.519049
-4.305212 -1.0771433 3.716516 13
-0.63653618 -1.0810184 3.7132704 13.75
2.562396 -0.81734753 3.7013788 9.5
2.9877014 -1.0999149 3.8449671 8.333333
3.5059814 -0.92101312 3.8500149 11.591667
3.70788 -1.0806091 3.980911 9
5.2996731 -1.0188082 3.7512705 8.1428566
6.0716596 -0.93630832 3.9535863 8.5
6.566144 -0.86670494 3.8199379 8.5
-7.4078331 -0.63735169 3.8152096 13.75
-6.8601294 -0.63268656 3.7304358 13.5
-6.6237917 -0.68280929 3.7936425 13.958333
-6.2322965 -0.521649 3.8533616 13.5
-5.8471847 -0.6138674 3.7142663 13.9
-5.3573093 -0.61942589 3.8224492 14.75
-5.0111146 -0.65541196 3.9064276 14.75
-4.61731 -0.62207496 3.800297 14.5
-4.3155489 -0.75178289 3.7143564 14.75
2.7210071 -0.76668328 3.7181425 9.5
2.9573171 -0.71461374 3.8192444 10
3.5228398 -0.53229564 3.8495727 13.69
3.6768863 -0.69714803 3.9792087 11.5
5.3196173 -0.59073347 3.7006435 8.833333
6.0439568 -0.56882489 3.9559138 10.5
6.6952128 -0.54004574 3.8793764 9.666667
-7.3684387 -0.21939647 3.7494993 14.422223
-6.838131 -0.21503103 3.6998315 14.75
-6.6060147 -0.3399272 3.6075583 15
-6.2622099 -0.15526116 3.8412976 15
-5.8313956 -0.26187742 3.7429984 15
-1.3921478 -0.11587546 3.8892767 7
-0.39291763 -0.17180781 3.7744477 6
0.18418667 -0.13003236 3.8558826 6.4000001
0.60558385 -0.11907577 3.8951697 6.5
0.98524958 -0.13784666 3.7443523 5.5555553
1.4420205 -0.094978668 3.7957695 6.6666665
1.8241409 -0.10623828 3.8455513 6.3333335
2.2047663 -0.095792353 3.8220041 6.3333335
2.6629245 -0.19527261 3.744437 8.2857141
3.0096526 -0.20584205 3.845314 8.979167
3.4960282 -0.13926923 3.8114107 8.875
3.7292328 -0.17418852 3.8728867 8.25
4.2022963 -0.13554357 3.8817806 6.6999998
4.7329955 -0.1124898 3.7571621 7.5999999
5.0149746 -0.1214229 3.9060969 6.875
5.4195395 -0.13961203 3.8385117 8.7458811
5.7290187 -0.10161817 3.6402807 7
6.0019698 -0.14555061 3.9313333 12.8
6.7317419 -0.052758455 3.9091043 11.5
-1.6775525 0.20756811 3.748992 9.5
-1.4591091 0.17554522 3.8243709 9
-0.49892086 0.19251984 3.9819109 10
-0.20175043 0.14659885 3.9768486 9.5576925
0.264613 0.10468943 3.9337509 8.5
0.56298769 0.21023723 3.9324641 9.666666
1.028955 0.19608247 3.9404194 9.6153841
1.4100361 0.18861757 3.9209085 9.25
1.8620776 0.21091984 3.9212754 9.484848
2.2383428 0.20094264 3.9118562 9.1499996
2.5750287 0.13786463 3.8321488 10.166667
2.9712994 0.16785951 3.8362021 11.666667
3.4545422 0.17156868 3.9003763 8.583334
3.7824435 0.20510623 3.8957109 8.75
4.233047 0.17667876 3.9314499 9.0192308
4.6670022 0.18096831 3.7751026 10.243056
4.98212 0.18675458 3.8422565 9.4109001
5.421279 0.18095353 3.8504856 9.7964287
5.7834311 0.18242797 3.8537579 9.9333334
6.4872956 0.16753525 3.8291759 13.25
-1.7039179 0.66214073 3.8946519 12.0775
-1.4388963 0.66585338 3.7230632 13.25
-1.0328143 0.77548033 3.9399879 13.082
-0.52215052 0.64630514 3.9619443 13.29275
-0.15932713 0.59470361 3.963414 13.363
0.23751862 0.60677856 3.9260473 12.666667
0.54950434 0.56629097 3.9351625 12.8125
1.0079713 0.57867289 3.9277577 12.818182
1.4026499 0.55834687 3.9216757 12.519231
1.8510195 0.59128261 3.9234822 12.87037
2.2594042 0.59010088 3.9131837 12.225
2.6164436 0.55225623 3.7715666 13.714286
2.9231834 0.59417868 3.9040954 11.75
3.3723543 0.55428147 3.9053533 11.333333
3.8140175 0.5403809 3.9284222 12.233334
4.2213764 0.56474525 3.9339073 12.116666
4.5801668 0.57338256 3.9173541 11.841667
5.0159917 0.62557834 3.9006989 12.326666
5.4603653 0.62317485 3.875773 11.9625
5.7323055 0.62190431 3.7891061 12.339417
6.5638146 0.49452198 3.8562956 14.25
-1.6839144 0.95980215 3.8359809 13.686042
-1.4572289 0.92124325 3.8232503 14
-1.034544 0.99838889 3.9482112 14.582
-0.54108888 0.97101313 3.9424398 14.585501
-0.065007761 0.95659077 3.9324408 14.589
0.22216849 0.96477813 3.9066103 14.5
0.64551485 0.97494221 3.9017103 14.5
1.0494069 0.99572438 3.9003344 14.5
1.4275565 0.94818711 3.8981268 14
1.8146725 0.98195004 3.8959038 14
2.2590582 0.8968761 3.913312 14.4
2.6281257 0.92351115 3.9087963 14.25
2.9407711 0.94095683 3.9063423 14.1
3.3747208 0.9657709 3.9058924 14.081482
3.7994998 0.96295762 3.8981311 13.333334
4.1961174 0.93384552 3.9153509 13.625
4.564043 0.99788523 3.9120796 13.638889
4.9622478 0.99886537 3.9033711 13.233334
5.4769516 0.98102713 3.8787239 13.5
5.7324495 0.92468107 3.760891 14.3955
6.6509237 0.80824304 3.898057 15
-1.6896348 1.2227118 3.6537333 15
2.3266196 1.2028993 3.8959243 15
2.6352918 1.2466849 3.8920293 15
3.0329266 1.3085201 3.8879147 15
3.4636724 1.3054987 3.8876455 14.6
3.814013 1.346109 3.8846622 14.5
4.277576 1.3227565 3.8948865 14.75
4.5651445 1.3256131 3.8875163 14.5
4.9515085 1.3530401 3.8828373 14.25
5.5200539 1.4155737 3.8604853 14.5
5.7229147 1.2212675 3.8504405 15
4.6277313 1.606854 3.885967 15
4.9359393 1.6703668 3.8825648 15
-6.8519921 -2.080307 4.1978817 8.333333
-6.5129204 -2.0361423 4.2925897 8.3999996
-6.1432195 -2.2503331 4.3367658 7
-5.7326508 -2.2136209 4.222775 7
-7.2843103 -1.7647853 4.0837126 9.5
-6.953959 -1.743233 4.1665068 9.9833336
-6.6316576 -1.9064888 4.1283808 9.1000004
-6.2347083 -1.838076 4.1650472 8.791667
-5.8696208 -1.9186538 4.2404928 8.5
-5.4514089 -1.8299508 4.0665278 9
-0.54517704 -1.6769053 4.1299176 6.6666665
-0.19153965 -1.7462604 4.0715599 5
0.15210171 -1.7165133 4.1480732 4.8333335
0.58851308 -1.6897907 4.1471887 4.6666665
1.0421906 -1.6706597 4.1899056 4.6666665
1.4717348 -1.6524354 4.2309856 5
-7.292613 -1.3882129 4.1500363 11.375
-6.9938288 -1.4272963 4.1583281 11.75
-6.6370254 -1.5583547 4.1496925 11.195834
-6.1974277 -1.4903787 4.1858044 10.65
-5.7121906 -1.5071828 4.1371346 10.75
-5.3577881 -1.4671474 4.0422921 10.8125
-0.52797329 -1.4290646 4.2122297 10.119092
0.80875725 -1.5265002 4.3427715 7
2.6508493 -1.5865273 4.2350121 6
3.5761344 -1.3691394 4.1156273 8
3.6806428 -1.3580707 4.300859 7.875
-7.3511524 -0.95687771 4.0913839 13.5
-6.9917049 -1.034501 4.1299529 13.9
-6.579483 -1.0939478 4.1860986 13.388888
-6.1680551 -1.1334443 4.2159543 12.952381
-5.7570357 -1.062557 4.1208401 13.083334
-5.44169 -1.0603977 4.0414968 12.95
-0.56275964 -1.1200899 4.0942054 14.166667
3.028296 -1.0830486 4.2367363 8.25
3.4525039 -0.90185899 4.1312904 11.083333
3.678781 -0.92355633 4.3199272 10.821428
5.3372402 -0.89211148 4.1079173 9
6.6688957 -0.84771883 4.1252289 8.5
-7.3868055 -0.66807967 4.1047645 14.6
-7.0589089 -0.63778818 4.1369762 13.75
-6.5377803 -0.6493395 4.081356 14
-6.2324572 -0.68244666 4.268734 14.5
-5.7819195 -0.72670102 4.1115713 14.75
-5.4976315 -0.63806415 4.0589414 14.5
3.0051045 -0.69542724 4.2388859 9.75
3.3651865 -0.61785311 4.1527824 12.666666
3.6509593 -0.56214833 4.2313843 13.416667
5.2595615 -0.56961668 4.1862454 9.5
6.9269838 -0.74282253 4.2861729 8.5
7.4607763 -0.40570354 4.3839169 9.5
-7.0753231 -0.13612795 4.2097216 14.625
-6.4728203 -0.15125549 4.0382099 15
-1.6497235 -0.06091034 4.3458343 8
-1.300872 -0.060329191 4.2850084 7.5
-0.63119972 -0.10743417 4.3236613 7
-0.20051134 -0.11607584 4.2162499 6.7777781
0.21862596 -0.10973905 4.2449617 6.8000002
0.58391571 -0.09676113 4.2101693 6.8333335
0.97907871 -0.10376104 4.1513619 6.5
1.4118633 -0.1416896 4.1947351 7.1856666
1.8067999 -0.17991205 4.1920819 6.5809522
2.2006445 -0.10534783 4.1747804 7.197619
2.5628662 -0.10914959 4.1605515 7.1142859
2.9969926 -0.15533125 4.2113209 8.7285709
3.332299 -0.198898 4.1218586 8.3111115
3.7215662 -0.20150477 4.1852441 11.666667
4.1556807 -0.21019644 4.2118168 6.75
4.571568 -0.19148298 4.1574745 6.7999997
4.9812446 -0.2302525 4.278326 9.0059996
5.3282452 -0.20653833 4.1236115 9.375
6.6189737 -0.22546005 4.1273456 11.25
6.8999858 -0.3646487 4.2938209 10
-1.6504798 0.2180976 4.3457332 9.5
-1.3986912 0.17757277 4.2756815 9.4111109
-1.0192536 0.11417208 4.3493929 9
-0.61235428 0.16713141 4.3131499 9.520833
-0.14185409 0.16392201 4.2882695 9.7222223
0.14316332 0.13807289 4.268971 9.6481485
0.60059208 0.16302471 4.2089648 10.257576
1.0373801 0.11987827 4.2096233 10
1.4859889 0.15284798 4.1652122 10.714266
1.8703873 0.25359374 4.1922078 12.283111
2.1720643 0.28945431 4.174212 13.217999
2.634583 0.24776265 4.1670427 12.66452
3.0254798 0.21682186 4.157661 12.833187
3.4277608 0.18834941 4.0966048 12.132238
3.7599235 0.14349094 4.115139 10.885715
4.1780262 0.15788107 4.1752238 11.5
4.562232 0.20273021 4.138741 11.7125
4.9477162 0.11176813 4.2018981 10
5.3870549 0.1338595 4.1221375 10.741667
6.5818176 0.29675496 4.135973 13.5
6.8630066 0.015103221 4.2868695 11.5
7.405911 0.17885089 4.3801384 11.5
-1.6564553 0.59392196 4.3475304 11.5
-1.3486207 0.56462467 4.2831573 12.411565
-0.96622771 0.57127512 4.3270397 12.786667
-0.44437814 0.51182926 4.3099074 12.518519
-0.11981022 0.51490533 4.2819934 13.259125
0.13111702 0.56672883 4.2747078 13.5
0.57638043 0.4706068 4.212337 14.150001
1.0342406 0.45497236 4.2103858 14.047619
1.4273756 0.42745617 4.1958179 14.125
1.7678062 0.52015382 4.248136 14.5
2.1774845 0.54724717 4.2260208 14.75
2.6301627 0.54423922 4.2040672 14.55
2.993829 0.51754647 4.237555 14.5
3.3131378 0.54776061 4.0227718 13.9
3.675617 0.4934485 4.1554832 13.5
4.0883651 0.43689215 4.2935767 13.5
4.5910649 0.57983232 4.2782197 14.428571
4.910398 0.5060721 4.2257524 13.733335
5.3785996 0.52046531 4.1039062 14.16125
6.6750016 0.72506672 4.2122126 14.75
6.8332081 0.40291417 4.2915802 13
7.3578291 0.77819967 4.388 13.5
-1.6391883 1.0338873 4.3032165 13.833333
-1.3821591 0.91539007 4.2833214 14.328572
-1.0230815 0.92712927 4.3481932 14.5
-0.59358716 0.87967539 4.3392053 14.333333
-0.11883354 0.80259234 4.312963 14.666666
2.9078698 0.86185801 4.2487001 15
-1.6534863 1.2691072 4.3454113 15
-0.43629363 -1.6532569 4.5204897 6.5
-0.31905705 -1.6106334 4.5325575 7
0.67122126 -1.6721382 4.4163189 5
-0.45492542 -1.3798699 4.574728 10.5
-0.27962434 -1.3835975 4.5446248 9.166667
2.1060791 -1.4831338 4.6855569 6.5
2.690285 -1.3719444 4.5876341 7
2.9415219 -1.427973 4.4154139 7
3.3890176 -1.3264409 4.6501379 7
3.7636309 -1.3553374 4.6337385 7.625
6.2640033 -1.2064527 4.5533943 7
-0.99948931 -0.98003542 4.6740599 9.5
-0.45449176 -1.1087339 4.4943643 14.2
-0.29388937 -0.98690051 4.551887 12.125
3.1090443 -1.0389508 4.5305371 8.5
3.3582401 -0.9755559 4.575572 8.5
3.7621343 -1.0241159 4.6169229 10.160714
5.0073791 -0.9004904 4.4879851 9.0089998
5.2988491 -1.0159159 4.4955821 8
6.2032657 -0.90913987 4.4244022 8.5
6.7854481 -1.0072711 4.6259346 7.75
-1.0324521 -0.50160027 4.6798887 11
-0.406784 -0.72288108 4.4048181 15
-0.2437202 -0.56841946 4.6014013 12.833334
2.762929 -0.74615592 4.455019 9.5
3.0854754 -0.65955055 4.5324192 10
3.3372984 -0.61465192 4.5754466 10
3.7598917 -0.5756101 4.6388803 13.45238
4.7693539 -0.62515301 4.6862111 11.007
4.9837747 -0.62799996 4.46945 11.009
5.3563199 -0.46872282 4.4702177 11.8
6.1731195 -0.50934929 4.4270239 10.5
6.7620659 -0.46920103 4.476469 10
7.0820866 -0.711752 4.7159352 8.5
7.5314074 -0.47947478 4.5404067 9
-1.4154799 -0.11788845 4.4095821 7
-1.0539842 -0.17996669 4.6760988 12
-0.23070294 -0.18413818 4.4144988 12
0.98772597 -0.05796428 4.4344726 9
1.3045158 -0.060828343 4.4227629 9
1.7060786 -0.063131139 4.4030004 9
2.7265384 -0.28274632 4.4506822 11
3.0617068 -0.2754097 4.5344744 11.5
3.3094668 -0.25545621 4.5361152 11.5
3.794889 -0.25393319 4.5169573 13.5
4.7703328 -0.092985392 4.4661627 11.007
5.3422904 -0.10350692 4.5142269 14.2
6.1409006 -0.10337651 4.4272938 12.5
6.7349758 -0.10827053 4.4805012 11.5
7.0329499 -0.17824358 4.7102385 10.5
7.5102539 -0.10498941 4.5399957 10
-1.4188544 0.18584128 4.4111958 9
-1.0771222 0.14793122 4.6867886 13
-0.25495827 0.14343023 4.4300275 13
0.95829105 0.33682555 4.4363966 11.8
1.2944572 0.33880705 4.4194441 12
2.6763124 0.17984849 4.4145985 12.5
3.0322664 0.1120553 4.5279846 13
3.2781901 0.23463941 4.48879 13.5
3.7717807 0.014824033 4.5075922 15
6.1035638 0.3100214 4.4206886 14.5
6.6861734 0.37666047 4.4674263 13.5
6.9914007 0.36628711 4.7175808 12.5
7.4873366 0.27153623 4.5371671 11
-1.4028724 0.64420736 4.4037685 12
-1.0998063 0.4792521 4.6890669 14
-0.27689642 0.46924114 4.4130845 14
0.94194198 0.72989017 4.4364071 14.5
1.295716 0.67983425 4.4161997 14.5
3.0054629 0.51003242 4.5267019 14.5
3.2470741 0.60728097 4.4458642 15
6.6615 0.75467241 4.4771633 15
6.9491787 0.77835798 4.7066498 14
7.4483137 0.64558232 4.510529 12
-1.4084581 1.0398556 4.4064279 14.5
2.6270595 0.81735766 4.4104848 14.5
6.9284115 1.0628786 4.7119293 15
7.4302554 1.0308231 4.5155339 13
-0.70442343 -1.6704116 5.1053152 7
-0.29595616 -1.6188676 4.9234362 6.5
0.2040472 -1.6123879 5.1079302 6
-0.7244736 -1.3976569 5.0926466 8.25
-0.21289901 -1.4280756 5.0416718 8.4888887
0.6976437 -1.5842971 5.158906 6
1.1365751 -1.5668963 5.1213183 6
1.445833 -1.545634 5.0775337 6.5
1.8404751 -1.5371433 4.9837079 6.3333335
2.2514319 -1.4453664 4.9802895 6.5
3.0094266 -1.3080717 5.0995679 7
3.7577477 -1.3270129 5.0371213 7.5833335
-0.85191381 -1.0490389 5.0696096 9.5
-0.68753529 -1.0641946 5.0638351 10
-0.23547618 -0.95496488 5.01934 12.9375
0.0079232454 -1.1072226 4.8291821 9
3.8029203 -1.0222219 5.0009933 10
6.3193645 -0.88537467 4.8359127 8.5
6.4064732 -0.86746013 5.1460781 8.5
6.921936 -0.80178791 4.859005 8.5
-0.88124239 -0.62459576 5.070519 11
-0.72565711 -0.56443501 5.0442491 12.5
-0.088897228 -0.56616569 4.9915524 12.5
3.7691627 -0.67358994 4.9273252 12.75
4.5075693 -0.42433706 5.1745887 8.5
4.9479303 -0.48943037 5.1364894 8.00175
6.3321347 -0.43603373 4.9979491 10.5
6.9727612 -0.50284433 4.8469362 9.5022507
-0.91580939 -0.13399911 5.0744114 12.75
-0.75669146 -0.14844787 5.0571113 14.5
-0.063443422 -0.10689211 4.8396506 12
3.7686768 -0.36249876 4.9385099 15
4.2029581 -0.19444196 5.1945596 10
4.6433153 -0.012445271 5.1516047 11
4.9364443 -0.24422364 5.1249723 9.5
6.2965331 -0.049714506 4.990304 12.25
6.8585844 -0.044104218 4.8577356 11.5
7.6782627 -0.18911159 4.9475074 10
-0.94068623 0.21754789 5.067647 14
-0.087719798 0.23300517 4.8415656 13
4.1828465 0.37379777 5.1806984 13.5
4.4783392 0.39087439 5.1558027 13.5
4.944437 0.13076486 5.1284723 11.75175
5.3461456 0.20213878 5.0892916 12.009
6.2689104 0.29003143 4.9895272 13.75
6.839386 0.3471508 4.8778677 13
7.6523294 0.12518036 4.9506693 11
-1.0019288 0.56964207 5.0505934 14
-0.11191082 0.57687259 4.8399749 14
4.1755843 0.62763476 5.1843491 15
4.6729946 0.57517701 5.1366944 14.5
4.9441762 0.57655728 5.113843 14.3785
5.3349452 0.59619492 5.0890684 14.259
6.242569 0.57834005 4.984189 15
6.7945819 0.73616445 4.8583317 14.5
7.6204348 0.6057772 4.9669924 12.5
7.5641956 1.0843849 4.94701 14
-0.26680768 -1.6501017 5.4718795 7
0.21766829 -1.6142581 5.330431 6.5
-0.67119139 -1.3287874 5.334909 8.3888893
-0.14010108 -1.392501 5.4583282 8.2676773
0.68232733 -1.58561 5.3633399 6
0.94334972 -1.4175147 5.5128489 7.581192
1.4031948 -1.4488767 5.3628831 7.307857
1.7957101 -1.3842903 5.3077536 7.7944999
2.677856 -1.3613768 5.4923649 7
3.2344353 -1.4001884 5.5297952 7
4.6011114 -1.4016886 5.5724163 7
-0.97705555 -1.0161425 5.3497553 9.5
-0.65628684 -0.96246272 5.391243 9.9333334
-0.12501641 -0.89331007 5.4316463 12.75
0.2603572 -1.0595858 5.416749 9
2.9039996 -1.0563252 5.5886765 8.5
3.3259854 -0.98731619 5.5342107 8.8000002
4.2368813 -0.90552741 5.4222622 9
4.5008626 -0.92137611 5.392827 8.8000002
4.9600139 -1.0227432 5.3398204 8.0011663
6.2346225 -0.87715262 5.3904095 8.507
6.5060673 -0.84693265 5.4948454 8.5
7.0847559 -0.90751737 5.2971029 8
7.2731457 -0.81804919 5.20789 8
-0.91153502 -0.55659157 5.3746095 10.75
-0.6242466 -0.53952509 5.4382629 11.9
-0.072035134 -0.45772952 5.4826231 13.75
0.23521531 -0.7076484 5.4290061 10
2.5924926 -0.48239541 5.331193 8.5
2.8739948 -0.56215155 5.446003 9.75
3.2803717 -0.52571774 5.403635 9.8999996
4.2141128 -0.50426257 5.418983 11.5
4.5191007 -0.56319368 5.3863029 11
4.9328685 -0.57232815 5.3328772 10.75175
6.1859951 -0.53934979 5.3517752 10.007
6.4763708 -0.49209154 5.4925442 10
7.0465279 -0.50824821 5.2887049 9.5
7.2923908 -0.5249393 5.5049286 9
-0.89559478 -0.12416533 5.3635774 12.166667
-0.61577129 -0.15383837 5.4649649 13.875
-0.0934003 -0.14206839 5.483397 15
0.13129318 -0.2019217 5.2765479 11.5
2.5784369 -0.068089247 5.3282166 11
2.8557491 -0.14987567 5.4414463 12.25
3.2498102 -0.14319411 5.4032564 12.25
4.1965046 -0.17574883 5.4210882 13.5
4.6403875 -0.13752711 5.367177 13.5
4.944747 -0.17185272 5.327631 13.12675
5.352778 -0.19046006 5.2845979 12.759
6.4484229 -0.13314307 5.493721 11.5
7.0141773 -0.10581756 5.2900515 11
7.2728939 -0.21396168 5.417942 10
-0.89216161 0.22790188 5.3761034 13.625
-0.58364761 0.12217784 5.5910478 15
0.1655038 0.27276182 5.4380846 12.75
2.5666671 0.35221171 5.3118577 13.5
2.8412671 0.18754005 5.4409184 14.25
3.2414269 0.18870068 5.3983121 14.25
4.1832752 0.077864051 5.424921 15
4.6270571 0.11894566 5.3695822 15
4.9445553 0.152861 5.326087 15.0035
5.3266721 0.20223379 5.2743125 15.009
6.4092484 0.35335636 5.493145 13.5
7.1185994 0.23892848 5.3506126 11.833333
7.2110987 0.079693079 5.5710468 11
7.686203 0.0049004555 5.3401761 10.5
-0.94474894 0.56838268 5.3536963 14.333333
0.13294154 0.73063481 5.4408579 14
2.5551569 0.61636961 5.3236628 15
2.8311377 0.60550416 5.2910476 15
3.2314408 0.6014998 5.2607212 15
6.3771563 0.72575068 5.4891787 15
7.059103 0.59777385 5.2562928 13.25
7.2852969 0.61991602 5.4714127 12.5
7.6366081 0.49381983 5.3309226 12
7.0624785 0.91719848 5.3522248 14.166667
7.4152794 1.1435163 5.4117393 14
7.611083 0.82731271 5.3376765 13
7.1014905 1.2621146 5.3870516 15
-0.5717985 -1.3381357 5.7326269 8.25
-0.18410663 -1.3436325 5.8350496 8.3846149
0.1926856 -1.3691312 5.7594252 8.1506252
0.55266893 -1.3072574 5.6473155 8.0489998
1.0356598 -1.3165164 5.8356352 8.0205002
1.3790671 -1.3197159 5.8369684 8.0338001
1.6900967 -1.3147818 5.7467976 8.0438747
2.1684875 -1.4599812 5.8440351 7
2.7720897 -1.4290129 5.8559189 7
4.174778 -1.3887687 5.9438581 7
6.5084982 -1.2078276 5.8448277 7
-0.84612334 -1.1398211 5.7901955 9
-0.60094833 -0.93569297 5.7309957 9.75
-0.15421474 -0.89217484 5.7725964 11.2
0.27136067 -0.9942708 5.9284997 10.657666
0.56787539 -0.95756036 5.905272 9.2305002
0.95878029 -0.97813076 5.745132 9.8553333
1.2346829 -0.97957993 5.871758 9.6130009
2.6303885 -1.0691222 5.6271234 8.5
6.5575657 -0.94656146 5.918468 8
-0.88330722 -0.64566672 5.7887211 10.5
-0.59893209 -0.57157224 5.8003869 11
-0.12653865 -0.58821505 5.8013301 13.166667
0.063429773 -0.52248174 5.9045277 13.75
0.67446023 -0.60557532 5.8666382 10.7745
1.0287238 -0.61537248 5.7240181 11.783
1.2052152 -0.76214254 5.7635961 11.5845
2.6083524 -0.65566814 5.6176863 11
6.2880287 -0.5054214 5.9612775 9.5
6.6395721 -0.49119654 5.8179555 9.416667
6.9140358 -0.58964556 5.6871376 9
-0.9217732 -0.14039648 5.8265772 12
-0.62639952 -0.19228819 5.7982702 12.375
-0.18205187 -0.25300258 5.7739372 13.75
0.15254788 -0.17961828 5.8477674 13.5
0.55157661 -0.29967678 5.8929439 11.697833
1.0567105 -0.16998613 5.6741018 14
2.5851953 -0.23426497 5.6125317 13.5
6.2526488 -0.077435613 5.9626122 11
6.6986556 -0.21468799 5.7999268 10.333333
7.0138416 -0.20194083 5.6893826 10.291667
-0.94683737 0.19515157 5.8093605 13
-0.65779901 0.24677813 5.793375 13.875
-0.35126853 0.093726993 5.8650012 15
0.39068818 0.097910762 5.9452281 12
2.5700397 0.026821256 5.6148419 15
6.222239 0.28174096 5.961761 12.25
6.6050754 0.17984061 5.8031793 11.5
6.9346924 0.25554466 5.6953278 11.833333
-0.97263408 0.53794825 5.8085747 14
-0.76075602 0.75359267 5.7563586 14.5
0.36377561 0.47749496 5.9489989 13
6.1833372 0.7207709 5.9574976 13.75
6.5833244 0.70052779 5.8043098 13.1
6.8933983 0.65384972 5.6472321 12.833333
6.1523399 1.0973957 5.959259 15
6.5877094 1.0542974 5.8095789 14.5
6.9564605 1.0017725 5.6915536 14.333333
6.6041341 1.2392375 5.7455144 15
-0.46062994 -1.3996936 6.1470308 8
-0.176552 -1.2755375 6.2857561 8.5
0.10916321 -1.3235602 6.0969477 8.1000004
0.64968801 -1.3688236 6.309402 8
1.0399928 -1.3239207 6.0835567 8.0410004
2.2343528 -1.463274 6.1585083 7
3.6970894 -1.3771431 6.3326864 7
5.1698794 -1.3399504 6.375772 7
5.973165 -1.2509677 6.1237183 7
-0.553316 -1.0297576 6.2171817 9.125
-0.20484594 -0.92829359 6.254735 10
0.14739363 -0.95259142 6.1991458 10.672619
0.62247491 -0.98885202 6.2943959 9
4.6849957 -1.013919 6.3459797 8
5.4258103 -1.0006614 6.2731633 8.25
5.8519382 -0.94591075 6.3664432 8.25
6.0861778 -0.90388107 6.2429099 8.333333
-0.58168316 -0.63414192 6.2080564 10.375
-0.23059088 -0.57617086 6.250473 11.5
0.16963722 -0.67849553 6.2368073 12.690476
0.59552038 -0.60629487 6.3054385 10
4.719265 -0.70994067 6.3093271 9
5.0255723 -0.62813568 6.3689785 9.5
5.4089732 -0.59793425 6.236865 9.75
5.912981 -0.46071979 6.345305 10.25
6.1048136 -0.60135317 6.109849 9.375
-0.61366856 -0.19040224 6.2050209 11.75
-0.26072729 -0.16197944 6.2404928 13.25
0.1949079 -0.27414677 6.2416868 13.625
0.56839859 -0.21989417 6.3226876 11
4.5842719 -0.19293058 6.3324089 10.75
4.9369497 -0.21374083 6.3429723 11
5.3920479 -0.19207707 6.2006264 11.25
5.9310288 -0.20069022 6.1813493 10.833333
6.1568542 -0.17837052 6.1761384 11.055556
6.5395856 -0.055079818 6.0141649 11.5
-0.82035553 0.3014425 6.2996445 13
-0.5843966 0.19555943 6.1857495 13
-0.2878086 0.20219529 6.2306862 14.75
0.17663985 0.051383376 6.2777443 14.5
0.54087269 0.16869056 6.325274 12
4.6034255 0.18982227 6.3528824 12.166667
4.8894501 0.17470598 6.3401146 12.75
5.3524618 0.1687257 6.1816463 12.583333
5.8763733 0.22141778 6.2404275 12.6
6.1664925 0.22866654 6.1749001 12.333333
6.5031796 0.33257687 6.00457 13
-0.84753108 0.6626271 6.3011694 14
-0.61152643 0.57864398 6.1847272 14.166667
0.51298785 0.55916667 6.3145623 13
4.5790486 0.53605103 6.3335853 13.333333
4.9596629 0.58971339 6.3195667 13.5
5.4131041 0.5629369 6.1770124 14.2
5.8920994 0.59767193 6.2021108 13.875
6.1538601 0.6608218 6.1221843 13.5
6.4783888 0.73543596 6.0174856 14.5
4.3995676 1.1081837 6.3508887 15
4.5948024 0.9468326 6.3431997 14.375
4.9926929 0.93872643 6.2750001 14
5.3628111 0.99946618 6.0565166 15
5.9005384 0.97117227 6.1080675 14.25
6.1154737 1.1607392 6.0130491 14
4.641264 1.3723156 6.3503942 14
4.9666004 1.2705281 6.3262997 14
0.039107502 -1.6125038 6.5904274 7
-0.21582738 -1.3106041 6.639286 8.25
0.19877766 -1.3213609 6.6057997 7.875
0.69550943 -1.5649052 6.724453 7
3.2889247 -1.372179 6.5588932 7
4.6397681 -1.3334281 6.6122422 7
5.198278 -1.2065902 6.7200422 7
5.7687416 -1.2052959 6.504138 7
-0.30337244 -0.93703812 6.6702538 9.375
0.26627487 -1.0935761 6.6268563 8.9666662
0.78663707 -0.95594364 6.7045932 9
4.1641188 -1.0378765 6.6883597 8.1000004
4.6168976 -1.0301989 6.5517793 8.166667
4.9039669 -0.97616339 6.5648613 8.333333
5.3656044 -0.91384745 6.5585642 8.4666672
5.7899237 -0.87188476 6.613008 8.5
-0.41066125 -0.58774686 6.7735996 10
-0.23489383 -0.50166643 6.6166239 11.125
0.30046034 -0.66802764 6.6373858 11.916667
0.75806701 -0.5615052 6.6859736 10
3.8392024 -0.60365742 6.7341375 9.3666668
4.2035933 -0.6281656 6.6512313 9.3999996
4.5670719 -0.6281423 6.5631413 9.0714283
4.9410863 -0.50191855 6.5686646 9.833333
5.4462137 -0.53556937 6.5685639 10.12
5.9358745 -0.41309655 6.6582193 10.5
-0.42395312 -0.21519744 6.6674662 11.5
-0.1162639 -0.12545747 6.6357074 13
0.33587551 -0.31265348 6.6948586 13
0.73030686 -0.16107929 6.7070861 11
3.8102067 -0.2356354 6.7392983 10.916667
4.2207079 -0.28099218 6.6468763 10.261904
4.6525354 -0.22306435 6.4959831 10.5
4.8372316 -0.16443151 6.568924 12
5.4071603 -0.084083363 6.5478859 12.066667
5.9951386 -0.14094985 6.6130018 11.666667
-0.42724502 0.18790519 6.5839696 12.833333
-0.14405847 0.26181656 6.6315002 14.5
0.3202056 0.12979627 6.6570153 14.5
0.70190108 0.24184322 6.7131371 12
3.5850587 0.1169157 6.7502947 12
3.8526657 0.12760182 6.7220845 11.842857
4.2055221 0.14934905 6.6189475 11.666667
4.552825 0.15570903 6.5021844 12.166667
4.995954 0.25346264 6.5635428 13.111111
5.5054712 0.24817142 6.5083499 13.333334
5.9191704 0.27685225 6.5919065 13.5
-0.47387445 0.64681548 6.6476173 14
0.67307067 0.64874983 6.7146478 13
3.5820055 0.51104933 6.7767763 12.5
3.8083301 0.5918172 6.6850948 13.333333
4.1830177 0.56138223 6.5920954 12.988096
4.591198 0.56512308 6.4572248 13.125
5.3631763 0.55797374 6.5341892 14.666667
5.9013395 0.63048661 6.5586195 15
3.5520234 0.91611987 6.7568336 13.75
3.8204923 0.96987039 6.6692023 14.166666
4.1953321 0.96493167 6.5445538 13.933333
4.6335979 0.88087201 6.4724579 13
3.5540025 1.2308691 6.7105689 14
3.9093714 1.3472613 6.6714687 14
4.246129 1.3187041 6.4850836 14
4.5744004 1.2104809 6.4480462 14
-0.54109371 -1.4251394 6.8494282 8
-0.16551375 -1.3027184 7.1163087 8
0.14397314 -1.3440542 7.1305308 8
0.52806216 -1.4000535 7.1918674 7
3.049927 -1.331286 7.1477518 7
3.6143017 -1.2433256 6.9606876 7
4.1493587 -1.2730715 6.9222393 7
4.676651 -1.2083333 7.028501 7
5.135839 -1.2024064 7.0077124 7
-0.56875837 -1.0616086 6.8307428 9
-0.1937153 -0.90594149 7.1158581 9.25
0.22186875 -1.025206 7.0166106 9.1999998
0.4967829 -1.0844374 7.089262 8.75
0.96227431 -0.9222694 7.1111836 9
2.692394 -1.055047 7.1547318 8.25
3.0686226 -1.0864532 7.0844593 8.125
3.3954647 -1.0708307 6.9698577 8.166667
3.8034263 -0.98665333 6.9354711 8.25
4.1206794 -0.92810374 7.0602999 8.5
4.5027661 -0.9177053 6.9241424 8.5
4.8087687 -0.90301001 7.0864553 8.5
5.3800297 -0.88289315 6.8959718 8.5
5.7176805 -1.1983517 6.8107939 7
-0.59626007 -0.69645989 6.8288355 10
-0.14895734 -0.51545244 7.1084704 10.666667
0.22205073 -0.58567709 6.9569235 11.75
0.45581189 -0.69942302 7.0945859 11.166667
0.93356037 -0.51075339 7.1221805 10
2.6121364 -0.6748845 7.1751618 9.6388893
3.0058579 -0.66502464 7.0647783 9.6199999
3.373919 -0.64712632 6.9763436 9.520833
3.7142048 -0.63900357 6.965065 9
4.0998478 -0.54560542 7.0210509 10.5
4.5708313 -0.51360071 7.0399361 10.5
5.1586394 -0.4713465 6.9339418 10.5
-0.62380219 -0.32705271 6.8435049 11
-0.1806895 -0.10545007 7.0861297 12
0.26421776 -0.25081313 7.0080757 13.833333
0.46790916 -0.29505283 7.0196524 13.25
0.90546715 -0.093057513 7.1566634 11
2.6102195 -0.21945949 7.1692953 11.2
3.0377848 -0.25662807 7.074017 10.785714
3.3902872 -0.20647866 6.9306364 10.954545
3.7225444 -0.24053656 6.9696751 10.203703
4.0563903 -0.18863094 6.925941 10.5
4.5498457 -0.11083487 7.0008507 12.5
5.1458478 -0.032617927 6.8845367 12.571428
-0.55807418 0.12611479 6.8326273 12
-0.17982326 0.23251593 7.0542917 13.5
0.10485172 0.34703004 7.0788693 14.5
0.47625256 0.13374066 7.1011648 14
0.87522852 0.32245553 7.1401849 12
2.5931215 0.14119458 7.1481676 12.6
3.0260599 0.10420857 7.0244164 12.071428
3.3700867 0.11843576 6.9377427 12.111112
3.6386707 0.14575247 6.9910412 11.5
4.2269154 0.26477289 7.0235796 14.5
4.5996733 0.30961406 6.8939762 14.5
5.1179671 0.33051717 6.8579788 14.25
-0.67993593 0.42435229 6.8667631 13
-0.22995348 0.56500119 7.0763268 14.166667
0.4557882 0.47786641 7.0914207 15
0.84541655 0.74560428 7.145165 13
2.588418 0.54954386 7.1214809 14.041667
3.0123494 0.53654069 7.0233774 13.372222
3.4574215 0.52589452 6.9628677 12.493333
3.8465381 0.40365744 6.8789773 11.25
5.1979151 0.50866902 6.806284 15
-0.29906768 0.82983339 7.132637 14
2.3187912 0.85442841 7.1920424 15
2.6255827 0.91230839 7.1453247 14.366834
2.9954696 0.90988481 7.0683236 13.775063
