# .PCD v0.7 - Point Cloud Data file format
VERSION 0.7
FIELDS x y z intensity
SIZE 4 4 4 4
TYPE F F F F
COUNT 1 1 1 1
WIDTH 1209
HEIGHT 1
VIEWPOINT 0 0 0 1 0 0 0
POINTS 1209
DATA ascii
2.3460665 -1.0277202 3.0748935 9
2.6341288 -1.1286683 2.9796357 8.5059519
2.9749262 -0.99282861 2.9796927 10.410942
3.2828989 -0.99013805 3.0582826 12.694567
3.7858474 -1.0860082 3.0103092 9
4.3005319 -1.0099039 3.0606654 6.2168674
4.6214399 -1.004348 2.9159808 6.054348
5.1795902 -0.9778139 2.9033692 8.9063988
5.2558103 -0.947725 2.918668 7.7463899
5.7504535 -0.95748848 3.0336361 8.7111111
6.179019 -0.96041799 2.9936781 8.333334
6.4805012 -0.96014464 2.9788425 7.9230771
-7.7297359 -0.64647144 2.9949243 14.4375
-7.5801105 -0.68221933 3.0528469 13.166667
-7.0591502 -0.66639853 3.0199387 13.491227
-4.8891859 -0.6892705 3.1689651 15
-4.6053824 -0.6695118 3.1545751 15
-4.2188988 -0.64809078 3.1181817 14.863636
-3.835191 -0.66776919 3.0701377 14.684091
-3.354528 -0.65746903 2.9648046 14.809523
-2.9599428 -0.61056328 3.0128272 14.634615
-2.5520101 -0.60517448 2.9896917 14.181944
-2.152983 -0.64968592 2.9683893 12.621428
-1.8431566 -0.63077259 2.9472976 12.319445
-1.465513 -0.58375025 2.8655205 12.2
-1.1358795 -0.61000466 2.8093567 12
2.3460193 -0.75936323 3.0434258 10.5
2.6111858 -0.71997505 2.9617066 10.441026
2.9303744 -0.63688564 3.0206225 12.5648
3.3126869 -0.63564265 3.0292914 13.915675
3.7745361 -0.68560117 2.9904289 11.714286
4.2645082 -0.71738237 2.8895779 7.1999998
4.5362816 -0.53510678 3.0083179 8.6000004
5.165051 -0.53482574 2.9376061 13.277903
5.2702441 -0.59316409 2.9717307 9.0754471
5.7564197 -0.52564901 3.0269365 11.533334
6.2590146 -0.50784594 2.9876442 10.590909
6.6378798 -0.79079205 3.122926 8.5
-7.6609497 -0.33477759 2.914505 14.666666
-7.5935092 -0.26588655 3.0853829 14.833334
-7.0685949 -0.31393155 3.0030992 14.940001
-2.4654288 -0.38592196 3.0120292 14.75
-2.1774273 -0.24438816 2.9808395 13.76087
-1.8296418 -0.2390399 2.9687121 13.101514
-1.4812399 -0.21448338 2.8360546 14
-0.14325118 -0.17048447 3.0091765 5.8333335
0.18531343 -0.16198218 3.0205739 5.1964288
0.60385686 -0.15592206 3.001519 5.034483
0.99532777 -0.16105081 3.0144515 4.8166666
1.389446 -0.1999476 3.0020669 5
1.8083239 -0.18366642 3.0451202 4.414216
2.2104712 -0.17729299 3.0060568 5.6444445
2.5880306 -0.25031602 2.9711599 9.0120916
2.9661944 -0.22571425 3.0087211 12.219785
3.4351079 -0.21469885 3.0404842 5.2243586
3.8144171 -0.23113561 2.9931519 6.5049019
4.1890979 -0.24245459 3.0040321 5.7222223
4.5558939 -0.26213643 2.9795318 5.6710525
5.1139903 -0.26913613 3.0237963 10.604035
5.2936382 -0.20448136 2.9844689 10.569715
5.7139764 -0.10882159 2.9402242 9.1247616
6.2754908 -0.091972984 2.9952774 12.627778
6.5682397 -0.36087927 3.0430884 10.5
-2.415164 0.23608053 2.9397302 14
-2.1566663 0.19656619 2.9047987 14.272727
-1.7490331 0.18750799 2.9865093 10.297729
-1.4895372 0.14477499 3.0503898 9.5236559
2.2795677 0.045677602 3.0545964 13
2.554126 0.11320005 2.9854457 14.185185
2.9900217 0.031089723 2.9832339 14.701313
3.9661953 0.060342051 3.010561 15
4.6591539 0.25299212 3.1837699 13.666667
5.1460838 0.24941058 3.1209471 9.0192118
5.3145304 0.20567673 3.0015337 12.621267
5.7142515 0.16823703 2.9328382 9.8748102
6.2631526 0.31197062 2.9928195 14.5625
6.5231266 0.18617451 3.0242081 12.958333
-2.4308233 0.53784227 2.9318423 15
-2.200012 0.52983254 2.8758371 15
-1.7163123 0.60405421 2.9683232 12.594132
-1.4929268 0.58692521 3.0338225 12.899072
2.2497222 0.45291662 3.0571895 14.5
2.5084705 0.45478606 2.9760256 14.875
5.1459112 0.50800258 3.1071675 11.209999
5.3690023 0.50366443 3.0262592 13.279287
5.6984992 0.63712341 2.9578753 12.433768
6.4673743 0.59557122 3.0592022 14.777778
-1.7188975 0.95814896 3.0062335 14.346271
-1.5172563 0.90660465 3.1176033 14.435184
5.546742 1.0121708 2.9949715 12.697444
5.7088513 0.96835887 2.9778686 13.924306
6.8952541 0.95697814 3.1356993 14.67425
-1.7358434 1.2082801 3.0013077 15
5.5399284 1.3939486 2.9928653 14.610481
5.7085323 1.2952244 2.9995799 15.053248
-6.6846504 -2.4229822 3.415591 7
-7.4148049 -2.2098763 3.4057984 7.1903224
-6.9655652 -2.152494 3.3945472 7.4580812
-6.6608467 -2.1560798 3.413492 6.8920293
-6.1047497 -2.1074629 3.4629579 7.0731435
-5.7905245 -2.1116459 3.4048219 7.3010902
-5.3950081 -2.0810807 3.4260738 6.7885647
-4.9942217 -2.0453551 3.369565 6.6387343
-4.6298428 -2.0272942 3.2977092 6.7072644
-4.1791015 -2.0296741 3.322232 6.9266663
-7.4281235 -1.8702192 3.4361553 9.0141659
-6.9593644 -1.8059895 3.4047606 10.126533
-6.7397146 -1.7712164 3.419235 11.048834
-6.0948305 -1.8736984 3.4572332 9.5929508
-5.7748356 -1.783776 3.4590962 10.466156
-5.3948526 -1.7918944 3.4426284 9.9988394
-4.9778581 -1.7760333 3.3934326 9.6479235
-4.6036134 -1.7715788 3.3142674 9.0888262
-4.2337661 -1.7868601 3.2670865 8.3003035
-3.9207253 -1.9212344 3.2096353 7
-2.9227605 -1.8806899 3.2191515 7
-2.7199008 -1.8542037 3.2033992 7
-2.2092872 -1.8251073 3.2188458 7
-0.8434673 -1.7570831 3.344929 6.7499366
-0.64920706 -1.7815291 3.420788 5.8340335
-0.14529406 -1.7980001 3.3854959 3.7632947
0.17990419 -1.7720779 3.4062243 4.8657408
0.56693596 -1.751943 3.3736861 8.9487181
0.93386936 -1.7169074 3.4560087 5.2727275
1.3600512 -1.710528 3.477654 4.3235292
1.7496542 -1.7097583 3.3841951 4.3289757
2.0553663 -1.6896222 3.4085591 5.0111113
2.6470318 -1.654344 3.4419944 6
3.0403862 -1.6359948 3.3670156 6.1258774
3.3871844 -1.6156065 3.3711324 7
-7.624939 -1.3793899 3.2751045 11.416667
-7.4162712 -1.4382321 3.4393768 11.400692
-6.9781246 -1.4104124 3.4035583 13.116686
-6.70259 -1.451072 3.4782817 13.503332
-6.0932164 -1.5616126 3.5603099 14.373629
-5.7462015 -1.469746 3.5178421 13.172162
-5.378787 -1.4501399 3.4663167 13.060479
-4.9743834 -1.4087163 3.3797748 12.589183
-4.6154914 -1.3824012 3.3128872 12.505318
-4.2278471 -1.3182502 3.2743101 11.837742
-2.1106584 -1.4585989 3.2406254 8.5
-0.85327882 -1.3909537 3.3384409 13.069217
-0.70250428 -1.3406256 3.5081141 13.205027
0.99169898 -1.5450544 3.3017612 7
1.9155332 -1.5505065 3.2135983 7
2.2448204 -1.5090048 3.2562833 7
2.5917673 -1.3330425 3.3741586 7.5555553
3.0244529 -1.3289174 3.3253832 8.3715334
3.3475816 -1.4235644 3.4277229 8.3250084
4.7248464 -1.2188697 3.4034448 8
5.2604947 -1.2384399 3.3726819 7
5.7838097 -1.2112943 3.4471209 7
-7.6527538 -0.94048512 3.2919068 13.375
-7.4562221 -1.0586141 3.457705 13.440322
-6.9138837 -1.0306147 3.4330008 12.893731
-6.7469354 -0.99994123 3.455518 14.708334
-6.1291804 -0.94735074 3.5621691 12.5
-5.7379413 -0.98294139 3.5213306 12.766666
-5.4046669 -1.0135022 3.481385 13.468923
-4.9735904 -0.98984432 3.3832943 13.784029
-4.5995264 -0.983347 3.3368535 14.120906
-4.1962147 -0.94370514 3.2934597 14.165556
-2.1642694 -1.0182619 3.2077246 10.583334
-0.83314764 -1.1590748 3.2609382 14
-0.70424169 -1.1459135 3.4822857 13.917989
2.3903394 -1.0544394 3.2934682 9.333333
2.6892133 -1.0645827 3.3731635 8.6428576
2.9582095 -1.0843648 3.4236028 9.4486599
3.3401604 -0.9459464 3.4077623 12.899226
3.7670293 -1.0828555 3.3661797 9
4.0798845 -1.1041144 3.4088058 8.5
4.6752706 -0.82480121 3.3529706 9.5
5.0837479 -0.97610968 3.3371296 9
5.2630253 -0.95822251 3.3272486 8.2212515
5.7979493 -0.96653783 3.3832252 8.5355549
6.1646199 -0.92433071 3.384985 8.5
6.4940081 -0.97841531 3.3681352 7.9545455
6.8187227 -1.1493964 3.4946837 7
-7.6477199 -0.60142553 3.3644183 14.785714
-7.5086207 -0.69429487 3.4391589 13.838461
-6.9459219 -0.63421118 3.4071815 13.389473
-6.1474824 -0.53640705 3.5481157 14.370372
-5.7616477 -0.57562828 3.4731126 14.453703
-5.3810468 -0.58821929 3.4200943 14.702899
-4.9999237 -0.60442704 3.3660207 14.795238
-4.6274776 -0.5818978 3.3428898 14.864584
-4.1891546 -0.59841454 3.2288034 14.785714
-1.7429454 -0.40937912 3.54058 7
2.3706272 -0.65329027 3.3152256 11.279167
2.6934609 -0.6618197 3.3825064 10.366666
2.9580522 -0.63551915 3.3963397 13.221385
3.3737624 -0.57661653 3.3883231 13.761934
3.7723854 -0.69238394 3.3967855 11.5
4.0426693 -0.67492515 3.4015193 11
4.6766562 -0.63426977 3.3612564 10.166667
5.1799035 -0.5433929 3.2885664 12.974
5.2885962 -0.57440931 3.3751059 9.8319368
5.7955217 -0.52388376 3.3519876 11.318182
6.2623844 -0.52218276 3.3956776 10.5
6.6095395 -0.61964059 3.4336779 9.3888893
6.8289323 -0.61801898 3.4809756 9.1000004
-7.4861064 -0.30678988 3.421447 14.678572
-6.941999 -0.25662112 3.4186409 14.855555
-6.2545242 -0.36610484 3.5730309 15
-5.7010975 -0.27435356 3.5651848 15
-1.7550386 -0.1584949 3.3729086 7.9190478
-1.4427457 -0.1079367 3.5361063 7
-0.84884667 -0.17166321 3.2606974 6
-0.67139602 -0.17399748 3.482352 6
-0.20200881 -0.17126766 3.406477 6
0.25138533 -0.16221002 3.4052353 5.75
0.62458336 -0.16361161 3.421509 5.4642859
1.0437493 -0.12122615 3.4389834 5.8312502
1.3938307 -0.12833476 3.4448659 5.8518319
1.7970028 -0.19977078 3.4075665 4.9564629
2.232043 -0.19797321 3.3984861 6.4557242
2.628082 -0.25425297 3.4045229 7.3453465
2.987803 -0.18267851 3.402195 7.912499
3.4040442 -0.23060426 3.3729451 7.8100777
3.7817383 -0.23260976 3.3654537 6.027451
4.201108 -0.24439506 3.4010797 6.2894735
4.6277604 -0.25904861 3.3575509 6.8777776
5.0884838 -0.204487 3.3666635 9.3946533
5.287405 -0.20046753 3.3692026 11.962291
5.7669559 -0.11726625 3.3892512 13.756666
6.2247329 -0.11622866 3.3862152 12.599999
6.6678133 -0.23223381 3.4479117 10.863636
-1.7355033 0.22300558 3.3463833 9.6126041
-1.4789099 0.14779307 3.4207737 9.1472778
2.3810167 0.0065555573 3.360141 12.5
2.672863 0.16150241 3.3989797 13.893939
3.0172198 0.16110483 3.4130816 14.611111
3.9840093 0.033907413 3.4018555 15
4.6977067 0.24439496 3.4947546 13.202198
5.0060983 0.21315657 3.4105685 11.629495
5.3066382 0.17329966 3.3592222 13.138351
5.8281693 0.15215635 3.4487956 12.291536
6.1903687 0.2806814 3.3822308 14.595238
6.5248551 0.19813137 3.4027016 13.052631
-1.7262783 0.64987153 3.316318 12.430808
-1.4815373 0.59165698 3.4127352 12.817307
2.3327496 0.56216687 3.2867944 14.5
2.6578825 0.5396077 3.4032562 14.625
4.604959 0.45369241 3.3779547 14.166667
5.0779271 0.45636737 3.3362272 12.423336
5.3413124 0.50979525 3.3785591 13.878894
5.7391939 0.70133305 3.4061432 13.546758
6.5524373 0.60745233 3.4178922 14.625
-1.7229661 0.99492657 3.3410664 14.373256
-1.5095981 0.91633844 3.4152324 14.452108
2.6044273 0.84991008 3.4260507 15
5.5338993 1.0317664 3.4412928 12.529862
5.7513437 0.95996708 3.3809996 13.878881
6.6878586 0.8254903 3.495302 15
-1.7104629 1.2126492 3.3747413 15
5.5420032 1.4290526 3.4073427 14.521636
5.7462721 1.3257043 3.4403687 15.026942
5.4881825 1.6382526 3.5782669 15
-7.3117762 -2.2091019 3.6844621 7.1369376
-6.8904953 -2.1150041 3.7736363 7.9752502
-6.6383667 -2.1415167 3.7614071 7.3334799
-6.2269559 -2.1236715 3.6987603 6.7944446
-5.7632141 -2.0979297 3.6675897 7.1069551
-5.5059419 -2.0633204 3.710763 7.1962495
-5.0127101 -2.1495616 3.8811407 7
-4.6043277 -2.1759171 3.8832743 7
-4.2871423 -2.1126962 3.7287209 7
-7.3218584 -1.804031 3.7822232 9.0892859
-6.9325943 -1.7520682 3.7703693 10.186435
-6.6027985 -1.7906107 3.8321443 9.6491365
-6.1848841 -1.7700506 3.7770934 9.6086712
-5.8061099 -1.7788429 3.7264328 9.3868389
-5.4308176 -1.7808629 3.7125728 8.9525547
-4.9572668 -1.8797507 3.9178114 8.4923077
-4.5926499 -1.8523805 3.7865465 8.6765862
-4.2647033 -1.8321216 3.7413132 8.6000004
-0.57947499 -1.739352 3.7781708 6.0297127
-0.15552568 -1.7527672 3.8112385 4.915493
0.21239056 -1.7333162 3.8544559 4.3371
0.56594938 -1.7096554 3.831717 4.6950359
0.96634138 -1.6972408 3.8559372 4.0989013
1.358923 -1.6849979 3.8280807 4.2773108
1.7809087 -1.6709986 3.7782984 4.8046355
2.088371 -1.6780307 3.6688046 5.1500001
2.7002294 -1.6105736 3.8530734 6
2.9426525 -1.6189815 3.7402005 6
3.5508704 -1.6108959 3.6396043 7
-7.3492851 -1.480624 3.8033009 10.71828
-6.932497 -1.3922144 3.7809541 13.190348
-6.5948133 -1.4412097 3.8185341 12.250491
-6.1815233 -1.4309577 3.7751663 12.025309
-5.8109722 -1.4293932 3.7276409 11.983196
-5.4544144 -1.393411 3.6898968 11.230443
-4.9739084 -1.4685184 3.8619835 10.771427
-4.6022716 -1.4617882 3.7923369 10.828151
-4.2766652 -1.4526961 3.7146246 10.777778
-0.68110824 -1.3487654 3.784133 12.730906
0.69012314 -1.5567236 3.9985344 7
1.0201238 -1.5256258 3.8269036 7
2.3956926 -1.4411992 3.7789123 7
2.6862378 -1.474508 3.8715885 6.7619047
3.0403688 -1.3821659 3.7983699 7.3571429
3.4587548 -1.3736733 3.8267453 8.3368502
3.6337104 -1.3949171 3.8719764 7.9620538
5.3174005 -1.2322863 3.8039701 7
5.7553453 -1.2071693 3.6790235 7
6.1678934 -1.2159826 3.7354879 7
-7.3572397 -1.0480487 3.8200355 13.069165
-6.9303942 -1.0785561 3.7960956 13.588333
-6.5989022 -1.0375657 3.8572128 13.191399
-6.1789589 -1.0330062 3.8019013 13.414327
-5.8050127 -1.0453904 3.7701731 13.682693
-5.4442573 -1.0140964 3.7195442 13.378
-4.9623461 -1.063525 3.8625743 13.07877
-4.6194158 -1.0428298 3.7787042 13.170178
-4.3119092 -1.0150472 3.7029765 13.363636
-0.57577324 -1.1506484 3.8992007 14.244571
2.5688436 -0.97752243 3.7056963 9.393939
2.9899597 -1.0777254 3.8107705 9.065217
3.4528198 -0.88312477 3.8043852 12.698565
3.7068768 -0.95736116 3.8554554 10.553572
4.0472846 -1.1092024 3.7462707 8.5
4.8934965 -1.1802895 3.6340127 8
5.3170047 -0.96444577 3.7761228 7.9304996
5.777185 -0.94721872 3.6976821 8.5866661
6.243855 -0.97128296 3.8073604 8.1999998
6.5834184 -0.91310281 3.7616258 8.1999998
6.8102937 -1.0167133 3.8466473 7.5
-7.4256563 -0.66487104 3.8028209 14.057971
-6.8622642 -0.65795869 3.7346122 13.557143
-6.6234241 -0.63685602 3.7936432 13.774195
-6.1924829 -0.60734296 3.7891665 14.076923
-5.8087897 -0.62200791 3.7561538 14.284722
-5.4036846 -0.60523283 3.7391527 14.60989
-5.0089207 -0.72211176 3.8903539 14.651111
-4.6142054 -0.66989344 3.7976959 14.597862
-4.3342175 -0.71065289 3.6838086 14.8
-0.62085152 -0.69687027 3.9422066 13.666667
2.5798521 -0.67550886 3.7836623 10.777057
2.9592369 -0.63601726 3.7907088 12.202583
3.486691 -0.60198092 3.8213279 14.009375
3.7181079 -0.59711224 3.8572619 12.647789
4.038115 -0.67580247 3.7031927 11
4.8668051 -0.77007616 3.6511965 9.5
5.3129435 -0.60187322 3.7186062 9.8881035
5.7456918 -0.53949249 3.7109737 11.104999
6.175838 -0.53305006 3.8061669 10.5
6.689249 -0.5373283 3.8208842 9.666667
6.9580369 -0.73270005 3.835027 8.5
-7.3730454 -0.28555256 3.7807152 14.619525
-6.8775935 -0.23882587 3.6877162 14.916667
-6.6192856 -0.26695007 3.7453485 14.928332
-6.2091808 -0.27716264 3.7537582 15
-5.8134012 -0.26442897 3.7644975 15
-1.726023 -0.1401667 3.7838037 7.9714284
-1.4193047 -0.11382817 3.8642457 7.1052632
-0.52738595 -0.17303513 3.7583249 6.5277781
-0.18983825 -0.15037183 3.8586669 6.2547622
0.21969797 -0.12348405 3.9004333 6.5062499
0.63320911 -0.094496995 3.9179995 6.7570519
1.0117737 -0.13629797 3.8604963 6.5035257
1.4068906 -0.12670761 3.7680485 6.2484846
1.806022 -0.11051258 3.8603294 6.2637386
2.2065048 -0.089908376 3.8972096 6.6690912
2.6036572 -0.1246681 3.8382342 7.6780396
3.0337646 -0.16251068 3.8466666 7.9366269
3.3972101 -0.15126143 3.8444347 8.39359
3.769109 -0.13685897 3.8680055 7.2992797
4.2296653 -0.11545055 3.8879428 6.8888888
4.6222358 -0.11725608 3.8830106 6.9302082
4.9912276 -0.15125017 3.8366191 7.3479204
5.3247247 -0.18770173 3.7701137 11.508799
5.7131085 -0.10461582 3.7427952 8.5285711
6.1396937 -0.1170928 3.7960956 12.650001
6.66572 -0.15500747 3.8034174 11.3
6.9242339 -0.3574664 3.8354213 10
-1.7035853 0.23700832 3.7959881 9.7666664
-1.4507627 0.14307694 3.8175051 9.0981236
-0.5933761 0.15212391 3.9508991 10.904762
-0.19068572 0.16875252 3.9812226 9.7240925
0.23794912 0.18412347 3.9341109 9.2342901
0.60480523 0.18652861 3.9371054 9.3493624
0.98717093 0.18915854 3.9341462 9.3462305
1.3951591 0.20222731 3.9314682 9.4547358
1.8127412 0.20828883 3.927134 9.3470669
2.2212486 0.20803331 3.9259789 9.2914162
2.6420944 0.18023746 3.8745682 10.263875
3.0114467 0.17520531 3.9004433 10.523456
3.4100244 0.19008335 3.9261222 9.2182655
3.8176017 0.19034539 3.9237754 9.5909357
4.1962848 0.19282924 3.9240279 9.0898962
4.6352353 0.20167889 3.8776212 9.4551058
4.9750218 0.18868674 3.8451581 9.8101311
5.3552642 0.18316692 3.8013766 11.999604
5.7072229 0.16642468 3.7923355 10.70726
6.1547303 0.29355362 3.7800179 14.555556
6.5226512 0.23271075 3.8116584 13.363636
6.9219513 0.033937573 3.8424726 11.5
-1.7239097 0.67663699 3.8253148 12.156988
-1.4385018 0.58988714 3.8040345 12.79223
-1.0746654 0.7262004 3.9309428 12.765986
-0.59262151 0.71732938 3.9279277 13.251715
-0.13355871 0.67453015 3.9537294 13.463643
0.22916637 0.59588325 3.9354923 12.7674
0.59869176 0.58054626 3.9361598 12.794333
0.98034328 0.58617651 3.9330552 12.832755
1.3961773 0.57905662 3.9326897 12.760102
1.809788 0.59148473 3.9263747 12.529618
2.220547 0.59605151 3.9180036 12.482967
2.6397872 0.57777905 3.8784144 12.651453
3.003083 0.58227521 3.9204705 12.357383
3.3999202 0.57341915 3.9257329 12.052731
3.8117142 0.58437777 3.9281504 12.015593
4.1994457 0.58578986 3.9229262 11.9431
4.5995026 0.59983009 3.9074202 11.864999
4.9904966 0.61401397 3.8991275 11.863052
5.3760519 0.59440082 3.805727 13.130596
5.6829143 0.60713226 3.7942085 12.463234
6.5758963 0.57156211 3.8159289 14.5
6.8842039 0.47829875 3.8151784 13.2
-1.7227234 1.0209607 3.8218665 14.126709
-1.4895328 0.95049202 3.8249366 14.406327
-1.05786 0.96657425 3.9420195 14.639318
-0.57685184 0.94465107 3.9389813 14.645855
-0.13839239 0.94993371 3.9312844 14.665999
0.22849683 0.92103642 3.9249854 14.692334
0.63264924 0.93228215 3.9147604 14.644444
1.0346557 0.95995355 3.915302 14.615277
1.4191493 0.9318608 3.9161487 14.356438
1.8150487 0.94394964 3.918453 14.379413
2.210233 0.9514634 3.918499 14.324759
2.6371658 0.9589889 3.9163632 14.164402
3.0336409 0.9780013 3.9162254 13.981273
3.4034317 0.96678233 3.9159582 13.814985
3.8066432 0.9606424 3.9156811 13.5807
4.2013445 0.97673428 3.9171176 13.516212
4.6077242 0.9967888 3.9093642 13.456794
4.9881821 0.98424393 3.9002459 13.265808
5.4207153 0.98820871 3.840482 13.149395
5.6986284 0.95062482 3.7927279 14.004333
6.6493206 0.82616305 3.7905555 15
6.8404007 0.813241 3.8808644 14.5
-1.6699803 1.2221047 3.7648911 15
2.2691638 1.2116075 3.9232242 15
2.6198075 1.2540517 3.916697 15
3.0483296 1.2977628 3.9072773 15
3.4583864 1.3239262 3.9167335 14.803788
3.8360324 1.3460712 3.9134693 14.637682
4.2227173 1.367304 3.9077592 14.682323
4.6325326 1.3746586 3.9017849 14.57262
4.9772167 1.3654888 3.8965411 14.208548
5.4237671 1.3855743 3.8288438 14.321014
5.6849508 1.3072757 3.8252051 15
4.6748967 1.6326705 3.9251475 15
4.9748907 1.6740458 3.9077854 15
5.4368029 1.6961585 3.816658 15
-6.546114 -2.4243498 4.2331314 7
-6.8477468 -2.0858836 4.1257696 8.1999998
-6.5955434 -2.0908413 4.1962013 8.1380949
-6.2322145 -2.1781096 4.2776837 7.6894741
-5.7985697 -2.1789393 4.2217364 7.5921569
-4.9898381 -2.2071126 4.0237031 7
-7.2637987 -1.7615582 4.0758996 9.4375
-7.004868 -1.6938959 4.1290979 9.7513885
-6.600667 -1.7792265 4.1499867 9.6937113
-6.196816 -1.8112538 4.1840038 9.2543106
-5.82301 -1.810838 4.1509242 9.3797112
-5.3980308 -1.8548454 4.0882411 8.9106064
-5.1005802 -1.9000018 4.0454912 8.666667
-0.53771412 -1.6812775 4.1996856 6.5236363
-0.22257161 -1.722483 4.1324482 5.3961039
0.20392829 -1.712676 4.1651034 4.7919707
0.61130279 -1.6850783 4.200778 4.7156181
1.0708908 -1.6645058 4.2085853 4.7982454
1.4663255 -1.6500963 4.1911988 5.0121951
1.7989253 -1.6547878 4.0726366 5.181818
2.1506054 -1.6084813 4.1572013 6
2.8970187 -1.6039923 4.0667233 6
-7.2961884 -1.4449793 4.090652 10.944446
-7.0031433 -1.4621837 4.1189699 11.098048
-6.60813 -1.4244525 4.1482391 11.728415
-6.1783829 -1.4614862 4.1741719 11.150001
-5.7950873 -1.5127922 4.1191831 10.885714
-5.4201431 -1.5394521 4.0922704 10.560416
-5.0851603 -1.5444162 4.0362267 10.458333
-0.53859365 -1.4060352 4.2003922 10.636489
-0.37018827 -1.3965185 4.2679224 10.17761
0.25112373 -1.5538174 4.2101946 7
0.76947016 -1.5378546 4.2195415 7
0.80875725 -1.5265002 4.3427715 7
1.3792435 -1.5154382 4.2698359 7
2.2400446 -1.5938996 4.228848 6
2.6511164 -1.5765641 4.2359743 6.0470591
2.8607485 -1.5430151 4.1436896 6.2941175
3.555968 -1.3570254 4.1975584 8.1175003
3.7055392 -1.4089644 4.2459345 7.4942455
5.3959522 -1.2482285 4.213944 7
5.7928228 -1.2023671 4.0757742 7
6.2838745 -1.2110739 4.2381172 7
-7.3134003 -1.0246903 4.0868702 13.14
-6.9744291 -1.0230733 4.1235986 13.503636
-6.5808263 -1.0196207 4.1486478 13.783333
-6.189064 -1.0285972 4.1759377 13.662844
-5.8070683 -1.0494636 4.1559286 13.209877
-5.4323773 -1.0530814 4.0883789 12.983334
-5.1562948 -1.0876057 4.0228391 12.666667
-1.0468369 -1.0331076 4.3250246 9.5
-0.54877806 -1.1428617 4.1881151 14.220428
-0.37048036 -1.0946145 4.2799306 14.080351
2.6829109 -1.1056021 4.1444979 8.833333
3.0482681 -1.0686954 4.1626658 8.6599998
3.4906151 -0.87345344 4.1651645 12.116362
3.6935701 -0.98611099 4.2608519 10.785278
5.3496294 -0.93763357 4.1366377 8.6370306
5.8830771 -0.98036683 4.110013 8.2435904
6.2709208 -0.91523474 4.2676177 8.458333
6.6723022 -0.91234344 4.1940403 8.1538458
7.1002808 -0.88658249 4.24018 7.8000002
7.2176905 -0.8888576 4.0200038 8
-7.3563976 -0.64316767 4.0986633 14.5
-7.0500846 -0.62858891 4.1297307 13.944444
-6.621182 -0.64494109 4.0980439 14.1
-6.2356863 -0.66426522 4.2473159 14.709184
-5.8201776 -0.68511492 4.1604967 14.810715
-5.4128323 -0.68040001 4.0678029 14.705556
-5.1750193 -0.65337837 4.0131874 14.5
-1.694067 -0.40355363 4.0641327 7
-1.0859747 -0.55212688 4.3549528 11
-0.55158675 -0.61566746 4.2300553 12.925
2.6745911 -0.65985137 4.2240753 10.571428
3.0374103 -0.67563331 4.1668358 10.588235
3.4971805 -0.61839247 4.1718898 14.059608
3.6966312 -0.54435688 4.2336273 14.026754
5.0627537 -0.48454261 4.2966518 8.4137411
5.313694 -0.57389408 4.1571469 9.2827177
5.8482027 -0.53707498 4.1157055 10.784849
6.2400131 -0.49788377 4.2769527 10.5
6.6245561 -0.44609573 4.1817851 10.214286
7.0180326 -0.60637575 4.2049069 8.954545
7.4607763 -0.40570354 4.3839169 9.5
-7.2451892 -0.24819854 4.1484509 14.875
-7.0677562 -0.23098284 4.1661596 14.627084
-6.5876393 -0.221946 4.0828681 14.875
-6.3972893 -0.20721376 4.0018153 15
-1.7061756 -0.1514248 4.1773601 7.9230771
-1.3864733 -0.11912169 4.2194171 7.1034484
-1.0090163 -0.11984533 4.2970357 7.5599999
-0.57515568 -0.12862258 4.2539253 7.7763157
-0.21558443 -0.13283068 4.2380695 6.9467592
0.18664077 -0.12759304 4.2028418 6.7194448
0.58687252 -0.11133698 4.1929607 6.6976891
1.0042398 -0.1351852 4.1194801 6.7041669
1.4317763 -0.16732371 4.1547766 7.0512214
1.8140814 -0.14590281 4.1761379 6.6947465
2.1839411 -0.1517731 4.1443443 6.5852971
2.5983331 -0.15696315 4.131947 7.7239966
3.0004556 -0.20300859 4.1409249 8.8528433
3.4164195 -0.21640822 4.1449695 8.7024584
3.7760532 -0.17772493 4.1680198 9.5880938
4.2043366 -0.18723774 4.1541815 6.7004509
4.6268129 -0.1497505 4.1901894 7.6870079
4.9968224 -0.18549432 4.18576 9.2078409
5.3450975 -0.19062757 4.1482501 11.248911
5.8118434 -0.10803232 4.112009 13.183333
6.1654296 -0.11946273 4.2240567 12.444444
6.6117148 -0.16209203 4.1865721 11.461538
6.9925447 -0.18028256 4.2321496 10.590909
-7.1931167 0.011997104 4.2282028 15
-1.6974841 0.27029353 4.1551633 9.9400005
-1.4186494 0.13655593 4.2210169 9.0291977
-1.0051917 0.14345945 4.2846885 9.3525429
-0.59119081 0.14410903 4.259788 9.6996708
-0.19762392 0.14135018 4.2704072 9.5898218
0.18963064 0.13772129 4.2278566 9.7425537
0.60364306 0.14194095 4.2241426 10.005205
1.0124681 0.14315897 4.2000427 10.325799
1.4085164 0.15246208 4.1849279 10.679354
1.8321649 0.22693002 4.1751308 12.061687
2.179244 0.22793868 4.165381 12.336034
2.5846026 0.21418761 4.156764 12.537551
3.0011561 0.20595565 4.1513157 12.770233
3.3988626 0.2130096 4.1509795 12.502349
3.7892988 0.2139062 4.150353 12.381243
4.2117295 0.17806025 4.1417513 11.39284
4.684782 0.13154382 4.1969676 10.871047
4.9997811 0.11844394 4.1199756 10.480512
5.3590965 0.172482 4.1490474 12.868053
5.7908907 0.21727028 4.1413512 14.9
6.2725239 0.28439134 4.2234683 14.020834
6.6198211 0.34168699 4.2431221 13.5
6.9514484 0.22003865 4.2250671 12.111111
7.405911 0.17885089 4.3801384 11.5
-1.7152549 0.72821289 4.1902242 12.309091
-1.399664 0.55759072 4.2056618 12.095846
-0.9906404 0.57631111 4.2691808 12.948035
-0.59273249 0.54849714 4.2586932 13.063862
-0.20767002 0.55743432 4.2752342 13.276496
0.19034982 0.55887836 4.2488194 13.66823
0.59834093 0.53798872 4.2298894 14.00945
1.0140144 0.4868969 4.2115726 14.10706
1.4055381 0.46317571 4.2034221 14.221161
1.7693186 0.45794463 4.1974497 14.357583
2.217907 0.47402412 4.1991968 14.355851
2.6069689 0.47840554 4.1876163 14.084098
2.9421268 0.5007239 4.1413131 14.385822
3.3819475 0.50392324 4.1516972 14.158257
3.8157942 0.49468768 4.2028041 13.78967
4.2599583 0.46876314 4.211597 13.529992
4.6468959 0.47861898 4.1775713 13.844387
5.0096002 0.51496309 4.1715441 13.734863
5.3676348 0.57679307 4.1674323 14.117607
5.6031127 0.72698444 4.0427051 15
6.3348317 0.55433762 4.2129679 15
6.6354198 0.69468951 4.2082982 14.777778
6.9224224 0.57705343 4.2151318 13.444445
7.3578291 0.77819967 4.388 13.5
-1.7074299 1.1126653 4.1567049 14.213492
-1.4165952 0.95271897 4.2290974 14.374573
-1.0215064 0.95174384 4.3521943 14.337881
-0.598526 0.89904106 4.3459654 14.506016
-0.22715028 0.82936943 4.3267894 14.523188
0.047403097 0.81901169 4.2830648 14.55
2.6279819 0.88961327 4.1773338 14.875
2.8591807 0.83709931 4.1018653 15
3.879354 1.0008138 4.010119 13
4.2915363 0.96429211 4.0209517 12.5
4.7015271 1.0397818 4.0302153 12.583334
5.0374603 1.0296873 4.0380955 12.3
6.7760153 0.8174296 4.1145382 14.5
6.9768844 0.95155793 4.2564168 14.583333
-1.6687917 1.2135031 4.1506858 14.8
-1.5410885 1.2152008 4.208303 15
3.4353449 1.2819177 4.0045819 15
3.9501102 1.340633 4.0198731 14.75
4.233954 1.3609629 4.0169816 14.625
4.6716676 1.429754 4.0357881 14.5
4.9482098 1.4703968 4.0456529 14.416666
5.2408266 1.4236906 4.023766 14
7.4132857 1.2337046 4.1373887 14.1665
5.1717238 1.6638085 4.0620632 15
5.3170023 1.6664999 4.0160031 15
-6.3143773 -2.2581787 4.4331746 7.5
-6.3621106 -1.7427241 4.4297385 10
-0.43218499 -1.6507419 4.570549 6.5113635
-0.26093104 -1.6259767 4.6792998 6.6794872
0.22014757 -1.6866726 4.4976997 5.4705882
0.6772846 -1.6674727 4.4679184 5.0961537
1.0957019 -1.6464008 4.5048685 5.25
1.3867412 -1.622622 4.5213313 6
-0.99670237 -1.4287421 4.7137599 8
-0.4474577 -1.3730732 4.5505319 10.505486
-0.28355947 -1.3638661 4.6889033 9.6993055
0.30980289 -1.5883839 4.4228611 7
0.80838609 -1.5688603 4.5797796 7
1.4330376 -1.5700572 4.6662264 6.5999999
1.8798447 -1.5530493 4.6988702 6.1176472
2.1615639 -1.5509081 4.655417 6.0588236
2.510103 -1.5495105 4.5796986 6.090909
2.8955855 -1.4540951 4.4717546 7
3.4444413 -1.395358 4.5457268 7.0714288
3.7506466 -1.4238713 4.6177683 7.0926723
5.0966377 -1.2387005 4.5664563 7
5.3170199 -1.236118 4.5615263 7
5.856822 -1.2231385 4.4598465 7
6.2030988 -1.2036046 4.6587844 7
-1.0403633 -1.0306513 4.6294436 9.2857141
-0.45022035 -1.1026075 4.5509367 14.094218
-0.30026543 -1.0087366 4.6687045 13.665799
2.7717671 -1.1444043 4.5694246 8.375
3.0615737 -1.0798264 4.5925651 8.409091
3.3352046 -1.0459651 4.5848608 8.5
3.7330132 -1.0799121 4.5661259 9.9102983
5.0059071 -0.90461385 4.524261 8.858593
5.2944851 -0.96684355 4.5063972 7.7798877
5.8756199 -0.96147084 4.5099292 8.3148155
6.1490302 -0.93798572 4.6578422 8.2777777
6.6783218 -0.92502177 4.5878448 8.125
7.0897584 -0.84413689 4.6225791 8
7.3235817 -0.94161892 4.7279196 8
7.7354207 -0.92436886 4.6277122 8
-1.6653016 -0.40235215 4.5055852 7
-1.2080898 -0.48901683 4.478281 11
-1.0474285 -0.55388612 4.6856513 10.75
-0.44508472 -0.61744314 4.5385914 11.500001
-0.32306972 -0.62387747 4.6233454 14.36154
2.7427456 -0.71551102 4.5664554 10.166667
3.0890226 -0.6934638 4.5620646 9.9375
3.3811395 -0.64593905 4.597414 10.30303
3.7040198 -0.60098708 4.5869036 13.778098
4.7755013 -0.55522662 4.6932063 11.007004
5.0037637 -0.60414243 4.50001 10.053522
5.3757529 -0.58797401 4.5161142 9.9854383
5.8801146 -0.56131989 4.5014563 10.45238
6.1396894 -0.48478588 4.6574764 10.516667
6.65942 -0.45424628 4.6118703 10.125
7.0029745 -0.59954798 4.6393027 9.1198215
7.3305001 -0.5889582 4.5954366 9.086688
-1.6612797 -0.14980023 4.5428653 8.1333332
-1.3625306 -0.12524152 4.4567962 8.1875
-0.98661524 -0.1780654 4.5664101 8.630435
-0.51874888 -0.11254047 4.5538235 9.9099998
-0.14797261 -0.23013589 4.5290751 7.9000001
0.1692849 -0.092830963 4.5066452 8.5111113
0.4563989 -0.0094807558 4.5029931 9.1169643
1.0229877 -0.030609531 4.4417915 9.0777779
1.3882651 -0.12567449 4.4451017 8.333333
1.8077773 -0.15642913 4.5159774 8.2249823
2.2084885 -0.12260811 4.582509 8.5
2.7207694 -0.14202562 4.6175256 10.474702
3.1033614 -0.1897231 4.5751748 10.439815
3.3829603 -0.18283744 4.5944743 10.878788
3.8874989 -0.15880637 4.519803 11.601192
4.2377677 -0.042714998 4.6500497 8.8928576
4.7474852 -0.15903191 4.5492578 9.6558905
4.896625 -0.28609839 4.5660782 10.675222
5.3680477 -0.18226887 4.5185351 12.855747
5.886498 -0.13588214 4.5873795 12.58
6.1784916 -0.058127016 4.5694094 12.520833
6.5693202 -0.16049412 4.5697384 11.4375
6.9714227 -0.1058988 4.6093926 10.916667
7.3802881 -0.30744153 4.6798372 9.625
7.6987839 -0.20090902 4.7368331 10
-1.6524627 0.32419899 4.5741014 10.458333
-1.306743 0.25276497 4.48979 10.446154
-1.0287199 0.19362918 4.536056 10.519048
-0.55806106 0.2516194 4.5413971 11.465368
-0.17369984 0.2788322 4.5144205 11.15
0.18065214 0.30845639 4.5168695 11.12381
0.57924438 0.25129178 4.4688621 10.921212
0.97436941 0.27574471 4.4437218 11.325397
1.3870898 0.32385489 4.4460096 11.874459
1.7930245 0.29567894 4.4940023 11.788637
2.2408633 0.32897529 4.6090307 11.955555
2.686744 0.26673979 4.5698957 12.972698
3.081244 0.21259336 4.5616531 12.576624
3.3401401 0.20892729 4.546555 12.660494
3.8871524 0.221843 4.5162611 12.719048
4.1924205 0.33491099 4.6476841 11.777778
4.7187138 0.32930377 4.6215386 11.565872
4.9234548 0.18211575 4.5361319 10.405
5.3743563 0.1412854 4.5428491 14.400648
5.8809009 0.26566535 4.6041284 14.530303
6.1816821 0.30194753 4.5871019 14.142858
6.5811281 0.34752101 4.5592198 13.5
6.9249272 0.36722293 4.6192179 12.722222
7.3279867 0.18459693 4.6497016 11.375
7.6759357 0.11238134 4.7430568 11
-1.6586399 0.75007498 4.5693011 12.5
-1.2964146 0.62755531 4.4793978 12.427619
-1.0373137 0.58329439 4.5257587 12.539948
-0.58920389 0.64667314 4.5394354 13.227273
-0.18185918 0.66173238 4.5034714 13.400001
0.20412925 0.7184521 4.4963694 13.793333
0.58303154 0.69337451 4.4725881 13.929464
0.99152827 0.66557431 4.4364858 14.163542
1.3748626 0.68702376 4.4453726 14.656411
1.7981851 0.65967113 4.4988327 14.592307
2.2079444 0.65060771 4.5861678 14.447426
2.6861544 0.67189443 4.5777755 14.674725
3.0707581 0.58574092 4.5541925 14.421679
3.3284516 0.60567248 4.5674872 14.5625
3.938627 0.61186087 4.4693017 14.458333
4.2504315 0.65765256 4.6414976 14.143354
4.7035971 0.63618773 4.6124082 13.780701
5.0581141 0.70842534 4.6299243 13.973913
5.3482056 0.73004335 4.537878 14.011499
6.2714682 0.56173515 4.6668339 15
6.6192136 0.72263199 4.5922823 14.857142
6.8963518 0.76873511 4.5975904 14.2
7.3009758 0.66769785 4.6411109 12.875
7.6376176 0.58750892 4.747179 12.5
-1.6763361 1.1433141 4.5670114 14.333333
-1.3188686 1.0543723 4.4770141 14.400001
-1.0267411 0.96861088 4.4773693 14.478889
-0.5840438 0.99084377 4.510088 14.785714
-0.15169011 0.9630425 4.5268145 14.888889
2.6270595 0.81735766 4.4104848 14.5
3.0158632 0.89027816 4.5787239 14.714286
5.3334923 0.82839799 4.6200356 14.5115
6.9719691 0.97920007 4.6180272 14.571428
7.4244485 0.97212869 4.6382499 13.5
-1.6534982 1.3200866 4.6918597 15
7.1780562 1.2388662 4.7615442 15
-0.82853329 -1.6529737 5.067337 7
-0.75256407 -1.6914514 5.0646658 7
-0.28886309 -1.6176825 4.9748516 6.5224719
0.19353047 -1.6177263 5.0620728 6.0599999
0.57734573 -1.6146557 4.9119196 6
0.82762289 -1.6091654 4.9129877 6.5
-0.84169537 -1.342635 5.0254498 8.3888893
-0.76009816 -1.3763477 5.0542436 8.3000002
-0.21332729 -1.3961451 5.0288925 8.9840965
0.69303042 -1.5866534 5.1168966 6
1.0882702 -1.5709345 5.0970926 6.0487804
1.46795 -1.5585815 5.0287023 6.046154
1.8294511 -1.5512352 5.0174356 6.0337081
2.1525068 -1.5406412 4.9243708 6.0615387
2.9275556 -1.3421897 5.0174036 7
3.5959218 -1.311578 5.183085 7
3.8234191 -1.3909533 5.0086269 7.1107593
5.0125046 -1.2796732 5.0254292 7
5.3277807 -1.268452 4.9622617 7
6.1104865 -1.2030613 4.8912916 7
-0.89442092 -1.0068954 5.0225983 9.6481485
-0.74148941 -0.97753447 5.113544 9.8888884
-0.25787866 -0.98752803 4.9902062 13.572535
0.0079232454 -1.1072226 4.8291821 9
2.8974187 -1.1245037 4.8477478 8.5
3.7682099 -1.076695 4.8840718 9.726428
4.9888778 -0.99902177 4.99507 8.7119131
5.4116936 -1.0001829 4.9694266 8.5021439
5.9025292 -0.91497338 4.9536581 8.5333338
6.1666183 -0.93197519 5.0120454 8.227273
6.5635285 -0.84396005 5.0395808 8.5019083
6.9114323 -0.82675517 5.0243578 8.375
7.2678642 -0.88697362 4.9018712 8
-0.9211604 -0.58263433 5.02631 11.178572
-0.70380592 -0.57590854 5.0825853 12
-0.19858463 -0.59644586 4.9999356 13.170175
2.6165764 -0.40790829 5.1963849 8.5
2.8867185 -0.51897871 5.0684781 9.083333
3.7487063 -0.62105227 4.8667736 13.311866
4.2384424 -0.41112116 5.1910305 9
4.560967 -0.47614148 5.0981607 7.829412
4.9917593 -0.55062127 5.0550728 8.0713272
5.4234228 -0.61192453 5.0090175 10.636406
5.848495 -0.52542961 4.8979664 10.541667
6.1592889 -0.47057599 5.0762854 10.397435
6.5775442 -0.46938324 5.0352917 10.002056
6.9462643 -0.59321725 4.9789829 9.117116
7.2630486 -0.73763466 5.0141325 8.3918333
-0.95125997 -0.1602772 5.0302262 12.622222
-0.70816231 -0.15867965 5.0919552 14.5
-0.27608028 -0.086800933 4.9551516 12
2.3692636 -0.059175476 4.8213148 9
2.6027703 -0.22051021 5.1104021 8.7415257
2.8864012 -0.22516 5.0994201 8.8103447
3.292469 -0.19900936 5.0892477 8.9669189
4.2118158 -0.17310901 5.0419679 9.1756754
4.5334511 -0.20373146 5.0376172 9.0422468
4.9320264 -0.20488793 5.0058217 8.9502764
5.436142 -0.1848968 5.0026078 12.920176
5.9263291 -0.10703429 4.9729218 12.444446
6.1823854 -0.03840543 5.0640597 12.348484
6.5976834 -0.093411446 5.0109215 11.571428
6.9899716 -0.16664957 4.9916439 10.777778
7.2515125 -0.36958611 5.0125933 9.5
7.719255 -0.13931203 5.0777712 10.166667
-1.2210968 0.39350331 5.1592064 14
-0.96779293 0.20998235 5.0313935 13.857142
-0.42395556 0.22680461 4.8970442 13
-0.27449626 0.25115862 5.0623403 12.857142
2.3904395 0.338303 4.8332963 11.8
2.6023626 0.17795931 5.0952034 11.222222
2.8843381 0.16618475 5.1000457 11.164286
3.25757 0.18112177 5.0885487 11.316394
4.2048569 0.22867697 5.0497594 11.775309
4.5771627 0.19727099 5.0308194 11.542857
4.9335356 0.20454551 5.0010924 11.501863
5.3740282 0.24194787 5.03442 12.736316
5.8869443 0.27711132 4.8895931 14.375
6.1749988 0.29832605 5.0491614 13.833333
6.5703821 0.36243176 5.011312 13.4
6.996655 0.26114213 4.9929833 12.25
7.3529782 0.074180879 5.0309901 11
7.6523294 0.12518036 4.9506693 11
-1.0131501 0.57886082 5.007772 14.235294
-0.44842041 0.57396722 4.895812 14
-0.30376369 0.64453107 5.0378861 14
2.253056 0.65485042 4.8467121 13.8
2.5874026 0.62347013 5.1175866 13.976471
2.8663461 0.61612332 5.1118217 14.015477
3.2552259 0.61660153 5.0840783 14.083909
4.1931415 0.61425972 5.0374308 14.168571
4.6099982 0.61607462 5.0228853 14.167213
4.951858 0.61718106 5.0079489 14.066918
5.3516521 0.59903926 4.9996538 13.831926
5.9299841 0.50573528 5.1823754 15
6.1648335 0.56812578 5.0359859 15
6.6104283 0.7414422 4.9835825 14.785714
7.0634575 0.61510849 5.0117207 13.25
7.5330443 0.57187223 5.0963683 12.5
7.6953263 0.57002705 5.0443707 12.333333
2.5846515 0.88512021 5.1293712 15
2.8547099 0.8742739 5.1117244 15
3.254142 0.86826235 5.0809312 15
4.1977487 0.8697964 5.0036535 15
4.621758 0.87237632 4.9700637 15
4.9532008 0.91092181 4.9388461 15.005287
5.3467312 0.91777295 4.9049239 15.008994
7.0211334 0.98265773 4.9851809 14.555555
7.5262923 1.0684417 5.019413 14
7.7991958 1.0156677 5.1902227 13.5
7.106885 1.2422605 5.0150738 15
-0.57845759 -1.6314213 5.4582987 7
-0.21146673 -1.6425458 5.3736367 7
0.15910825 -1.6142633 5.2982659 6.0476189
-0.89384913 -1.4403659 5.2972112 8
-0.65881926 -1.3466051 5.3737206 8.3650799
-0.13477181 -1.4066685 5.3898706 8.3617163
0.047371469 -1.4021126 5.4372621 8.1278963
0.67210805 -1.5740554 5.3816462 6.1750002
1.0565461 -1.4852176 5.4217649 6.8166194
1.4373379 -1.4992169 5.3345566 6.6886821
1.7631657 -1.3860573 5.4551916 7.5366306
2.3748217 -1.4161191 5.4952693 7
2.623642 -1.3463706 5.4136147 7
3.1267755 -1.3297725 5.3865829 7
3.4087272 -1.3936951 5.4345303 7
3.7326462 -1.3501464 5.4220829 7
4.6134734 -1.2782099 5.422317 7
5.0547805 -1.2409115 5.3646159 7
5.5295625 -1.2512549 5.2563109 7
5.8980803 -1.2215556 5.4170437 7
6.0483608 -1.2152866 5.4605007 7
-0.90546513 -1.0290135 5.3783154 9.375
-0.68249846 -0.96871811 5.3902535 9.7873554
-0.13806695 -0.91108376 5.3862705 13.317843
0.072645642 -0.90045053 5.4169693 12.278075
1.2396768 -1.1986703 5.5578852 8.5640001
1.6020232 -1.1899294 5.4308977 8.566
2.6312819 -1.007219 5.5731544 8
2.9046035 -0.98317617 5.5836635 8.5
3.3205247 -0.93999815 5.532989 8.801609
4.2304997 -0.90528846 5.4212151 8.916667
4.5695524 -0.95096511 5.3812633 7.985714
4.9874563 -0.95668149 5.3425937 7.8896923
5.4462748 -0.97396618 5.3328638 8.5043125
5.9231215 -0.95598984 5.3939447 8.171834
6.1707273 -0.92585886 5.3785219 8.2386847
6.5470881 -0.84606653 5.393219 8.5019999
7.0883584 -0.95200545 5.4253259 8
7.4261293 -0.90915602 5.4190984 8
-0.91352552 -0.59266448 5.3768086 10.733334
-0.6969654 -0.55022293 5.4005089 11.456789
-0.090966903 -0.5899955 5.3983283 13.435184
0.094544046 -0.62888211 5.4494481 13.515151
2.6252544 -0.60874403 5.4510365 8.6875
2.8947568 -0.59278798 5.5007772 9.7241383
3.303668 -0.58308214 5.4769125 9.8233356
4.2359118 -0.57121205 5.3948126 9.8705034
4.5330973 -0.6002863 5.3667955 9.6200829
4.9410152 -0.5990811 5.3267703 9.5006828
5.464478 -0.55511725 5.3899903 10.584512
5.8448563 -0.52399391 5.35952 10.323319
6.1789365 -0.46692348 5.3846245 10.288714
6.6233749 -0.50963533 5.3517532 9.7511501
7.1141677 -0.56580144 5.4891944 9.166667
7.3337054 -0.58752632 5.4870763 9
-0.91004115 -0.17791551 5.3697848 12.166667
-0.70115691 -0.14730355 5.4278927 13.118056
-0.1155773 -0.21391921 5.4030194 13.742425
0.12755661 -0.25248009 5.401351 11.25
2.6123245 -0.19699101 5.4618244 11.349398
2.8782053 -0.16911833 5.5049896 12.477987
3.2666812 -0.17774276 5.4673266 12.347823
4.2191138 -0.18953724 5.3864875 12.145696
4.5869389 -0.1704741 5.361897 12.531656
4.9458838 -0.20425372 5.3227792 11.694328
5.3718295 -0.17420475 5.3018665 12.437879
5.7488842 -0.10049582 5.3007507 12.5
6.1740556 -0.064053178 5.4453449 12.055554
6.5612907 -0.096619844 5.4280186 11.5
7.0987163 -0.16557609 5.5073628 10.435897
7.3555264 -0.17762828 5.4493208 10.129004
7.6899424 -0.15300943 5.3047118 10.188042
-0.90138507 0.21229005 5.3616109 13.75
-0.72773349 0.20379595 5.4501286 13.944445
-0.16940534 0.34882367 5.441339 13
0.13869293 0.26095343 5.463841 12.666667
2.5935578 0.22311901 5.4878721 14.018692
2.8638408 0.19894321 5.4969449 14.278481
3.265115 0.19274504 5.4659262 14.300613
4.2036114 0.17283408 5.3906546 14.3
4.5931735 0.18221919 5.3667812 14.516327
4.9400363 0.1990021 5.3274822 14.106758
5.3625507 0.1913832 5.2884531 14.035501
5.8183956 0.31545645 5.3124757 14.3
6.1694536 0.27303332 5.3843532 13.5
6.5518517 0.34034076 5.3950086 13.214286
7.1072874 0.19210353 5.5200701 11.53125
7.3860259 0.18211122 5.4489136 11.150098
7.7330432 0.12041966 5.3043885 10.833333
-0.92937535 0.60435408 5.3776269 14.326087
-0.77245283 0.6025306 5.4924312 14.5
-0.18293637 0.65773797 5.4649534 13.75
0.10343883 0.75254345 5.4775767 14
2.5776689 0.52967811 5.3859162 14.944445
2.8547361 0.52680594 5.3662586 15
3.259125 0.51571798 5.3396554 15
4.2085295 0.48589796 5.3047686 15
4.5557694 0.48608056 5.2901368 15
4.9261646 0.49090806 5.2764101 15.00403
5.3615074 0.48452368 5.2684736 15.009
5.6318669 0.46332109 5.5595236 15
6.1912508 0.64708436 5.396359 15
6.5758028 0.72683477 5.3714395 14.6
7.0996237 0.59328532 5.5075622 12.666667
7.3971915 0.56372792 5.4360714 12.276534
7.7481012 0.49577984 5.2534237 12
7.0966549 0.99574488 5.4823956 13.908045
7.4253397 0.99303502 5.3926358 13.482203
7.7248893 0.94831592 5.2488475 13.333333
7.1239347 1.2726883 5.5134954 14.8125
7.3950391 1.2306906 5.4021573 14.190476
7.7163744 1.2033666 5.2056932 14
-0.57002401 -1.6557965 5.7969751 7
-0.29622227 -1.6404811 5.8064032 7
0.31614798 -1.6115844 5.6169872 7
0.49727738 -1.615206 5.6138873 7
-0.89159465 -1.476998 5.6238122 8
-0.5821771 -1.3333226 5.7383938 8.333333
-0.059356336 -1.3834095 5.7440777 8.2175446
0.16778083 -1.3415526 5.825026 8.2437477
0.5833509 -1.351343 5.6692185 8.0055609
1.057568 -1.3338776 5.8254704 7.9688239
1.378136 -1.3161546 5.8250561 8.0534477
1.696588 -1.3233266 5.8013129 7.9377923
2.2094829 -1.4459761 5.8511791 7
2.6778667 -1.3810141 5.737916 7
3.0290418 -1.4029541 5.7519999 7
3.309958 -1.4510564 5.6565399 7
3.7501113 -1.3244942 5.8091817 7
4.1012163 -1.3654747 5.8214569 7
4.5713849 -1.4409723 5.84302 7
4.9133806 -1.3438658 5.7709913 7
6.3890734 -1.202238 5.9423766 7
6.4904308 -1.2126412 5.770483 7
-0.85884225 -1.0981561 5.7612967 9
-0.62081277 -0.96404403 5.7627459 9.5645161
-0.097231835 -0.85994279 5.7144051 13.126466
0.10089664 -0.93168861 5.8505306 11.569695
0.60894167 -0.99138153 5.8534155 9.4896755
0.99339408 -0.92184138 5.7283702 10.25771
1.2995346 -0.93377465 5.8587203 10.692369
1.6934071 -1.19819 5.8333602 9.0877523
2.6353123 -0.98614454 5.6230793 8.5
2.9268143 -1.026324 5.7264228 8.5
3.3230801 -1.1121675 5.8142552 8.5
4.2748013 -1.0564774 5.790031 8.4861116
4.5637388 -1.0225141 5.8125296 8.546154
4.8887591 -1.0068376 5.8175769 8.5
5.6010361 -0.94051546 5.6332564 8.5024996
6.2520814 -0.98631507 5.9510665 8
6.5687928 -0.94955653 5.8661747 8.0333338
6.9087434 -0.99783182 5.7131653 8
-0.87714815 -0.66238934 5.7620425 10.25
-0.64196229 -0.56769162 5.7630658 10.965517
-0.064667292 -0.62886065 5.7928138 14.348781
0.069896683 -0.56067306 5.8371253 14.562648
0.70469981 -0.54982722 5.8313799 11.471285
1.0416853 -0.52872652 5.7266593 12.2173
1.2982596 -0.59821177 5.8883963 13.237897
2.6133947 -0.57881081 5.6225491 10.972222
2.9011197 -0.68737483 5.7439694 10.659341
3.3012385 -0.71572113 5.810463 10.7375
4.2517843 -0.65090537 5.8017316 10.673077
4.5303707 -0.6435324 5.8208046 10.541667
4.9351559 -0.57729918 5.8285437 10.641026
5.4298267 -0.43481001 5.8330688 11
6.2724323 -0.52637899 5.9286218 9.4222221
6.5849509 -0.54634911 5.8465996 9.3419762
6.9354401 -0.60522991 5.6707749 9.0686264
-0.91407365 -0.16723454 5.7745075 11.666667
-0.66756636 -0.17533843 5.7721281 12.25862
-0.19663331 -0.19652644 5.8098984 13.604166
0.090206735 -0.20299886 5.8080931 13.423077
0.66847014 -0.27611119 5.8368793 12.386687
1.0793545 -0.25448856 5.6824884 13.810699
1.3333808 -0.32998374 5.9159889 12.584374
2.5876112 -0.15248211 5.6214728 13.652439
2.8847423 -0.27453029 5.7486377 12.95
3.2711818 -0.2961559 5.8100214 13.061111
4.2278028 -0.25483659 5.8031955 12.772727
4.5155253 -0.24292673 5.8102469 12.620879
4.9726248 -0.20802422 5.7899232 12.501313
5.3980527 -0.16215894 5.8063612 12.335667
5.7101049 -0.27415138 5.8048244 11.466666
6.2323914 -0.16577679 5.8337507 11.068182
6.6296439 -0.21062446 5.8180695 10.40625
6.9669075 -0.21666667 5.6820555 10.229166
-0.90819597 0.20354429 5.7705603 12.642858
-0.66992539 0.22569108 5.7741785 13.821428
-0.21645249 0.15655065 5.8063555 13.625
0.16172157 0.086630613 5.8848372 12
2.5863264 0.14073986 5.6196413 14.767241
2.8759685 0.072798088 5.7505865 14.554763
3.2472625 0.032192755 5.8114171 14.816666
4.1992488 0.12425119 5.8206716 14.680556
4.4726605 0.15009859 5.8186088 14.597222
4.956738 0.21499541 5.8103089 14.525242
5.376965 0.24006425 5.8279204 14.162715
5.7035093 0.1973744 5.8621998 13.5
6.2319798 0.23730654 5.8724771 12.226853
6.598968 0.21811868 5.816895 11.722222
6.9294443 0.21487918 5.6831026 11.532258
-0.93582058 0.58970737 5.7769766 13.714286
-0.70339298 0.59890354 5.7670822 14.34375
-0.047103923 0.44116852 5.7810807 13
0.28702506 0.48884839 5.9118605 13
5.4093637 0.52223355 5.9276266 14.8
5.8330512 0.6072576 5.8414435 14.75
6.2067094 0.68359858 5.8507252 13.8
6.5988693 0.65490192 5.8040257 13.094017
6.9152403 0.57433957 5.6612878 12.555555
-0.71986222 0.82233799 5.7249184 14.5
-0.19234717 0.80961299 5.6012678 14
5.4524288 0.8288269 5.9639721 15
5.9769669 1.0597655 5.9927044 15
6.2193022 1.0276314 5.9213519 14.5
6.6344385 1.0023811 5.7816248 14.183334
6.9246373 0.96329695 5.6778293 13.865385
6.1138916 1.2578102 5.9409604 15
6.5618806 1.2849963 5.7660379 15
6.8968186 1.2667953 5.6488008 14.75
-0.24583678 -1.6210823 6.207386 7
-0.50491482 -1.3259373 6.1372356 8.2692308
-0.22091709 -1.2972174 6.269033 8.375
0.12360952 -1.378011 6.1651406 7.7778525
0.51303005 -1.46937 6.3416429 7.3333335
1.0444291 -1.3214296 6.0892859 8.0320959
1.3488643 -1.3010627 6.053956 8.2068167
1.6859624 -1.2039182 6.0004921 9.0877504
2.1266193 -1.4746227 6.2526441 7
2.5757067 -1.4526647 6.1728706 7
2.8885131 -1.426563 6.089366 7
3.3770418 -1.3780278 6.2909398 7
3.6760807 -1.3811731 6.3083458 7
4.2232833 -1.4236335 6.1509056 7
4.5797491 -1.399544 6.1537375 7
5.0459423 -1.3595971 6.2169809 7
5.5406251 -1.3240544 6.1850896 7
5.8489294 -1.2205194 6.3435283 7
6.0635843 -1.2720219 6.3161297 7
-0.86222994 -1.1219406 6.0266466 9
-0.53869367 -0.97160774 6.1706638 9.3709679
-0.21856721 -0.92299563 6.2815509 9.916667
0.12875026 -1.0232941 6.1475768 10.663875
0.50373489 -1.035812 6.2891583 9
1.1899673 -0.83219784 6.2206979 12
1.2140304 -0.83681387 6.174191 11.954545
3.0209262 -1.1314762 6.1491194 8.5100002
3.3666174 -1.1113642 6.1903243 8.5090904
3.8274684 -1.0794874 6.2925038 8.5
4.2372494 -1.0496976 6.230823 8.5
4.5883937 -1.0218794 6.2310257 8.4375
5.0340829 -1.0229744 6.2678304 8.291667
5.39575 -0.98603725 6.2462068 8.3500004
5.7810235 -0.91608286 6.2784958 8.4409523
6.0842505 -0.89618176 6.2546911 8.4044027
6.4006705 -0.94861054 6.0431299 8
-0.8618933 -0.68494892 6.0941849 10.25
-0.56166118 -0.5804671 6.1649098 10.660714
-0.16682324 -0.57678628 6.1926227 12.6875
0.16377778 -0.62793761 6.2125316 13.582101
0.4803783 -0.6558854 6.2820282 10.5
1.1839273 -0.52002829 6.2344394 14.514286
1.2090007 -0.52944624 6.1512861 14.433333
3.0073767 -0.73106337 6.1634312 10.494445
3.3486862 -0.7023353 6.1662383 10.518182
3.8184865 -0.6669718 6.2872853 10.4375
4.2315516 -0.62053359 6.2242107 10.5
4.588707 -0.60665298 6.2505078 10.2
5.024447 -0.59324402 6.2849431 9.8400002
5.4031034 -0.57891524 6.2357359 9.822917
5.8546009 -0.4911913 6.2976942 10.161692
6.1001163 -0.52643377 6.1452951 9.8421049
6.4307966 -0.49719447 6.016881 9.666667
-0.9033075 -0.16112572 6.0989122 11.75
-0.59299392 -0.17962471 6.175293 11.882353
-0.29318604 -0.17124376 6.2511053 12.9
0.19459221 -0.21261966 6.1576495 13.892141
0.49147215 -0.20430207 6.2938471 11
2.9888928 -0.31949654 6.1828451 12.49
3.3294861 -0.29506421 6.1729369 12.49
3.7967453 -0.24810135 6.2876682 12.375
4.2434115 -0.22341804 6.2022452 12.35
4.6128898 -0.19520089 6.320425 11.466666
5.0477691 -0.18135799 6.2827096 11.077084
5.4542751 -0.17458868 6.2251148 11.554472
5.782743 -0.15788418 6.2235861 11.393974
6.1011691 -0.15200225 6.2003217 11.409781
6.5325074 -0.075563669 6.0563283 11.333333
-0.87774038 0.25835949 6.1681042 12.75
-0.60708648 0.22240584 6.1893373 13.225806
-0.28092289 0.23635343 6.255918 14.9
0.20503901 0.13868931 6.2281513 12.625
0.54087269 0.16869056 6.325274 12
2.9840682 0.13268989 6.1930075 14.589582
3.3358533 0.15794747 6.2214251 14.530768
3.7850125 0.19296302 6.2941942 14.346154
4.2033796 0.2134054 6.2237391 14.307143
4.6241288 0.16208069 6.323204 12.828947
4.998776 0.20087481 6.2749634 12.681818
5.4458299 0.22115488 6.2525477 13.238239
5.8489594 0.26175874 6.2362065 13.155005
6.1182361 0.26336575 6.1331654 12.747863
6.5267305 0.323093 6.0465879 12.8
-0.87612104 0.63984692 6.138649 13.833333
-0.59718466 0.58087677 6.1772423 14.0625
0.13333902 0.531003 6.1501675 13
0.51298785 0.55916667 6.3145623 13
4.3315625 0.46595219 6.3625097 14.85
4.6150465 0.56237483 6.3248534 13.929167
5.0118136 0.59341323 6.2519236 14.07563
5.4521551 0.57285339 6.2553959 14.73238
5.8711267 0.63727701 6.2142816 14.565169
6.1403174 0.65598249 6.1068363 14.189189
6.5225182 0.69660139 6.0594482 14.208333
