# .PCD v0.7 - Point Cloud Data file format
VERSION 0.7
FIELDS x y z intensity
SIZE 4 4 4 4
TYPE F F F F
COUNT 1 1 1 1
WIDTH 1351
HEIGHT 1
VIEWPOINT 0 0 0 1 0 0 0
POINTS 1351
DATA ascii
-2.6897676 -1.4041862 -2.4654272 9
-2.6357319 -1.3968962 -3.1710529 9
-2.6669519 -1.4014481 -2.8083928 9
-1.9136399 -1.1349571 1.5699852 9
-2.7449806 -1.4045063 -1.705521 9
-4.8534231 -1.373337 1.3420615 9
-0.97655326 -1.0778196 0.53899312 10
-2.833777 -1.3235899 -0.5964849 10
-1.213712 -0.97550482 1.5625377 10
-1.1116301 -1.0996344 0.50515449 10
-1.4445986 -1.1121693 -5.0960951 10
-7.6578283 -1.3191472 1.1123922 10
-2.7036669 -1.3322706 -2.4293599 10
-4.4001446 -1.2114061 1.357733 10
-2.6478 -1.304131 -3.1788492 10
-2.6737428 -1.3189534 -2.8087981 10
-2.7249546 -1.3432267 -1.9876748 10
-5.5346975 -1.2539427 1.2820444 10
-2.7452841 -1.3468993 -1.7596025 10
-2.8134079 -1.3437991 -1.0989394 10
-1.9227153 -1.0474371 1.5652075 10
-3.6957839 -1.1777593 1.4149461 10
-3.348119 -1.1590068 1.4373939 10
-0.98519623 -1.0280143 0.52504158 11
-2.8556168 -1.2706466 -0.59575802 11
1.7290726 -0.018720746 4.2052574 11
-1.2220085 -0.88611507 1.5765507 11
-1.1171473 -1.0499997 0.50198019 11
-1.4610075 -0.96058673 -5.1298261 11
-7.6833568 -1.0883148 1.1033932 11
-2.7739301 -1.2949244 -1.3274558 11
-2.8234954 -1.2786632 -0.72743785 11
-2.7164576 -1.2701232 -2.2269344 11
-5.5434828 -1.0901852 1.2709851 11
-2.6694725 -1.2245003 -2.9839387 11
-4.8662014 -1.085479 1.3191926 11
-2.755198 -1.2886531 -1.7643862 11
-3.1978116 -1.0468431 1.4382811 11
-4.0387869 -1.0717525 1.3859215 11
-2.7379832 -1.2806804 -1.9955108 11
-0.99251813 -0.97745955 0.51608324 12
-2.8642478 -1.2169057 -0.59740674 12
1.6986518 0.22229397 4.3557057 12
-1.231779 -0.80003476 1.5649004 12
-1.120909 -0.99761319 0.50959873 12
-1.4148424 -0.81135893 -5.0614376 12
-7.6889176 -0.85685909 1.0881019 12
-2.7848477 -1.2396985 -1.4696205 12
-2.6627426 -1.1170657 -3.1775608 12
-2.7125931 -1.1827594 -2.4735298 12
-4.5168495 -0.94514281 1.3436749 12
-2.7937214 -1.2416407 -1.3343453 12
-3.3721263 -0.94446814 1.4300265 12
-1.0168271 -0.92520285 0.52604401 13
-2.8576601 -1.1638335 -0.60169911 13
1.6890416 0.4149363 4.1975141 13
-1.2414958 -0.71304417 1.5553451 13
-1.430881 -0.65917104 -5.0775986 13
-7.7196989 -0.62152421 1.0804148 13
-2.7637706 -1.1521114 -2.0107894 13
-2.7860389 -1.184927 -1.4698061 13
-2.7443471 -1.1229887 -2.3269949 13
-2.6823213 -1.0298128 -3.1224952 13
-2.7679567 -1.173847 -1.713836 13
-3.2225609 -0.83671838 1.432755 13
-4.4539261 -0.81032383 1.3496273 13
-2.8368211 -1.1827112 -0.91787791 13
-2.7559941 -0.83022654 1.4671049 13
-2.8605266 -1.109663 -0.60438967 14
1.6484952 0.66588283 4.3329058 14
-1.2508379 -0.62219143 1.5567427 14
-1.4473914 -0.50264227 -5.102037 14
-7.7507515 -0.38255924 1.0725446 14
-2.7604909 -1.0883201 -2.004972 14
-2.7925501 -1.1291018 -1.4722967 14
-2.8541622 -1.1282675 -0.92052197 14
-2.6916327 -0.93538916 -3.1250875 14
-2.8546996 -1.120734 -0.75354028 14
-4.5486794 -0.66891932 1.3342209 14
-2.7469807 -1.05119 -2.3245029 14
-4.0777116 -0.69741112 1.3699558 14
-1.0312605 -0.82185829 0.50893521 15
-2.8618212 -1.0550967 -0.60738051 15
1.6315546 0.85063553 4.1621013 15
-2.8561323 -1.0669869 -0.75602108 15
-1.2602601 -0.5285272 1.5611348 15
-7.7782021 -0.14002538 1.0632865 15
-2.7636204 -1.0231223 -2.0044284 15
-2.7922196 -1.0465555 -1.7815228 15
-2.7073655 -0.86391103 -2.9979377 15
-2.773551 -0.63315541 1.4530551 15
-0.9824999 -1.2883159 0.52595842 6
-2.841285 -1.545909 -0.58436859 6
-1.1206194 -1.3012116 0.51364231 6
-2.848248 -1.4935249 -0.58649671 7
-2.6305351 -1.597069 -2.9987385 7
-1.1266505 -1.2566069 0.50491071 7
-1.2391411 -1.2421489 1.5930326 7
-2.8489506 -1.4253831 1.4819386 7
-2.8220086 -1.4976305 -0.75630414 7
-2.7816834 -1.5136949 -1.1999537 7
-2.7562137 -1.5250115 -1.4794735 7
-2.6652057 -1.5802219 -2.6465364 7
-1.7078478 -1.2929283 1.5816939 7
-2.7859855 -1.5215253 -1.3428981 7
-1.3956499 -1.4308803 -5.043129 8
-2.8583627 -1.4413869 -0.58834541 8
-1.2476842 -1.160221 1.5942776 8
-2.7737882 -1.4638021 -1.3133178 8
-2.6908565 -1.4923228 -2.4001427 8
-4.8430367 -1.5286644 1.3257821 8
-2.0486665 -1.2486821 1.5228736 8
-2.7460477 -1.4780126 -1.786473 8
-0.99780172 -1.1490816 0.51880789 9
-2.8630464 -1.3885934 -0.59068763 9
0.47866464 -0.85805202 1.5963171 9
1.6363417 -0.39815915 5.1038866 9
-1.1341249 -1.1659639 0.51340187 9
-1.2569873 -1.079612 1.5779014 9
-1.4123096 -1.2794809 -5.0615606 9
-7.5666356 -1.5619087 1.1079438 9
-2.697701 -1.4168041 -2.4017198 9
-2.6755679 -1.4155252 -2.7033453 9
-4.4008141 -1.3561786 1.3551922 9
-2.057879 -1.1660591 1.520539 9
-1.8537847 -1.1454263 1.5347304 9
-3.7536407 -1.3092202 1.4074199 9
-1.001641 -1.1017873 0.5210892 10
-2.8571286 -1.3355042 -0.59394228 10
0.46016204 -0.75491959 1.5825644 10
-1.2651737 -0.9957853 1.590064 10
-1.138146 -1.1199745 0.51645315 10
-1.4293588 -1.1261518 -5.0932732 10
-7.5894904 -1.3361953 1.0978916 10
-4.8690677 -1.246375 1.311247 10
-2.6907415 -1.3336568 -2.6554344 10
-2.817415 -1.3498821 -0.97077501 10
-2.6652377 -1.320962 -3.0190408 10
-2.8054948 -1.3537344 -1.1414344 10
-2.9585056 -1.1524708 1.450062 10
-1.0100051 -1.0572054 0.50678539 11
-2.8635647 -1.2826749 -0.59613812 11
0.44838119 -0.64952588 1.5775607 11
-1.2742534 -0.91405588 1.5803769 11
-1.1415502 -1.0725796 0.52365828 11
-1.4462371 -0.9717657 -5.1039324 11
-7.6183972 -1.1090178 1.089499 11
-2.818397 -1.3010589 -1.3561438 11
-2.7801127 -1.2997688 -1.4889143 11
-4.9833131 -1.1055123 1.2945461 11
-2.6749015 -1.2277839 -3.0222805 11
-1.7428939 -0.9641822 1.5664794 11
-3.7709599 -1.0850221 1.3918524 11
-1.0144019 -1.0096437 0.50722146 12
-2.8775396 -1.2289374 -0.59774309 12
0.44004643 -0.54176509 1.5771575 12
-1.2831645 -0.83067727 1.5773942 12
-1.1478207 -1.0279481 0.51362801 12
-1.4636481 -0.81421721 -5.1286221 12
-7.645473 -0.87970549 1.0804131 12
-2.8040566 -1.2399498 -1.5546184 12
-2.817807 -1.2470037 -1.2138984 12
-3.5353999 -0.97149181 1.3988361 12
-2.7100677 -1.1671249 -2.6644745 12
-2.8520069 -1.2384269 -0.76745933 12
-4.4346805 -0.96838129 1.3333528 12
-1.880163 -0.89879179 1.5239875 12
-2.9798923 -0.96125585 1.4431436 12
-1.016484 -0.95887423 0.51674151 13
-2.8873746 -1.1744031 -0.59973967 13
0.4334619 -0.43151152 1.5792112 13
-1.153879 -0.98305649 0.50490284 13
-1.4805605 -0.65778339 -5.1254816 13
-7.6540451 -0.64964378 1.0658636 13
-2.8165412 -1.1937728 -1.1464701 13
-2.8025091 -1.1910027 -1.3247199 13
-2.7295501 -1.1109948 -2.4132934 13
-5.0165329 -0.81131721 1.2829149 13
-2.8553534 -1.1870034 -0.81152719 13
-2.8377533 -1.1920953 -0.97811407 13
-4.2095966 -0.84543943 1.3472803 13
-1.0253298 -0.91458309 0.50067163 14
-2.8897681 -1.1197808 -0.60237062 14
0.41212654 -0.32727587 1.5619652 14
-1.1607711 -0.93962288 0.49080741 14
-1.4987011 -0.49405015 -5.1544895 14
-7.6818008 -0.41495126 1.0565779 14
-2.8350954 -1.1388224 -1.0863217 14
-2.8580506 -1.1321319 -0.77184868 14
-2.7375345 -1.0325372 -2.416028 14
-2.8260002 -1.1315212 -1.3587226 14
-2.7776999 -1.1035208 -1.7957768 14
-2.7232418 -0.98934162 -2.7239397 14
-5.036819 -0.66069978 1.2788088 14
-4.468224 -0.70225358 1.3254058 14
-1.0301909 -0.86511517 0.50012648 15
-2.8954353 -1.0640092 -0.60478407 15
1.4847013 1.0244162 5.0460234 15
-1.1648054 -0.88995326 0.49579704 15
-7.7131901 -0.17569232 1.0480158 15
-2.738483 -0.90959883 -2.6763105 15
-2.8784833 -1.0767432 -0.81690204 15
-2.8271656 -1.0741558 -1.3589767 15
-4.9399943 -0.52131152 1.2762811 15
-2.9208822 -0.66849679 1.4361658 15
-2.8234482 -1.0590323 -1.5623013 15
-3.5761108 -0.63940072 1.3897853 15
-4.2417164 -0.58839405 1.3397162 15
-1.0197479 -1.2891648 0.54660583 6
-2.8496528 -1.5602212 -0.57873082 6
-1.1592753 -1.3030376 0.54479873 6
-1.0259761 -1.2472336 0.53903592 7
-2.8461447 -1.505935 -0.58107704 7
-3.0241132 -1.4559247 1.4664141 7
-1.1649001 -1.2622576 0.53595316 7
-1.2872107 -1.2482238 1.6054415 7
-2.6680958 -1.5999948 -2.7630219 7
-2.793088 -1.5269468 -1.1656494 7
-2.7225003 -1.5647535 -2.0323334 7
-2.7435145 -1.5536869 -1.78681 7
-2.8115211 -1.5215017 -1.0093098 7
-2.8029046 -1.5361116 -1.3199004 7
-1.7621905 -1.4918605 -5.8415952 8
-1.030709 -1.2052763 0.53686488 8
-2.8548825 -1.4535244 -0.58332241 8
0.29920292 -0.96704125 1.8981146 8
-1.2956614 -1.1706198 1.606733 8
-1.4436553 -1.436996 -5.0656552 8
-1.1548799 -1.2206707 0.51990199 8
-2.7120085 -1.5002092 -2.2863054 8
-4.2679038 -1.4908684 1.35051 8
-2.7318051 -1.4947054 -2.0368595 8
-2.6950066 -1.5074425 -2.5957747 8
-1.6679995 -1.2149589 1.5546273 8
-2.7703505 -1.4828486 -1.5486914 8
-3.7733436 -1.4403816 1.3928123 8
-3.212631 -1.3826216 1.4344707 8
-2.1888239 -1.2717605 1.5386721 8
-1.0358633 -1.1634945 0.53311276 9
-2.8711066 -1.4012851 -0.58554983 9
0.28439033 -0.86246222 1.8886138 9
0.59145355 -0.8443979 1.5852693 9
-1.1736958 -1.1804711 0.53395236 9
-1.3042995 -1.0933951 1.5998951 9
-1.4613543 -1.2805489 -5.0778089 9
-7.6170821 -1.5958433 1.0702028 9
-2.8216915 -1.4133817 -0.99089384 9
-2.7798767 -1.4214548 -1.4667938 9
-4.7191463 -1.4003872 1.3078858 9
-2.7610557 -1.4238538 -1.7605933 9
-2.1978927 -1.191399 1.5356277 9
-2.8167956 -1.4213399 -1.3253598 9
-1.0402379 -1.1212084 0.53234947 10
-2.8825159 -1.3480161 -0.58782905 10
0.27726221 -0.7644453 1.812739 10
0.58844614 -0.73807156 1.5904876 10
-1.3129873 -1.0165772 1.589697 10
-1.1639093 -1.139729 0.51590765 10
-1.4792697 -1.1230044 -5.0934105 10
-7.6385646 -1.3696494 1.0595108 10
-2.8372402 -1.3568732 -0.86328131 10
-2.7156096 -1.3408998 -2.4870524 10
-2.828053 -1.3597804 -0.99329758 10
-4.8425474 -1.2693943 1.2987351 10
-1.6841105 -1.0625168 1.5427815 10
-2.7964659 -1.362785 -1.4754517 10
-1.0443478 -1.0783517 0.5327425 11
-2.8775632 -1.2942257 -0.59015608 11
0.26147735 -0.66189909 1.8017191 11
0.56974947 -0.63567126 1.577684 11
-1.183913 -1.0996373 0.52232325 11
-1.3215021 -0.93675035 1.5973576 11
-1.4320083 -0.96141469 -5.0502024 11
-7.6750035 -1.1419368 1.0526327 11
-2.7863646 -1.3010881 -1.5535948 11
-2.7037969 -1.2408993 -2.7711306 11
-4.4767542 -1.1251783 1.3212643 11
-2.7433548 -1.2695028 -2.302999 11
-2.779186 -1.2943794 -1.7691623 11
-2.0484214 -1.0157182 1.5404533 11
-3.29336 -1.0949347 1.4162529 11
-3.8069472 -1.1111346 1.3762202 11
-1.0507559 -1.0370648 0.52429616 12
-2.87571 -1.240595 -0.5924716 12
0.25370133 -0.55520666 1.8029562 12
0.5630337 -0.52822834 1.5788082 12
-1.1885107 -1.0583301 0.52032995 12
-1.3303231 -0.86065078 1.5796281 12
-1.4504744 -0.80014777 -5.0856609 12
-7.6836905 -0.91322148 1.0384024 12
-2.7914252 -1.2399143 -1.5550241 12
-2.7305274 -1.1655955 -2.6063766 12
-4.4884501 -0.99617565 1.3140745 12
-2.7592044 -1.2017092 -2.1733413 12
-3.3041861 -0.99599296 1.4118255 12
-1.0545034 -0.99286258 0.52647173 13
-2.8858597 -1.185944 -0.59481233 13
0.23315215 -0.43721449 1.8636109 13
0.54927897 -0.42227888 1.5718702 13
-1.1764014 -1.0140495 0.51856124 13
-1.3390976 -0.78060913 1.5788878 13
-1.3411659 -0.63669819 -5.0150003 13
-7.7142243 -0.68103552 1.0296522 13
-2.7127628 -1.033134 -2.9785428 13
-2.8823714 -1.1937311 -0.89738977 13
-4.3303266 -0.87274563 1.3197689 13
-2.7451224 -1.0911497 -2.4999089 13
-1.7102926 -0.82897341 1.5350159 13
-3.7035809 -0.89077306 1.3746096 13
-3.0758734 -0.89564359 1.4295906 13
-1.0603535 -0.9503203 0.52048242 14
-2.9028666 -1.1294721 -0.59722102 14
0.22707713 -0.3429774 1.7890278 14
0.53713238 -0.31416976 1.566919 14
-1.3480253 -0.69791919 1.5830048 14
-1.1799376 -0.96913147 0.5248909 14
-1.3592918 -0.47155428 -5.0480661 14
-7.7427368 -0.44565779 1.0201416 14
-2.8968959 -1.1366324 -0.90146214 14
-2.7252164 -0.93361682 -2.985136 14
-4.8935814 -0.70620501 1.2682079 14
-2.7641201 -1.0331286 -2.306124 14
-3.7138 -0.78056353 1.3681209 14
-3.2738962 -0.79645312 1.4050981 14
-1.6273137 -0.73750168 1.546187 14
-1.9110421 -0.17185593 -5.9076061 15
-1.065873 -0.90683615 0.51601779 15
-1.3570428 -0.61913252 1.5687429 15
-7.7540345 -0.20931876 1.0060457 15
-2.8460493 -1.0782239 -1.1860406 15
-2.799572 -1.0242379 -1.8068309 15
-2.7785926 -0.97294396 -2.1761308 15
-2.8535671 -1.0840617 -1.0261251 15
-4.8026795 -0.57244378 1.2674776 15
-2.8672333 -1.0847435 -0.87489486 15
-3.7237492 -0.66887152 1.3611927 15
-1.6350807 -0.65910912 1.5338105 15
-2.084208 -0.68859112 1.5249022 15
-1.0467982 -1.3300704 0.56270242 5
-1.1714842 -1.3412454 0.54805708 5
-1.0527105 -1.2923549 0.55455995 6
-2.8483915 -1.5726048 -0.57796848 6
-1.1759883 -1.3048599 0.54354405 6
-2.8195543 -1.5834968 -0.86280012 6
-1.0549057 -1.2544622 0.56101209 7
-2.8557577 -1.5183781 -0.58046317 7
-2.6890502 -1.6103373 -2.6352589 7
-1.1818591 -1.2692409 0.52854913 7
-3.1462612 -1.4803183 1.4435453 7
-2.7984967 -1.546221 -1.2792828 7
-1.5374717 -1.2815813 1.6018121 7
-2.3204646 -1.3765488 1.5060053 7
-2.8314793 -1.5213095 -0.70903635 7
-2.7987468 -1.5378053 -1.1203126 7
-2.8122988 -1.530977 -0.95436734 7
-2.783421 -1.5567229 -1.5067956 7
-1.0598358 -1.2170067 0.55660212 8
-2.8716631 -1.4649779 -0.58368975 8
1.8934661 -0.80991387 1.2137368 8
0.24135029 -0.98158395 1.8780167 8
0.57626712 -0.95338607 1.6473358 8
-1.183637 -1.2322801 0.54420948 8
-1.3408853 -1.1848043 1.6160247 8
-1.7605503 -1.5052787 -5.8034344 8
-1.5009706 -1.4570943 -5.0870285 8
1.4508353 -0.65220028 4.9859219 8
-2.7600222 -1.4912546 -1.551157 8
-2.684633 -1.5192446 -2.6857691 8
-1.6037056 -1.2157766 1.5910597 8
-2.7224636 -1.508427 -2.1988404 8
-3.9520674 -1.4716539 1.3655732 8
-2.8292439 -1.4727423 -0.86688864 8
-3.0596495 -1.3782961 1.442852 8
-2.802974 -1.3509562 1.4635649 8
-1.0661494 -1.1804267 0.54644126 9
-2.8671947 -1.4095228 -0.58517277 9
1.8856469 -0.68076366 1.2117305 9
0.22902405 -0.87588018 1.9474554 9
0.56861305 -0.85219288 1.6471233 9
-1.1888913 -1.1970044 0.53341061 9
-1.3490548 -1.1121271 1.6083217 9
-1.5191214 -1.2948716 -5.0893736 9
-7.6811004 -1.6214046 0.99145561 9
1.4249488 -0.43834811 4.9731312 9
-2.816433 -1.4189212 -0.95640796 9
-4.8165112 -1.4228718 1.2856624 9
-3.8888121 -1.3546317 1.3618743 9
-2.7484884 -1.4292229 -1.9017606 9
-2.841702 -1.4128239 -0.71345311 9
-1.6091069 -1.144603 1.5682425 9
-2.7126737 -1.4285339 -2.5163326 9
-3.4654675 -1.321256 1.4014006 9
-1.070688 -1.1431603 0.54348785 10
-2.8702743 -1.354831 -0.58730167 10
1.8630885 -0.55409408 1.2018127 10
0.21200907 -0.77591604 1.9342284 10
0.56359851 -0.74943233 1.6499903 10
-1.2063408 -1.1611487 0.54287815 10
-1.3573828 -1.0383828 1.6091986 10
-1.4699236 -1.1270665 -5.0442286 10
-7.710022 -1.3939075 0.98219162 10
-2.714201 -1.3423194 -2.4466283 10
-1.8482368 -1.0985736 1.5358846 10
-1.6216363 -1.0687939 1.594918 10
-3.4685993 -1.2224051 1.3901145 10
-2.8130488 -1.3656906 -1.2839651 10
-2.8066914 -1.3647572 -1.5163765 10
-2.4471569 -1.1534626 1.4846478 10
-4.0460143 -1.2515335 1.3475058 10
-2.7461495 -1.3536005 -2.0677104 10
-2.7645817 -1.359058 -1.8325813 10
-2.0297589 -1.1159019 1.5265155 10
-1.0735337 -1.1043223 0.54777312 11
-2.8857772 -1.2999427 -0.59054267 11
1.8581032 -0.42237842 1.2013619 11
0.19897687 -0.67440355 1.9273465 11
0.5438149 -0.65054595 1.6360283 11
-1.3655627 -0.9655571 1.6000466 11
-1.19717 -1.1247466 0.52926612 11
-7.7296491 -1.1649997 0.97074991 11
-2.3503575 -1.0681095 1.4829812 11
-2.7199626 -1.2413137 -2.7042727 11
-1.9466083 -1.0333748 1.5286341 11
-4.06599 -1.1365393 1.3471231 11
-1.0795547 -1.0678625 0.53870738 12
-2.8870692 -1.2445201 -0.59253752 12
1.8443214 -0.29153204 1.1961999 12
0.19006455 -0.57016146 1.9271779 12
0.53313887 -0.54794967 1.6325531 12
-1.2024627 -1.0903647 0.51749963 12
-1.5076642 -0.79996073 -5.0789208 12
-7.7685456 -0.93345439 0.96343964 12
1.343599 0.20664895 4.9282122 12
-2.459744 -0.99580508 1.4686003 12
-2.834538 -1.24977 -1.0595191 12
-4.858747 -1.0114373 1.2655399 12
-2.7575092 -1.1899625 -2.2116814 12
-3.9266596 -1.0225832 1.3475935 12
-2.7816455 -1.2170454 -1.839798 12
-2.7327933 -1.1531115 -2.6429718 12
-3.1892018 -1.0182544 1.4138739 12
-1.8654094 -0.9511255 1.5316489 12
-2.054553 -0.96223789 1.5415401 12
-1.0823946 -1.0277368 0.54352552 13
-2.8975062 -1.1881353 -0.59537864 13
1.8294145 -0.15950644 1.1904569 13
0.1747421 -0.48394394 1.8405778 13
-1.3823769 -0.81633103 1.5932744 13
-1.2060236 -1.0524127 0.52102023 13
-1.3949208 -0.62848413 -5.0284467 13
-7.7879682 -0.70028335 0.95165664 13
-2.8383203 -1.1892816 -1.1357419 13
-4.8703742 -0.87224591 1.2574143 13
-2.7502866 -1.0808582 -2.4674158 13
-1.9619094 -0.88456106 1.5171676 13
-2.4746199 -0.91339934 1.4748449 13
-2.7846489 -1.138184 -1.9178636 13
-3.1067266 -0.92405498 1.4184396 13
-4.3232455 -0.89537287 1.3141322 13
-1.0858822 -0.98733789 0.5459215 14
-2.9093342 -1.1305482 -0.59838402 14
1.7993556 -0.022413611 1.2362754 14
0.16652846 -0.36015302 1.9182258 14
0.5064739 -0.34137011 1.6197777 14
-1.414055 -0.46022952 -5.0492182 14
-7.8120384 -0.46386147 0.94069058 14
-2.8003731 -1.1011752 -1.5654974 14
-5.109344 -0.7128225 1.2311623 14
-2.7405334 -0.92435765 -2.9207036 14
-2.7577777 -0.98338336 -2.5282567 14
-4.3276601 -0.77184922 1.3029492 14
-2.7798386 -1.044293 -2.0798867 14
-2.857213 -0.83469021 1.4358163 14
-1.6499026 -0.77769834 1.5480564 14
-3.1174741 -0.83036005 1.4145334 14
-2.9113946 -1.0731072 -0.60051548 15
1.7847663 0.11438608 1.2307961 15
-1.227755 -0.97494113 0.53125274 15
-7.8406882 -0.22309494 0.93044752 15
1.272246 0.87966764 4.907557 15
-1.9154649 -0.15578902 -5.8855362 15
-2.8603354 -1.071511 -1.0696437 15
-2.0783734 -0.729976 1.5245204 15
-5.1294532 -0.56149411 1.2259207 15
-2.7680364 -0.89103782 -2.5320528 15
-4.0312963 -0.6742202 1.3232548 15
-2.7547324 -0.81934005 -2.9294367 15
-1.6039623 -0.68817306 1.5722227 15
-3.534193 -0.71189427 1.3746934 15
-2.7882369 -0.94180942 -2.2258909 15
-1.0512347 -1.326346 0.57559544 5
-1.1854341 -1.3391705 0.56566012 5
-1.0553739 -1.293097 0.57268608 6
-1.1894743 -1.307125 0.56020951 6
-1.0574542 -1.2596281 0.57836628 7
-2.8707886 -1.5295023 -0.55478573 7
-1.1924233 -1.2750745 0.56602097 7
-1.3424826 -1.2651359 1.629209 7
-2.7045641 -1.6064157 -2.4101567 7
-2.3092508 -1.38345 1.5208058 7
-1.7018473 -1.3076373 1.6086304 7
-2.7534482 -1.5715744 -1.6779041 7
-1.0629697 -1.2269657 0.56953061 8
-2.8762856 -1.4725972 -0.55705261 8
2.0630226 -0.84997696 0.039793134 8
-7.4540567 -1.9309317 -0.97527456 8
0.2220813 -0.99385053 1.8564329 8
0.52261841 -0.96614307 1.681298 8
-1.1973131 -1.2440655 0.5506357 8
-1.350414 -1.1963034 1.6295316 8
1.4082609 -0.65603489 5.1458883 8
-1.4526491 -1.4438869 -4.9786992 8
-2.7331438 -1.5146948 -2.2585711 8
-3.7342277 -1.4615488 1.3966095 8
-4.2545676 -1.5154763 1.3540391 8
-2.8173716 -1.3645765 1.4706798 8
-2.7648554 -1.4998988 -1.6455323 8
-3.3809505 -1.4243795 1.4283769 8
-2.8548746 -1.4795854 -0.78775656 8
-2.7482047 -1.506469 -1.9197 8
-2.4550853 -1.3243572 1.5136904 8
-2.082092 -1.2814879 1.5661509 8
-2.8236413 -1.4816713 -0.92525518 8
-1.0687057 -1.1949407 0.5595113 9
-2.8794968 -1.4155389 -0.55897635 9
2.0560594 -0.73066711 0.035444856 9
0.20758319 -0.89524734 1.915848 9
-7.4773278 -1.7138171 -0.98434091 9
0.50632107 -0.87204802 1.6709548 9
-1.3589892 -1.1258088 1.6446139 9
-1.2003225 -1.2117914 0.55607611 9
1.3681091 -0.44740045 5.1039581 9
-1.4710866 -1.280982 -4.9821877 9
-7.5745778 -1.6264114 1.0612776 9
-2.746686 -1.4296497 -2.2671978 9
-4.7454767 -1.4310795 1.3100039 9
-2.7015529 -1.4247775 -2.8108177 9
-3.2811384 -1.3203553 1.4287747 9
-2.819627 -1.4246191 -1.0262475 9
-2.7665682 -1.4298822 -1.7605442 9
-2.826756 -1.4282157 -1.19515 9
-1.0736361 -1.1628813 0.55283064 10
-2.8757834 -1.358284 -0.55985218 10
2.0466967 -0.61094546 0.03077364 10
0.19224358 -0.80102712 1.9048491 10
-7.5094695 -1.4962757 -0.99438882 10
0.49335408 -0.77719641 1.6644003 10
-1.2046267 -1.1810536 0.5464263 10
-1.3662071 -1.0580891 1.6257367 10
-1.4906954 -1.1168147 -5.0080271 10
-7.6007261 -1.40157 1.0518098 10
1.3600875 -0.25117278 4.9348292 10
-2.7524061 -1.3436587 -2.2654643 10
-2.6987638 -1.3178775 -2.9590023 10
-2.7601411 -1.3528354 -1.9201853 10
-2.8357692 -1.199273 1.4631007 10
-3.2927384 -1.2273428 1.4256763 10
-3.9602294 -1.2623219 1.3667409 10
-1.7245617 -1.0996588 1.5953043 10
-2.8377562 -1.3644556 -0.93052 10
-1.0765792 -1.1292608 0.55501473 11
-2.8897018 -1.3013349 -0.56340057 11
2.0242119 -0.49340069 0.024464369 11
0.16913331 -0.71000612 1.8818216 11
-7.530973 -1.2769378 -1.003329 11
-1.2087128 -1.1503094 0.53903037 11
-1.3745823 -0.98699111 1.6320065 11
-1.5107577 -0.95005929 -5.0374126 11
-7.7470961 -1.1791991 0.97422218 11
-2.7052813 -1.2125729 -2.9533079 11
-2.8036089 -1.2975475 -1.3888661 11
-2.7444606 -1.2478313 -2.4238391 11
-2.8789835 -1.3049895 -0.79642218 11
-2.5430541 -1.1000947 1.4861124 11
-3.1534266 -1.1287007 1.433301 11
-2.1076884 -1.0644903 1.5589529 11
-4.2975755 -1.1564287 1.3398731 11
-2.7898417 -1.2881486 -1.6552221 11
-2.8516028 -1.1151959 1.4667795 11
-2.8468118 -1.3053359 -0.93393588 11
-1.0776566 -1.0930307 0.56600982 12
-2.8876262 -1.2439973 -0.56452745 12
-2.8710995 -1.2461318 -0.67638856 12
-2.8696249 -1.2464895 -0.74635255 12
2.0041656 -0.37476665 0.018440247 12
0.16674805 -0.6098175 1.8909538 12
-7.5740452 -1.0551027 -1.0147018 12
0.47648251 -0.58238018 1.6618555 12
-1.3818233 -0.91937178 1.61428 12
-1.1848211 -1.110074 0.56029469 12
1.2922674 0.19543719 5.0706639 12
-1.3300215 -0.76784128 -4.9823813 12
-7.7768111 -0.94716549 0.96499467 12
-4.7720485 -1.0286672 1.2838076 12
-2.7514977 -1.1571913 -2.4229305 12
-2.7328918 -1.1204387 -2.8178132 12
-3.9864168 -1.0392001 1.3576934 12
-2.8084216 -1.2264669 -1.4882206 12
-2.7903204 -1.2065195 -1.8096271 12
-2.7726202 -1.1837025 -2.1123867 12
-1.0835665 -1.0614303 0.55509168 13
-2.8961997 -1.1863186 -0.61321062 13
-2.8914199 -1.1869259 -0.68194681 13
-2.8861809 -1.1870053 -0.75150442 13
1.9902636 -0.25325263 0.013128877 13
0.15823829 -0.51066196 1.8907943 13
-7.5809612 -0.8322897 -1.0221493 13
0.46604693 -0.48390132 1.6584356 13
-1.3900015 -0.84808534 1.6133884 13
-1.1885854 -1.0768833 0.55895597 13
-1.3495097 -0.59777892 -5.011168 13
-7.7926664 -0.71360606 0.95287526 13
-4.6793518 -0.89778388 1.285594 13
-2.793169 -1.1312907 -1.8071429 13
-2.8114877 -1.1581078 -1.4874904 13
-2.8612618 -1.1739626 -1.2090299 13
-2.7729225 -1.0840219 -2.2644854 13
-2.8493772 -1.1825951 -1.0374932 13
-2.3595347 -0.93554544 1.5003244 13
-3.174741 -0.94601071 1.4259651 13
-2.5652347 -0.94135714 1.4853481 13
-1.0876743 -1.0274674 0.5526166 14
-2.9159083 -1.1257417 -0.61809701 14
-2.9004765 -1.1271867 -0.68498707 14
-2.8881083 -1.1276274 -0.75272322 14
1.9736654 -0.13099086 0.0074466467 14
0.1450398 -0.41263556 1.8834796 14
-7.6166139 -0.60459155 -1.0328882 14
0.44124103 -0.39155793 1.6384281 14
-1.3984549 -0.77502823 1.6148266 14
-7.8108335 -0.47737408 0.94104505 14
1.2636129 0.60148191 4.8988838 14
-1.7757394 -0.3155216 -5.8441548 14
-2.8450291 -1.1216935 -1.0348949 14
-2.834507 -1.09574 -1.4029348 14
-2.7904272 -1.0159503 -2.1178718 14
-4.7030106 -0.76152694 1.2837219 14
-1.7569678 -0.81543857 1.583347 14
-4.0170002 -0.81026065 1.3507593 14
-2.8153031 -1.0664129 -1.7031091 14
-2.9249558 -1.0648406 -0.62106425 15
-2.8951116 -1.0684428 -0.68477559 15
-2.8910112 -1.0675082 -0.75421309 15
0.15576446 -0.31580019 1.8427076 15
1.9467057 -0.011002421 0.00048732758 15
-7.6428046 -0.37395501 -1.0426791 15
-1.4054852 -0.7079128 1.5921001 15
-1.8002077 -0.10949218 -5.8656378 15
1.2113458 0.85637367 5.0305343 15
-7.7041698 -0.24948156 0.99669611 15
-4.710875 -0.62560719 1.2742226 15
-2.8629346 -1.0441883 -1.2071185 15
-2.5121698 -0.78005224 1.4826943 15
-3.8160977 -0.71312088 1.3622659 15
-3.4560084 -0.74109364 1.3968562 15
-2.8191524 -0.98085415 -1.7808363 15
-2.8683937 -1.5391402 -0.55688655 7
0.53915572 -1.0691898 1.6888521 7
-1.3419698 -1.2746004 1.6330293 7
-4.2100306 -1.6422729 1.3868277 7
-3.2074459 -1.5098419 1.4604338 7
-2.8709149 -1.4798915 -0.55835181 8
2.215946 -0.88267219 -1.1008528 8
0.21083713 -1.0037692 1.9420209 8
-1.3503106 -1.2092106 1.6460793 8
-1.283599 -1.4219249 -4.9216604 8
-4.5723991 -1.561536 1.3343695 8
-2.7638192 -1.3715998 1.4896569 8
-2.8384807 -1.4881632 -0.87662327 8
-2.8286042 -1.4926302 -1.0383775 8
-4.0391808 -1.5060796 1.3862007 8
-3.6144056 -1.4617481 1.4226128 8
-2.7167253 -1.5265391 -2.6338148 8
1.7399218 -0.79579282 2.1959448 8
-3.2201843 -1.4200388 1.4587867 8
-2.8884377 -1.4219192 -0.56313378 9
2.1974792 -0.75884163 -1.1050079 9
0.55337632 -0.32394934 7.8943443 9
0.19520903 -0.91365278 1.9304535 9
0.52642703 -0.88429117 1.690243 9
-1.3571959 -1.1448021 1.6342993 9
-1.3025521 -1.2570379 -4.9292598 9
-7.7116051 -1.650089 1.0476568 9
1.3758056 -0.47163463 5.0808702 9
-4.5915146 -1.4337413 1.3311656 9
-2.8456216 -1.4270544 -0.87916577 9
-2.7204971 -1.4255912 -2.7040429 9
-2.8040967 -1.4321387 -1.4730343 9
-3.6240063 -1.3613652 1.4172063 9
-2.5508626 -1.2720125 1.5098764 9
-2.776608 -1.2920729 1.4904587 9
1.9080205 -0.71038222 1.0359913 9
-2.8984632 -1.3627044 -0.5662666 10
2.1748509 -0.63567388 -1.1081448 10
0.51947379 -0.032899976 7.8798704 10
0.19297838 -0.81931776 1.9391918 10
0.51085365 -0.79346919 1.6809235 10
-1.3649987 -1.0790677 1.6366515 10
-1.3218319 -1.0909691 -4.9482632 10
-7.7295446 -1.4200532 1.0366535 10
1.3549161 -0.26230013 5.0782847 10
-2.8523951 -1.3658564 -0.90845245 10
-2.7433453 -1.3312497 -2.5001364 10
-3.5121789 -1.254443 1.4236617 10
2.0743613 -0.62731695 -0.20809339 10
-2.7922089 -1.35445 -1.7810129 10
-2.5610704 -1.1963736 1.5087962 10
-2.8158598 -1.3612581 -1.4788527 10
-2.7779708 -1.3468192 -2.0574093 10
-2.9117067 -1.3028892 -0.57012451 11
2.1757183 -0.50685877 -1.1171581 11
0.48861217 0.2626878 7.8804712 11
0.18288362 -0.726484 1.9361353 11
0.50189805 -0.70030862 1.6788964 11
-1.3730212 -1.0122885 1.6408181 11
-1.3413359 -0.92299891 -4.9676795 11
-7.7584801 -1.189011 1.0276718 11
-4.232388 -1.1710941 1.3509378 11
-2.71014 -1.1287632 1.4835163 11
-2.7432683 -1.2206563 -2.7110906 11
-3.5241528 -1.1564645 1.4201792 11
1.7847741 -0.44193935 1.534157 11
-2.9242141 -1.2421327 -0.57383311 12
2.1586959 -0.38063461 -1.1218141 12
0.45256948 0.556458 7.8580465 12
0.16502225 -0.63643956 1.9212639 12
-7.5751953 -1.0594438 -1.0648272 12
0.48999226 -0.60732079 1.6736902 12
-1.360931 -0.75337172 -4.9813275 12
-2.7647157 -1.1368661 -2.5065842 12
-3.7830586 -1.0574746 1.3875755 12
-2.7913623 -1.1765261 -2.0569224 12
-4.2538681 -1.051717 1.3501338 12
1.3231573 0.13315642 4.9054828 12
-2.7253289 -1.0485177 1.4872438 12
-2.9262264 -1.1810818 -0.57521158 13
2.1394055 -0.25384915 -1.1259788 13
0.41984224 0.85747397 7.8530951 13
0.15847158 -0.54011512 1.9238815 13
-7.6072831 -0.83270621 -1.0748997 13
0.46899438 -0.51756966 1.6584611 13
-1.3810601 -0.58022547 -5.002768 13
-2.7700772 -1.0116851 -2.7242739 13
-3.8016806 -0.9499979 1.3871871 13
-2.837543 -1.1447315 -1.4850888 13
-2.8762031 -1.1776394 -0.91708928 13
-1.8352003 -0.92671204 1.5883645 13
-3.2685082 -0.96432507 1.4368382 13
1.7531679 -0.18754125 1.5221481 13
-2.9192719 -1.1205487 -0.5745877 14
2.1280193 -0.12283802 -1.132279 14
0.38193369 1.1560656 7.8248348 14
0.14266014 -0.44754606 1.9123561 14
-7.6328487 -0.60319525 -1.0841582 14
0.46794212 -0.41727841 1.6654973 14
-7.8394561 -0.48140252 0.99871528 14
-2.822067 -1.0380566 -1.7873102 14
-2.8874185 -1.1142826 -0.89440501 14
-4.1099596 -0.822133 1.353905 14
-2.821413 -0.88571644 1.4718206 14
1.2711174 0.55133808 4.8802519 14
-2.8792033 -1.1055744 -1.0573853 14
-2.5978632 -0.88696992 1.4978433 14
2.0139174 -0.14859188 -0.22814964 14
-2.7875524 -0.9159528 -2.65976 14
-1.84434 -0.85665196 1.5891426 14
1.8425004 -0.0970577 1.0124106 14
-2.9347367 -1.0567725 -0.57900041 15
2.117697 0.011076212 -1.1390266 15
0.35168409 1.4725121 7.8374357 15
0.13175595 -0.35061806 1.908628 15
-7.6543145 -0.37066615 -1.0929358 15
0.45877361 -0.31885695 1.6636701 15
-7.860723 -0.23969483 0.98761225 15
-3.2856545 -0.7761029 1.4254293 15
-3.8274491 -0.73144388 1.378686 15
-2.7985883 -0.81020361 -2.6622612 15
1.6334386 0.17304623 2.1593328 15
0.22344637 -1.1097002 1.9414616 7
0.57189822 -1.0783525 1.7028961 7
-2.1095557 -1.3869133 1.553856 7
0.21980822 -1.0215147 1.9478359 8
0.19878638 -0.71412611 7.8363395 8
2.4143205 -0.89537227 -2.233978 8
0.55166304 -0.9919678 1.6889803 8
-2.818584 -1.4858426 -0.77967638 8
-2.0858364 -1.316651 1.5495651 8
-2.7899618 -1.4981204 -1.3988782 8
-2.7221532 -1.5250332 -3.2155457 8
-2.7748439 -1.5042621 -1.7617029 8
2.0562353 -0.87295914 -0.1583924 8
-2.8242788 -1.4909997 -0.95420146 8
-3.2106776 -1.4380354 1.4797201 8
2.4052119 -0.74900293 -2.2439919 9
0.2113626 -0.933676 1.9470909 9
0.169155 -0.43118513 7.8429379 9
0.53670692 -0.90529746 1.6805975 9
-1.412342 -1.2335863 -4.9630771 9
-2.4449844 -1.2824835 1.5284431 9
2.0363626 -0.76061177 -0.16266999 9
-2.8208547 -1.4247506 -1.0731667 9
-2.8046844 -1.4247576 -1.4061266 9
-2.2007647 -1.2579849 1.5705705 9
-2.7876966 -1.4226557 -1.7678053 9
1.8670038 -0.72841841 1.116589 9
2.3846097 -0.60370731 -2.2474124 10
0.19489658 -0.84796107 1.9342544 10
0.13480842 -0.14998388 7.8221207 10
0.53897405 -0.81388807 1.6905932 10
1.3597382 -0.28965044 5.2053576 10
-1.4314262 -1.0641178 -4.9612355 10
-2.7458053 -1.2803564 -3.2148161 10
-2.7880487 -1.3339598 -1.9578309 10
-2.806047 -1.3475376 -1.5194483 10
-2.2088189 -1.1887027 1.5682163 10
-3.7377081 -1.2808179 1.4403008 10
-1.0204185 -1.184365 -1.2352998 11
-0.87338603 -1.1652492 -1.2298081 11
2.3562279 -0.4596616 -2.2463164 11
0.18431842 -0.76017857 1.9303613 11
0.10213768 0.1342268 7.8125052 11
0.53165364 -0.72383517 1.6904653 11
1.3364378 -0.080074549 5.199472 11
-1.4519655 -0.89251995 -4.9786839 11
-3.735054 -1.1758354 1.4278057 11
-2.8585992 -1.2834496 -1.2221335 11
-2.8063679 -1.2575094 -1.7728819 11
-2.8562999 -1.2938112 -0.7922973 11
-2.4658394 -1.135633 1.5282408 11
-2.790309 -1.0711861 -2.871259 12
-1.3528303 -0.97987479 1.6220992 12
-1.0247161 -1.1431048 -1.2425132 12
-0.87796569 -1.1240919 -1.2319144 12
2.3378158 -0.31249821 -2.2511656 12
0.18230546 -0.66763413 1.939712 12
0.07151258 0.42419827 7.8178325 12
0.52162445 -0.63372463 1.6875141 12
-1.4731187 -0.71806759 -5.0007796 12
-1.8054349 -1.021138 1.6043546 12
-1.3605473 -0.91593993 1.623564 13
-1.0295498 -1.1022482 -1.2422451 13
-0.8809216 -1.0807028 -1.2431617 13
2.3267817 -0.16136289 -2.2605872 13
0.16398013 -0.58169556 1.9241681 13
0.03494823 0.7093637 7.7870269 13
0.50268638 -0.5465436 1.675016 13
-1.4925874 -0.54442745 -4.9975209 13
-2.7441957 -0.98751652 1.5004388 13
-1.8148254 -0.95428693 1.6066649 13
-2.8568246 -1.1552316 -0.96235013 13
-2.8320053 -1.1141996 -1.5263736 13
-3.7621503 -0.96233416 1.4218616 13
-2.8257966 -1.0895256 -1.7784784 13
-2.8733239 -1.1375731 -1.2256339 13
-3.2573643 -0.97951901 1.4589758 13
-1.3688228 -0.84995854 1.6285236 14
-1.0337422 -1.058291 -1.2548774 14
-0.88641036 -1.0389912 -1.2412095 14
-2.9148431 -1.1005223 -0.56903619 14
2.313724 -0.0082989931 -2.269067 14
0.15679371 -0.48875797 1.9259543 14
0.0018447638 1.0044138 7.7815852 14
0.43950856 -0.47086465 1.6657161 14
1.2583638 0.55747247 5.166944 14
-3.7703109 -0.85433161 1.415532 14
-2.1373525 -0.90913689 1.5431243 14
-2.8762293 -1.0953795 -0.79777646 14
-2.8335054 -0.97814792 -1.9744408 14
-2.826359 -0.72314286 -2.8757906 15
-1.3774989 -0.78187871 1.6351697 15
-1.0388491 -1.0164542 -1.2525896 15
-0.89133704 -0.99592137 -1.2427659 15
-2.9124265 -1.0352786 -0.56866229 15
2.3037953 0.14904571 -2.2797551 15
0.14507818 -0.39684772 1.9209368 15
-0.030768752 1.3071365 7.783566 15
0.43202388 -0.37735999 1.6658037 15
-2.762352 -0.82310224 1.4938197 15
-2.8734078 -1.0044479 -1.0894976 15
1.7847737 -0.013226509 1.089874 15
-1.3990109 -1.3075705 1.6580521 7
0.5647037 -1.0921324 1.6871649 7
-2.8884172 -1.5576067 -0.48366731 7
-3.2821434 -1.5467187 1.521804 7
-2.4034495 -1.4329257 1.5631771 7
-2.8479927 -1.5673925 -0.84538877 7
-1.4055912 -1.2487342 1.6550516 8
0.23059952 -1.0389383 1.9223959 8
1.3346794 -1.1130145 -5.6207013 8
2.3839834 -0.89841944 -2.2799215 8
3.999928 -0.78032488 -5.5365996 8
0.55630267 -1.0088153 1.6855712 8
-2.8965054 -1.49177 -0.48608553 8
1.4706135 -0.73302746 5.0257211 8
-2.1225963 -1.3304311 1.5839735 8
-2.4184966 -1.3621831 1.5688326 8
-2.7550547 -1.5339274 -2.8853934 8
-2.776289 -1.5267388 -2.4188938 8
-1.926295 -1.3085117 1.6041095 8
-3.163861 -1.4407786 1.5169328 8
-2.8212142 -1.5105895 -1.4723382 8
-2.8635702 -1.496532 -0.76000953 8
-1.4095869 -1.1907636 1.6387979 9
0.22570467 -0.95544291 1.9263965 9
-0.62981844 -0.56914502 7.7632947 9
1.3092895 -0.89923614 -5.6262479 9
2.381088 -0.75220031 -2.2935009 9
3.9607038 -0.51932329 -5.535686 9
0.55007267 -0.92477959 1.6862646 9
-2.8915813 -1.4249073 -0.48486674 9
-3.6116714 -1.3845154 1.4795069 9
-2.8458214 -1.4305878 -1.2098799 9
1.7522783 -0.70251 2.1999264 9
1.896121 -0.74923992 1.0110916 9
-1.4185505 -1.1310247 1.6479508 10
0.2155025 -0.87276566 1.9226055 10
-0.66164422 -0.29803872 7.7448988 10
1.2859948 -0.68425393 -5.6370797 10
2.3594484 -0.60801423 -2.2951667 10
3.9460263 -0.25318646 -5.5623937 10
0.53013146 -0.84391636 1.6726269 10
-2.902601 -1.3592433 -0.48810494 10
-2.8335364 -1.3492463 -1.4726319 10
-2.7649057 -1.2860128 -3.1644936 10
-1.9418913 -1.1821101 1.6018237 10
-2.8018074 -1.3181514 -2.4283371 10
-2.8198807 -1.2259471 -2.2335291 11
-1.4248701 -1.0719963 1.6434318 11
0.20668769 -0.7891019 1.9209541 11
2.3337317 -0.4643302 -2.294234 11
-0.69331932 -0.025045395 7.7317204 11
1.2615368 -0.46805602 -5.6455512 11
4.0607152 0.04123199 -5.5739269 11
-2.9022913 -1.2929577 -0.48817545 11
1.4002075 -0.13866651 5.0017161 11
-1.6487134 -1.0902538 1.6502632 11
-2.7709537 -1.1432619 -3.3784611 11
-3.1840272 -1.1719284 1.5000037 11
-2.8009114 -1.1922681 -2.7276525 11
-3.8758676 -1.1830641 1.4602839 11
-2.8636303 -1.2778902 -1.2526071 11
1.725364 -0.44572926 2.1933131 11
-2.8322418 -1.1252543 -2.2380517 12
-1.4338771 -1.0104308 1.6516324 12
0.19645476 -0.70522904 1.9172771 12
-0.72572827 0.24792624 7.7079787 12
2.3264217 -0.314852 -2.3054016 12
4.0236869 0.31057072 -5.5769358 12
1.327687 -0.23443556 -5.6476994 12
0.5203228 -0.67202723 1.6770557 12
-2.9171078 -1.2260871 -0.49247849 12
1.3578181 0.084566116 5.1400619 12
-2.8030195 -1.0612748 -2.8909614 12
-2.6327894 -1.0784918 1.5382004 12
-4.0606894 -1.0694721 1.4428413 12
-2.1249316 -1.0633941 1.5797583 12
-2.8587008 -1.1862657 -1.4837589 12
-1.6512179 -1.0305513 1.6347181 12
-2.8935597 -1.2216303 -0.76880878 12
-2.8751869 -1.2025279 -1.2199699 12
1.7120519 -0.315548 2.1902175 12
-2.8408384 -1.0239533 -2.2376087 13
-1.4406611 -0.94980979 1.6485637 13
-2.9422085 -1.1571851 -0.49966234 13
-0.75621939 0.53476572 7.7342 13
2.3134108 -0.16470802 -2.3130794 13
3.980154 0.57996941 -5.5730505 13
1.297493 -0.015503049 -5.6439786 13
0.51008821 -0.58628309 1.6737858 13
-1.6608877 -0.96701396 1.6398715 13
-2.8001182 -0.87395775 -3.3842204 13
-2.8728113 -1.1232061 -1.2518059 13
-4.0607853 -0.9539777 1.4324403 13
-2.459981 -1.0001657 1.556291 13
-1.4458745 -0.89032209 1.6378325 14
-2.9425292 -1.0888803 -0.49991417 14
2.2844634 -0.018088937 -2.3104408 14
-0.78940749 0.81422901 7.7097735 14
3.9673758 0.86514568 -5.6042819 14
-1.8889129 -0.23934293 -5.7882776 14
1.1780534 0.18873954 -5.6497178 14
0.49950957 -0.49950939 1.6702497 14
1.3284187 0.47053862 4.977838 14
-3.8908818 -0.85104978 1.4367694 14
-2.6665428 -0.91874802 1.5483314 14
-2.835804 -0.84569633 -2.7317755 14
-1.9673469 -0.92512751 1.5852253 14
-2.1715744 -0.92762589 1.5742687 14
-2.8645906 -0.81632662 -2.2446756 15
-1.4500577 -0.831864 1.622263 15
0.16142619 -0.44997501 1.9004627 15
-0.82273865 1.0995243 7.6927047 15
2.2732017 0.13753581 -2.319787 15
3.9256864 1.1431746 -5.6037083 15
-1.9137752 -0.02426672 -5.7970061 15
1.1535077 0.41614008 -5.6613989 15
0.49396503 -0.40847385 1.6722367 15
1.2788804 0.71130657 5.1052194 15
-2.6628327 -0.84191418 1.5329883 15
-2.1446886 -0.85986328 1.5670787 15
-3.6749699 -0.76026368 1.4532038 15
-2.8371825 -0.63950133 -3.1831646 15
1.8142266 -0.062071562 0.98702073 15
-1.594629 -1.3397143 1.6794006 7
0.24473286 -1.1286125 1.9674487 7
0.51319683 -1.1057683 1.6976794 7
-2.877691 -1.5622396 -0.47081256 7
-2.8062978 -1.5880262 -1.3392222 7
-1.6035634 -1.2812898 1.683448 8
0.23813152 -1.0496211 1.9684019 8
2.3404784 -0.91527975 -2.2792764 8
0.5121634 -1.0271586 1.7033556 8
4.4962387 -0.70204371 -5.0666676 8
-0.27583838 -1.2918636 -5.6673751 8
-2.8768983 -1.4913038 -0.47029042 8
0.90579617 -1.1529591 -5.6033092 8
0.32766104 -1.0473568 1.774251 8
-3.6912286 -1.5017712 1.5052458 8
-2.6886568 -1.5253861 -3.2319593 8
-2.7740965 -1.4080697 1.5730611 8
1.494087 -0.75123274 4.9658833 8
-2.7212515 -1.5200211 -2.6799598 8
-2.8020473 -1.5039459 -1.3310016 8
2.2628415 -0.9129566 -1.76941 8
2.1008494 -0.90252113 -0.59765399 8
-1.6040108 -1.2233317 1.6655563 9
0.22631586 -0.97158206 1.9615405 9
2.3228381 -0.77209306 -2.2832651 9
0.55801427 -0.94028366 1.7119777 9
4.462925 -0.43977225 -5.0725622 9
-0.29863405 -1.0886215 -5.6750274 9
-2.8803277 -1.4212121 -0.47109514 9
0.88323534 -0.94294554 -5.6133313 9
0.34289813 -0.96992373 1.7528003 9
-2.9787233 -1.343083 1.5533279 9
-2.7378058 -1.4067013 -2.5200362 9
2.0372479 -0.78969634 -0.22941089 9
-2.7084079 -1.3937728 -3.2454028 9
-2.0207515 -1.2640547 1.6276745 9
-2.6934884 -1.3207841 1.5780164 9
1.8646135 -0.74540156 1.5080332 9
-2.7794371 -1.4166998 -1.8938164 9
-2.7912188 -1.3236184 -1.8413669 10
-1.6104031 -1.1650921 1.6630495 10
0.22309744 -0.89081222 1.9677205 10
2.3174412 -0.62603307 -2.2959056 10
0.49267161 -0.87187481 1.6963868 10
4.4307604 -0.17659461 -5.0796304 10
-0.32314134 -0.88559604 -5.6674981 10
-2.8846016 -1.3512186 -0.47216481 10
0.85421085 -0.73387241 -5.6029911 10
-2.2731557 -1.217859 1.6004187 10
-2.983459 -1.2576293 1.5470037 10
0.31440115 -0.89537656 1.7742841 10
-2.7284112 -1.2711586 -3.0383964 10
-3.6384103 -1.2863107 1.5062257 10
1.4539135 -0.36701047 4.9602141 10
-2.7051384 -1.2424612 1.5778464 10
-2.8058212 -1.229306 -1.8485593 11
-1.6211002 -1.1052588 1.6712266 11
0.2010287 -0.81617707 1.9452854 11
2.3015275 -0.48064768 -2.3013144 11
4.4019232 0.088895917 -5.0900488 11
0.54318011 -0.77934504 1.710245 11
-0.34367895 -0.67820168 -5.6991339 11
-2.9094131 -1.2809554 -0.47967041 11
1.4107616 -0.15821052 5.0874944 11
0.1553123 -0.61403096 -5.677382 11
0.65675831 -0.5477581 -5.6174846 11
0.29915953 -0.82150531 1.7634345 11
-2.9978819 -1.1714988 1.5475656 11
-2.5420229 -1.1586299 1.5842664 11
2.0602474 -0.56525946 -0.60855532 11
-2.8814991 -1.2742084 -0.88024271 11
-2.2887883 -1.1482925 1.6072094 11
-2.8156214 -1.1341925 -1.8505056 12
-1.6290722 -1.0452776 1.6722609 12
0.20214343 -0.72195721 2.0179629 12
2.2835734 -0.33449554 -2.3054204 12
4.3636122 0.35401273 -5.0917845 12
0.47944152 -0.71252602 1.6962916 12
-0.36950088 -0.47421545 -5.6810794 12
-2.9013224 -1.2102354 -0.47686207 12
0.12585092 -0.40940332 -5.6521854 12
0.63423872 -0.33527946 -5.6290603 12
-3.7427742 -1.0746084 1.4930718 12
-2.8077707 -1.0851116 1.5602146 12
1.8283823 -0.40116107 1.4981174 12
-3.3083115 -1.0813804 1.5278014 12
-2.8454466 -1.1729437 -1.346092 12
-2.8235359 -1.0383909 -1.8503586 13
-1.6289468 -0.98835355 1.6532179 13
2.2585604 -0.1891284 -2.304635 13
4.3396215 0.62654388 -5.1075912 13
0.46080637 -0.63652354 1.6834052 13
-0.39340353 -0.26597178 -5.6841521 13
-2.9142547 -1.1382638 -0.48063791 13
1.3613858 0.23919296 5.0664515 13
0.10528183 -0.19543242 -5.6765957 13
0.6103462 -0.12087822 -5.6367364 13
-2.7735183 -0.8858043 -3.0531702 13
-2.7949197 -0.95454115 -2.5430269 13
-3.3162529 -0.98547071 1.5228977 13
-2.7292099 -1.0041813 1.5675935 13
-2.8370924 -0.94055486 -1.856105 14
-1.6403735 -0.92531359 1.6622403 14
0.17445946 -0.5602833 1.9986025 14
-1.5324042 0.66734886 7.6663427 14
2.247293 -0.037149429 -2.3139429 14
4.3073664 0.90028787 -5.1160364 14
0.51065576 -0.5355776 1.6974343 14
-0.41649985 -0.052523851 -5.6995797 14
-2.9194753 -1.0658619 -0.48199505 14
0.077818871 0.014505148 -5.6644473 14
0.58448505 0.095049024 -5.6383109 14
0.27099419 -0.59015256 1.7536283 14
-2.0532947 -0.94087172 1.6109713 14
-2.5577717 -0.9325161 1.5674268 14
-2.7935944 -0.81524545 -2.6903734 14
-2.9096582 -1.0430017 -0.88858068 14
-3.7635427 -0.85544848 1.4839562 14
-2.8568382 -1.0035543 -1.3452774 14
1.9791434 -0.2347734 -0.24848783 14
2.1736803 -0.10730541 -1.7982455 14
-1.64362 -0.86595291 1.6511749 15
0.16815865 -0.48885721 1.9411047 15
-1.5637445 0.94570589 7.6480503 15
2.219631 0.11088097 -2.3116522 15
4.2726917 1.1775045 -5.1227574 15
0.50235558 -0.45070928 1.6960365 15
-0.4411242 0.16191936 -5.7026501 15
-2.9292238 -0.9918316 -0.48476535 15
1.3179176 0.6521759 5.0600548 15
0.054713011 0.23355234 -5.6792688 15
0.55984712 0.31580496 -5.6460872 15
0.29086661 -0.50507355 1.7386917 15
-3.688488 -0.75336939 1.4836504 15
-2.8121579 -0.69142985 -2.7014322 15
-2.8433952 -0.83343172 -1.9098455 15
-2.7642417 -1.5801146 1.5750139 6
-2.7963648 -1.5896642 -1.6414248 7
-1.8846236 -1.388258 1.668779 7
-7.5442648 -2.1505456 -0.28950569 7
0.59109521 -1.1150297 1.7192764 7
-2.7229671 -1.4931511 1.5755579 7
-1.8832769 -1.3266065 1.6547693 8
0.23468602 -1.0702369 2.0238643 8
2.3124127 -0.92625999 -2.3777204 8
4.3259168 -0.72303849 -5.1518102 8
0.52626216 -1.047168 1.7027178 8
0.064099073 -1.2196 -5.6137767 8
0.91907454 -1.1218796 -5.5572448 8
1.4940929 -0.79014254 5.0303411 8
0.29931939 -1.0714709 1.8008435 8
-3.1102586 -1.4515195 1.5429218 8
-3.5276957 -1.492455 1.5092607 8
-2.7200243 -1.4996467 -2.7053456 8
-2.1121025 -1.3510466 1.6233649 8
-2.7671235 -1.4988525 -2.1386733 8
2.2243633 -0.92449385 -1.7128958 8
1.8114951 -0.87651974 1.9169054 8
-1.8993195 -1.265479 1.6671731 9
0.23300028 -0.99637175 1.9751402 9
2.3022316 -0.78150135 -2.3866343 9
0.56659412 -0.96560884 1.7072273 9
4.3060803 -0.46113491 -5.1690736 9
-2.7159677 -1.3705931 -3.0808303 9
0.043608189 -1.0136641 -5.6306906 9
0.89920938 -0.9107821 -5.5722084 9
0.3301717 -0.99764943 1.7544364 9
-3.319298 -1.3756169 1.5264366 9
-2.7528193 -1.3861899 -2.4789772 9
-2.2506633 -1.2971692 1.6089664 9
2.2118909 -0.79583353 -1.7178106 9
-2.7966807 -1.3384414 1.5728605 9
-2.7963319 -1.399562 -1.905899 9
2.1627839 -0.80168998 -1.2895687 9
-2.8258457 -1.3117733 -1.6473285 10
-1.8927035 -1.2049413 1.6454087 10
0.21829736 -0.92312706 1.9632249 10
2.2918692 -0.63569605 -2.39553 10
0.56109703 -0.88934922 1.7081192 10
4.2599306 -0.20278823 -5.1597476 10
-2.7119641 -1.2278936 -3.2795224 10
0.02212429 -0.80655766 -5.6424026 10
0.87565267 -0.69936037 -5.5756421 10
1.4542513 -0.41032076 5.0246739 10
0.32162261 -0.92674661 1.7516708 10
-1.2246194 -0.45214677 7.7263565 10
-2.7991431 -1.2980227 -1.9602044 10
-2.7740059 -1.2761658 -2.4144418 10
2.1461897 -0.68183053 -1.2916422 10
2.0414987 -0.7007488 -0.38265237 10
2.2181246 -0.66074169 -1.8593307 10
1.7875612 -0.64799589 1.911461 10
-1.9084827 -1.1423627 1.6571326 11
0.21102893 -0.83979994 2.0206203 11
2.2722061 -0.49074662 -2.3972106 11
4.3751626 0.088723183 -5.1623693 11
0.49566138 -0.82654351 1.6903578 11
-2.7353363 -1.0994097 -3.1816235 11
0.25015187 -0.56790578 -5.6197176 11
0.67756367 -0.51105052 -5.5904922 11
-1.2543294 -0.18602991 7.7245064 11
-2.9051967 -1.1782519 1.5511653 11
0.27879381 -0.85573804 1.7994217 11
-2.2658141 -1.1613193 1.6055045 11
-3.3423357 -1.1835495 1.5224295 11
1.9001381 -0.58950359 0.76639044 11
-2.8455486 -1.1242237 -1.6511269 12
-1.9060783 -1.0819882 1.6417725 12
2.2674918 -0.34039074 -2.410953 12
4.3394141 0.35541451 -5.1646881 12
0.4991591 -0.74714994 1.7009101 12
-2.7602668 -0.97474873 -3.0921988 12
0.22710228 -0.35743129 -5.6243343 12
0.65116453 -0.29987371 -5.5837202 12
-1.2841961 0.082219124 7.7196608 12
0.31014323 -0.78130829 1.7534297 12
-2.7919979 -1.0506303 -2.4105368 12
2.0078144 -0.48658478 -0.34287629 12
-2.1470327 -1.0889108 1.6234773 12
-1.9207096 -1.017453 1.6513796 13
0.19346547 -0.69475144 1.9578197 13
2.2419391 -0.19436765 -2.408251 13
0.54383445 -0.65529442 1.7104651 13
4.3035064 0.62455928 -5.1671906 13
-2.762882 -0.81006032 -3.2996907 13
1.3685708 0.19251823 5.1461935 13
0.20477629 -0.14362514 -5.6342115 13
0.63304293 -0.080515504 -5.6092472 13
0.29359698 -0.71209705 1.7406688 13
-2.4757516 -1.0192412 1.5941293 13
-1.3137777 0.35094213 7.7024479 13
-2.8101418 -0.93505889 -2.4210613 13
-2.9324589 -1.0068771 1.552402 13
-2.8404756 -0.99906468 -1.9160256 13
2.171073 -0.25908744 -1.8699076 13
-2.8688831 -0.93206722 -1.6580559 14
-1.9234025 -0.9551273 1.6433525 14
0.18352294 -0.60445893 2.0120943 14
2.2201755 -0.045597792 -2.4087663 14
4.2825923 0.90327978 -5.1854606 14
0.47647333 -0.59610367 1.6906536 14
-2.7823336 -0.68687242 -3.1950831 14
1.3447347 0.3933177 5.1376476 14
0.18269062 0.074201584 -5.6474175 14
0.60582054 0.13513136 -5.6014104 14
-1.3439384 0.62377763 7.6895885 14
-3.5960526 -0.87098682 1.4929402 14
-2.8152537 -0.80766273 -2.491771 14
1.9831433 -0.26579046 -0.39358005 14
-2.8467956 -0.88823712 -1.9734139 14
1.8609147 -0.27287543 0.75654042 14
-3.1781707 -0.90310365 1.5330379 14
-1.9369867 -0.88804901 1.6508813 15
2.2062941 0.10875142 -2.4159551 15
0.52059436 -0.498757 1.700281 15
4.2411308 1.1780436 -5.1833868 15
-2.7906935 -0.52409261 -3.2998843 15
0.15707374 0.29150534 -5.6435156 15
0.58287203 0.35842609 -5.6116352 15
-2.5011244 -0.86530727 1.5977684 15
-1.3745677 0.90075779 7.6769266 15
-3.6013551 -0.76430476 1.4869463 15
1.9850235 -0.14794481 -0.35507986 15
-2.8475428 -0.75074917 -2.1550899 15
-2.8189354 -0.6405198 -2.7339664 15
-2.8591065 -0.83796 1.5649278 15
-2.9383121 -1.565896 -0.46953377 7
-2.2785521 -1.4343176 1.6639788 7
-2.6351871 -1.4773662 1.6099933 7
-2.8725858 -1.569592 -0.8014195 7
0.26187158 -1.0879042 1.9153016 8
-2.2664342 -1.3635576 1.6435276 8
4.0651999 -0.76552522 -5.4306951 8
-2.9584999 -1.4882303 -0.47603175 8
0.18111765 -1.2453877 -5.5784755 8
0.96553743 -1.1616732 -5.5218573 8
-2.8644433 -1.4195406 1.5992819 8
-2.8864632 -1.4857016 -0.65836275 8
0.26533246 -1.0190475 1.8787202 9
-2.2832909 -1.2947789 1.6507607 9
4.0295305 -0.50494838 -5.4289684 9
-2.7233639 -1.3769959 -2.802433 9
-2.9529033 -1.4080764 -0.47326806 9
0.16246855 -1.0371637 -5.6008854 9
0.94954371 -0.94866502 -5.5472417 9
-2.7619615 -1.3871872 -2.3293207 9
-2.8211246 -1.2990401 -1.7178633 10
0.25951231 -0.94425595 1.9304175 10
-2.2843556 -1.2254776 1.6429758 10
3.9970493 -0.24350858 -5.4309711 10
-2.9725342 -1.3291888 -0.4795548 10
0.14164698 -0.82796931 -5.6109052 10
0.92355347 -0.73657644 -5.5394206 10
-1.2911483 -0.47385645 7.7179947 10
-1.7157542 -0.51972306 7.6839414 10
0.35138857 -0.94948077 1.7224181 10
-2.7800708 -1.2793045 -2.1892767 10
1.831988 -0.68443358 1.7375705 10
1.9177073 -0.72800213 0.59676778 10
-2.8303757 -1.1995409 -1.7195857 11
0.25378156 -0.87892115 1.8797859 11
-2.7439923 -1.1147283 -2.901093 11
-2.2999179 -1.1550646 1.6487759 11
4.1083031 0.046557188 -5.4335766 11
-2.9921627 -1.2489721 -0.48582759 11
-1.7455829 -0.25497484 7.6937666 11
-1.3193043 -0.21057153 7.7165623 11
-3.2080827 -1.1671486 1.5681572 11
-2.7855759 -1.1581552 -2.3356256 11
0.24215591 -0.8102234 1.8718467 12
-2.294147 -1.0861812 1.6345723 12
4.0841618 0.3173672 -5.4462152 12
-2.9785509 -1.1690013 -0.48019436 12
-1.347504 0.054738879 7.7115254 12
-1.7718107 0.0077142715 7.6718535 12
0.33480167 -0.81490892 1.7161849 12
-3.2231097 -1.0716121 1.5682662 12
-2.925941 -1.1649019 -0.67010307 12
0.22684157 -0.73340404 1.9098661 13
-2.3017743 -1.0153217 1.6328031 13
4.0383573 0.58362377 -5.4344292 13
-2.9936004 -1.0871859 -0.48481146 13
-1.3754822 0.32148337 7.6987123 13
-1.7994293 0.27422976 7.6591015 13
1.8117806 -0.38563561 1.3939283 13
-2.9040318 -0.99329925 1.5842872 13
1.7972373 -0.35240495 1.7292318 13
-2.8219066 -0.94192529 -2.2074711 13
1.9143537 -0.41605377 0.59247828 13
-2.9220738 -1.0752962 -0.81420398 13
0.22841835 -0.65493673 1.9223167 14
-2.3193059 -0.94120955 1.6399981 14
4.0125909 0.86066771 -5.4461856 14
-2.7922101 -0.72980773 -2.8237042 14
-3.0037236 -1.0044117 -0.48765537 14
-1.8285903 0.54622722 7.6552515 14
-1.4048506 0.5949955 7.6996994 14
0.31518269 -0.67923498 1.7064604 14
-2.6955969 -0.92165297 1.5962639 14
-2.8298988 -0.82765269 -2.2058253 14
1.8696884 -0.32337177 0.58557928 14
-2.7995763 -0.57789648 -2.9162965 15
-2.3347154 -0.86559898 1.644994 15
3.9947491 1.1468723 -5.4679589 15
-3.0203876 -0.91911924 -0.49281815 15
-1.8573374 0.8210032 7.6446676 15
-1.4336678 0.86956406 7.6868734 15
1.7961973 -0.1637454 1.3915355 15
