# .PCD v0.7 - Point Cloud Data file format
VERSION 0.7
FIELDS x y z intensity
SIZE 4 4 4 4
TYPE F F F F
COUNT 1 1 1 1
WIDTH 1326
HEIGHT 1
VIEWPOINT 0 0 0 1 0 0 0
POINTS 1326
DATA ascii
3.1390362 -0.3742438 -0.090664446 6
3.1892824 -0.34843528 1.8269339 6
3.1364069 -0.38558602 -0.2881375 6
3.1381521 -0.32562804 0.22273314 7
3.1811781 -0.30821598 1.5074654 7
3.1711073 -0.30893713 1.6406107 7
5.4102011 -0.25294703 -1.2021832 7
3.1421678 -0.32927817 0.066640854 7
5.4881248 -0.19931647 2.8127737 7
3.1382599 -0.33360612 -0.089287937 7
3.1849642 -0.30831331 1.8003194 7
3.13662 -0.33897686 -0.28429192 7
5.4745216 -0.20184411 1.5678618 7
5.4300528 -0.21256322 0.62943244 7
5.4546366 -0.20158283 1.7944131 7
5.4100819 -0.23886503 -0.64316827 7
5.4405184 -0.20908602 0.86235678 7
5.4356337 -0.21458586 0.48455301 7
5.418149 -0.23305532 -0.4107365 7
3.139478 -0.29331431 0.22510737 8
3.1679049 -0.27681449 1.5187801 8
3.1769886 -0.27359086 1.6309025 8
5.030138 -0.065212786 5.3773322 8
3.1462526 -0.29302242 0.073096573 8
3.1821029 -0.26808491 1.8304242 8
3.1374729 -0.29318038 -0.087939322 8
5.4365902 -0.14790516 1.1923535 8
5.4672937 -0.15008993 0.88550735 8
5.4029703 -0.16291338 -0.64118952 8
5.4517241 -0.15335791 0.69675195 8
5.4852824 -0.10646644 2.9314795 8
5.448081 -0.15564857 0.48028669 8
5.4677496 -0.12772223 2.1110747 8
5.4741898 -0.12153298 2.357399 8
5.4034176 -0.16281191 -0.92228204 8
3.1711938 -0.24478869 1.5133724 9
4.0644898 -0.13500342 -2.0780616 9
3.1696944 -0.2384681 1.6369861 9
5.0214705 0.098145515 5.375124 9
3.1808991 -0.22775169 1.8285232 9
5.4706488 -0.075659633 1.5675015 9
5.4566498 -0.093163103 0.88465971 9
5.4920001 0.015351236 3.4377098 9
5.4809723 -0.010040581 2.9931703 9
5.4632607 -0.044305727 2.3502629 9
5.4460196 -0.096023247 0.71995044 9
5.3907757 -0.072865844 -1.1916049 9
3.1387222 -0.25204352 -0.11224103 9
5.4142342 -0.09891957 0.15397996 9
5.4746928 -0.067852154 1.7768331 9
5.4492793 -0.083844706 1.3708453 9
5.427423 -0.098963439 0.48361084 9
5.4660769 -0.054961905 2.1118181 9
3.1788397 -0.2135011 1.5036248 10
4.0584807 -0.032691002 -2.0722578 10
5.0106182 0.26113597 5.3647752 10
3.1397657 -0.22123197 0.069104254 10
3.1327941 -0.20076247 -0.2802642 10
5.4442711 -0.0087437034 1.7005901 10
5.3945985 -0.006185174 -0.73116511 10
5.4329009 -0.039958373 0.72008359 10
5.4774604 0.080330819 2.9316905 10
5.4145708 -0.037745982 0.17893398 10
5.4013839 -0.018613696 -0.44662291 10
3.1790671 -0.18980366 1.7983415 10
3.1382954 -0.19823056 0.24490392 11
3.1714921 -0.18095048 1.5088956 11
4.0539651 0.071893632 -2.0850449 11
5.0012078 0.42537722 5.3599849 11
3.1388724 -0.17935617 -0.00049805641 11
3.1709545 -0.16079995 1.7001777 11
5.4628997 0.033868134 1.2224805 11
5.4781251 0.2409685 3.5143521 11
5.4073238 0.022928685 0.17987657 11
5.3844829 0.065054148 -0.63793153 11
5.4670405 0.16027761 2.8058686 11
5.372571 0.13589957 -1.5168498 11
5.414361 0.01819694 0.38513923 11
5.4239454 0.017515093 0.85954493 11
5.4461117 0.020372838 0.71801317 11
5.446383 0.057336211 1.7026662 11
3.1364715 -0.16613057 0.2443921 12
3.1618137 -0.14714089 1.5164324 12
4.0470691 0.17380539 -2.0687819 12
4.9970818 0.59473789 5.3756495 12
3.1320844 -0.14006883 -0.0069053173 12
3.1658084 -0.12259856 1.7038022 12
5.3587942 0.25284812 -1.6595864 12
5.4211264 0.075125188 0.85883701 12
5.3744965 0.18671247 -1.0750794 12
5.3848495 0.15212008 -0.73172218 12
5.432126 0.09789601 1.3920646 12
5.4627686 0.13323823 1.7736274 12
5.4376497 0.080701888 0.47691506 12
5.405005 0.086284667 0.15146697 12
5.4434605 0.079060614 0.69351041 12
5.3960648 0.12750357 -0.45035714 12
5.4655247 0.25262126 2.8086483 12
5.4312992 0.086925119 1.1909378 12
3.1570358 -0.11331882 1.5190322 13
4.041894 0.27978513 -2.0748472 13
3.1412411 -0.13081442 0.21480757 13
4.9863262 0.76158237 5.366365 13
5.4528894 0.37178448 2.978338 13
5.4727979 0.46902284 3.5221109 13
5.3986382 0.1483717 0.15204644 13
5.4389491 0.13930565 0.90524846 13
5.3519344 0.41436926 -2.0164633 13
5.4323654 0.1605888 1.3924651 13
5.4396524 0.19940782 1.7930009 13
5.4089622 0.20228663 -0.42694503 13
4.0366955 0.38775906 -2.0818748 14
3.1305523 -0.10020216 0.24140918 14
4.9776926 0.93247247 5.3656569 14
3.1313963 -0.062341854 -0.0035786033 14
5.4393959 0.20192868 0.97559988 14
5.4221897 0.19520375 0.90409732 14
5.4553437 0.21793109 1.2206943 14
5.4023576 0.19835767 0.38364446 14
5.3414745 0.53101659 -2.0100543 14
5.3560419 0.44227681 -1.5200613 14
5.3710494 0.36922351 -1.0848315 14
5.4368901 0.26097909 1.7309039 14
5.4564266 0.43920854 2.8072171 14
3.1329961 -0.062013939 0.20961344 15
4.9686899 1.1059816 5.3640618 15
3.1219566 0.0018031597 -0.12014782 15
5.4567013 0.67885292 3.4290669 15
5.4246731 0.25923166 0.97399884 15
5.4256463 0.28460851 1.3649864 15
5.4054751 0.25164828 0.62373257 15
5.3875189 0.34810582 -0.41790146 15
5.425427 0.32715955 1.7258275 15
5.4376392 0.27613005 1.2167157 15
5.4497013 0.55994844 2.9227328 15
5.3663816 0.43039271 -0.92317301 15
5.4387755 0.39110819 2.1034653 15
5.3473997 0.57924414 -1.6728892 15
5.1082363 -0.22504525 5.3789277 7
4.8876886 0.007864058 5.3733091 8.5
4.5520191 0.036655277 5.3879399 8.8000002
4.2866211 0.053579748 5.3929634 9
3.3623991 -0.026369333 5.4121962 8.8000002
2.9437327 -0.094044119 5.4241991 8.5
2.6692047 -0.10628405 5.4295216 8.5
4.8679423 0.41682538 5.3758869 11
4.5769463 0.39489421 5.380178 11
4.2656169 0.45525548 5.3898592 11.5
3.3234043 0.32723537 5.4123144 11
2.9222846 0.31404772 5.4183602 11
2.6471362 0.3074114 5.4254088 11
4.8460331 0.83369708 5.3710041 13.5
4.5445867 0.80652583 5.3779473 13.5
4.2477121 0.78234565 5.3800535 13.5
3.301595 0.73825705 5.4087963 13.5
2.899575 0.7312994 5.4175081 13.5
2.624213 0.73022783 5.4227796 13.5
4.8314595 1.0893203 5.3629656 15
4.5319834 1.0618999 5.379271 15
4.2349982 1.0358022 5.3829746 15
3.2890921 0.98969305 5.3986988 15
2.8860099 0.98811758 5.4137812 15
2.6104193 0.9906044 5.4195309 15
5.3477926 -0.21033612 4.5474768 7
5.5194054 0.084691614 4.5838537 9
5.4963989 0.48978695 4.581202 11.8
5.4795408 0.85453629 4.6104417 14.2
5.5110741 0.059923917 4.179801 9
5.4882021 0.45838472 4.1920018 12
5.4714575 0.79834986 4.1850262 14.5
5.5237913 -0.20018964 3.9311757 7
5.5080719 -0.02625221 3.6981592 8.5
5.4989305 0.091424137 3.7580166 9.5
5.4893637 0.47127607 3.8741696 12.5
5.4794278 0.45320895 3.7648103 12.5
5.4628367 0.7308625 3.8165545 14.666667
5.49858 -0.19977328 3.3542938 7
5.4927578 0.08039099 3.3423378 9.666667
5.4862938 0.073454142 3.3571298 9.6000004
5.4733977 0.45156565 3.3242118 13.166667
5.4660912 0.48611215 3.3775299 13.4
5.4646225 0.68393862 3.443289 15
5.4997711 -0.1990118 2.9607155 7
4.8860893 -0.30760276 2.949019 6
4.5474725 -0.32398626 3.0964205 6
3.205514 -0.31100097 2.887141 7
5.4859476 0.037335902 2.9703846 9.5
5.4861131 -0.052663043 3.09513 8.5
3.1946287 -0.075426802 3.0212309 10
5.4641466 0.42274699 2.9711602 13.5
5.4519854 0.60550892 3.1211932 15
3.1782424 0.24561599 3.0155184 14
5.4913354 -0.19906323 2.5954783 7
5.3605514 -0.25900748 2.6333773 6.3333335
3.1996489 -0.31035298 2.6555853 7
5.4764223 0.05261904 2.5727587 10
3.1871045 -0.076513484 2.6631205 10.5
5.4589105 0.3757945 2.6024609 13.714286
3.1736593 0.19730085 2.6568489 14.5
5.4773331 -0.23768832 2.2269366 6.5
4.4301767 -0.34147459 2.1194251 5
4.2068911 -0.35204953 2.2064021 5
3.1919441 -0.33593071 2.2638249 6.5
5.4670124 0.043046147 2.1700485 10.272727
3.179899 -0.078226894 2.2813683 11.25
5.4535637 0.34797701 2.2220867 14.142858
3.1689301 0.14445168 2.3211129 15
5.4732351 -0.23466581 1.8272431 6.5
4.8343568 -0.32354361 1.8142612 5
4.5111246 -0.3484301 1.9026892 3.6666667
4.1716633 -0.36799383 2.0046427 3
3.21101 -0.3642782 1.8269956 5.5
5.4572239 0.032389283 1.7904423 10.5
3.1722062 -0.11704768 1.8796852 11.529411
5.4434195 0.30599281 1.7864883 14.5
5.4599347 -0.23376065 1.4016066 6.5
5.1164589 -0.3143186 1.3806531 5
4.8287315 -0.33575416 1.4932224 3.6666667
3.1825533 -0.359853 1.6173418 5.5
5.4505615 0.026212066 1.3967268 10.769231
3.1678686 -0.14636976 1.609589 11.666667
5.4408755 0.26241437 1.4209719 14.5
5.4566593 -0.23588081 1.0014539 6.5
5.2021656 -0.31341186 1.026457 5
4.8264847 -0.34465101 1.1305001 3
3.8611386 -0.38394535 0.90512991 29
3.7894957 -0.38769221 0.9076429 29
5.4390116 0.023747832 0.9839198 11
5.4266739 0.26091859 0.96890104 15
5.4492588 -0.24131709 0.59885746 6.5
5.2048559 -0.318674 0.64931893 5
4.7876811 -0.34071141 0.62659681 4
3.8579538 -0.38525474 0.812383 21
3.7863109 -0.38900158 0.81489599 21
5.4311457 0.019550562 0.59933436 11
5.4158826 0.25731811 0.57731277 15
5.4372177 -0.25038403 0.19363582 6.5
5.0634189 -0.3307147 0.22178352 5
4.8220892 -0.34366006 0.20211864 4.5
4.5109844 -0.36194974 0.12823242 4
3.1493273 -0.3780756 0.14789283 5.5
5.4231701 0.011533558 0.19706589 10.769231
3.1371336 -0.16683181 0.17337191 11.777778
5.4125314 0.24855229 0.1690492 14.5
5.431004 -0.2612519 -0.19034249 6.5
4.7778192 -0.34998789 -0.15301079 5
4.4183817 -0.36831626 -0.16958886 4.5
3.9619381 -0.39347482 -0.13062561 4
3.5701516 -0.41360959 -0.1078819 4
3.1636124 -0.38399991 -0.12178791 5.7142859
5.4150105 0.0084666312 -0.20103556 10.5
3.1278117 -0.14341585 -0.13961786 11.529411
5.3997641 0.28466597 -0.20335025 14.5
5.4239321 -0.27516752 -0.6015113 6.5
4.3907676 -0.37436435 -0.42412728 5
3.9575584 -0.39832515 -0.53575534 5
3.5584087 -0.41899252 -0.51610154 5
3.1556458 -0.38438213 -0.496126 6.1999998
5.4075232 -0.0095598102 -0.61879522 10
3.1166787 -0.11664733 -0.53015894 11.25
5.3882866 0.31345966 -0.62580258 14.142858
3.1071217 0.10118324 -0.57114857 15
5.4085131 -0.2475812 -0.99054831 7
5.2186251 -0.33829916 -1.0212729 6
3.1241329 -0.37821019 -0.89885646 6.6666665
5.3967371 0.0076625645 -0.99299055 10
3.1091785 -0.12425916 -0.92294854 10.5
5.3776875 0.33582333 -1.0318892 13.714286
3.0976095 0.13454688 -0.88864487 14.4
5.4088411 -0.25721255 -1.3620465 7
4.7688985 -0.36469528 -1.274966 6
4.2922425 -0.392474 -1.4447594 6
3.9271927 -0.41172966 -1.4822102 6
3.5596321 -0.43138003 -1.4768591 6
3.1592631 -0.40862179 -1.3471324 6.5
5.3889771 -0.017963871 -1.4074297 9.5
3.1020136 -0.13138756 -1.3025646 10
5.3678784 0.37727562 -1.4240499 13.5
3.0838814 0.17951411 -1.3004212 13.857142
5.3926163 -0.26596868 -1.663518 7
3.1048656 -0.38020408 -1.6621277 7
5.3781319 -0.00067606568 -1.7985516 9.5
3.0921664 -0.14650655 -1.7402806 9.5
5.3574238 0.38110796 -1.7969518 13
3.0740469 0.2132003 -1.7178497 13.333333
5.3426952 0.61474419 -1.8392563 15
5.3825827 -0.27828124 -2.0966284 7
4.2711844 -0.32693905 -1.9727237 7
4.0742083 -0.3395716 -2.0632434 7
3.0908661 -0.39973176 -2.3020208 7
5.3706264 -0.041481122 -2.2092824 9
4.3189168 -0.070247233 -2.0250807 9.5
4.0245709 -0.080340713 -2.1683099 9.5
3.0817447 -0.12358141 -2.1866698 9.5
5.3516307 0.35603455 -2.2018275 12.285714
4.4782834 0.44007728 -2.1410975 14
4.2967787 0.29164526 -2.0260565 13
4.0044222 0.29487887 -2.1693211 13
3.0591731 0.26577303 -2.2001047 13
5.3339586 0.66621196 -2.2720077 14.666667
3.0488482 0.4931626 -2.1958098 15
5.3613372 -0.02813369 -2.6103995 9
3.0745356 -0.16474859 -2.540997 9
5.3390822 0.3731415 -2.612777 12
3.0555637 0.20205483 -2.5438085 12
5.3228359 0.714167 -2.6035478 14.5
3.0380731 0.51719785 -2.5516961 14.5
5.3720407 -0.2985546 -2.8019757 7
5.3504753 -0.014152676 -3.020294 9
3.0664976 -0.15401901 -2.8280606 9
5.331604 0.39563033 -3.0159693 11.8
3.0476341 0.24201384 -2.8229661 12
5.3088193 0.75792205 -3.0283127 14.2
3.0273924 0.58342576 -2.8382132 14.5
5.3533883 -0.31708646 -3.4204638 7
5.342474 -0.0026544631 -3.3470027 9
3.0611868 -0.14171958 -3.144088 9
5.321497 0.39028427 -3.3510468 11.5
3.0371425 0.28921071 -3.1564229 12
5.3033485 0.75734353 -3.3404143 13.8
3.0179212 0.65792203 -3.1597807 14.5
5.2880645 0.97872496 -3.4447892 15
5.3516111 -0.32589102 -3.7231538 7
5.3387375 -0.073435456 -3.7276018 8.5
3.0495131 -0.12637138 -3.5483582 9
5.3173771 0.35057721 -3.735863 11
3.0299692 0.26539543 -3.5467336 11.5
5.2940421 0.78299057 -3.7394145 13.5
3.0067267 0.6699723 -3.5627449 14
5.2804694 1.0500679 -3.7444103 15
3.055594 -0.45248678 -4.023365 7
5.3275309 -0.064901605 -4.1693788 8.5
3.0412264 -0.19433321 -4.0313091 8.5
5.3095961 0.30314222 -4.178669 10.5
3.0195212 0.23862377 -4.0295248 11
5.2876244 0.72865236 -4.1594329 12.8
2.9956727 0.68112087 -4.0382237 13.5
5.2653532 1.0985347 -4.2240038 14.666667
2.9806743 0.95473087 -4.0451932 15
5.3183222 -0.057361573 -4.5529461 8.5
3.0287938 -0.18188885 -4.6113195 8.5
5.2998705 0.33663461 -4.5660977 10.5
3.0084326 0.204438 -4.6160011 10.5
5.2760844 0.73437715 -4.5609493 12.5
2.9867647 0.59764659 -4.6273389 12.5
5.2570267 1.1455561 -4.5753846 14.5
2.9680724 0.99669611 -4.6158814 14.5
5.321631 -0.36914882 -5.1610661 7
5.3060946 -0.048653036 -4.9963932 8.5
3.2351696 -0.16519427 -4.9206963 8.5
3.11024 -0.17124751 -4.9180961 8.5
5.2852278 0.37504318 -5.0071607 10.5
3.2144494 0.24064764 -4.9188805 10.5
3.0890448 0.23568103 -4.9215369 10.5
5.2674294 0.76020432 -4.9636936 12.333333
3.1912963 0.65451431 -4.9372663 12.5
3.0683074 0.64750469 -4.9181452 12.5
5.2446065 1.1306573 -5.0134339 14
3.170048 1.0755563 -4.9329052 14.5
3.0445337 1.0727265 -4.9342084 14.5
5.2303066 1.3988726 -5.1904793 15
3.8328984 -0.47471356 -6.1792097 7
3.3302758 -0.50124323 -6.1703215 7
3.1846292 -0.25314987 -8.037756 8
3.2552519 0.21873114 -8.0493965 9.5
3.0313063 0.20809641 -8.0536842 9.5
3.2297072 0.6898936 -8.0661869 11
3.0067396 0.67896485 -8.0563993 11
3.213727 1.00559 -8.060545 12
2.9910712 0.99460328 -8.0488739 12
3.1965146 1.3263936 -8.0676823 13
2.9726102 1.3179168 -8.0693617 13
3.1796165 1.6506475 -8.0694399 14
2.956526 1.6408978 -8.0622587 14
5.0945034 0.020512134 5.3741212 8.507
5.4170856 0.63415813 5.358531 12.009
5.0742683 0.43422881 5.3745551 11.007
5.4017472 0.89293396 5.3507128 13.509
5.0504017 0.85375988 5.3632932 13.507
5.3923116 1.161739 5.3603759 15.009
5.036994 1.1134548 5.3610978 15.007
5.1478424 0.054650962 4.54497 9.0089998
5.1251245 0.32697645 4.5187373 11.009
4.8898602 0.33067802 4.7121181 11.007
3.1655881 0.0073705316 1.9606786 14.163999
3.1340189 -0.074039698 0.29327804 15.114
3.1218181 0.027768523 -0.23297495 15.105
3.8212466 -0.22677317 -6.8063507 8.0889997
3.8000665 0.17489472 -6.8114648 9.5889997
3.7724121 0.71748114 -8.0681772 11.089
3.7557247 1.0338901 -8.0683718 12.089
3.7388611 1.3536479 -8.0690994 13.089
3.7215614 1.6819727 -8.0901918 14.089
-1.0229371 -1.450959 0.73349833 5
0.54843926 -1.2962865 1.5038033 5
0.38544357 -1.303032 1.8879111 5
0.53146929 -1.2643101 1.5005118 6
0.38140976 -1.2706206 1.8863674 6
-1.0301106 -1.4188379 0.72854948 6
-1.0092982 -1.4250939 0.58109844 6
0.38223433 -1.238068 1.8883705 7
0.53002328 -1.2323825 1.500149 7
-1.072814 -1.4270078 -0.3701483 7
-1.9715933 -1.4530129 2.2025933 7
-2.0470915 -1.451189 3.3322196 7
-2.0163269 -1.4506494 2.9466991 7
1.0183686 -1.1773875 -5.6930084 8
0.52944338 -1.2003139 1.4999492 8
-1.0746446 -1.3600656 -0.36114681 8
-1.0403781 -1.3532546 0.7228449 8
-1.9881203 -1.3907442 2.2071142 8
-2.0879118 -1.3498026 3.7541816 8
2.2003312 -1.0550319 -1.7583938 8
1.7399138 -0.9815197 4.7903447 8
-2.0156369 -1.3785943 2.6898632 8
1.9600247 -1.0503242 1.3416605 8
2.1499968 -1.0563252 -1.0501142 8
-2.7531581 -1.5005002 -2.603219 8
-2.0143664 -1.3859986 2.4394135 8
1.7925483 -1.0018179 4.0234895 8
2.1153307 -1.0566061 -0.56589365 8
0.99452746 -0.92555499 -5.6904931 9
-1.0206673 -1.315886 0.57691634 9
0.52318221 -1.1688597 1.4986795 9
-1.0841959 -1.2937509 -0.37153029 9
0.37617737 -1.1733326 1.8867453 9
-1.0398068 -1.3208756 0.78048521 9
1.7007693 -0.81505191 5.2308226 9
2.205102 -0.90513241 -1.9789965 9
-1.99485 -1.3157976 2.4547172 9
-2.0584781 -1.2745191 3.2688127 9
-2.7493639 -1.3304408 -2.8467364 9
1.7442919 -0.85053587 4.5993891 9
2.1140265 -0.94123286 -0.759202 9
1.7924954 -0.88868803 3.8799834 9
0.97119391 -0.67304671 -5.6908789 10
-1.0235426 -1.279233 0.57670379 10
-1.0881789 -1.227069 -0.36795008 10
0.52973783 -1.1352636 1.4998215 10
0.38084912 -1.1392548 1.8916174 10
-1.0409789 -1.2867966 0.7269147 10
-1.9941834 -1.2637801 2.2022564 10
1.6866487 -0.66086566 5.2261276 10
-2.7607732 -1.160657 -2.8433952 10
-2.0734656 -1.185338 3.2753651 10
-2.0420761 -1.2151409 2.902915 10
-2.1113653 -1.1441356 3.7582819 10
2.1007628 -0.82553834 -0.75879908 10
1.7711073 -0.76105976 4.0177956 10
2.1463919 -0.79544932 -1.2995508 10
-1.0928352 -1.1602113 -0.36601341 11
-1.0450656 -1.257063 0.77965552 11
-1.9958627 -1.2001665 2.1991305 11
2.1780171 -0.60503155 -1.9841647 11
-2.0746617 -1.09032 3.3213897 11
-2.7858357 -1.0007794 -2.726069 11
1.9713351 -0.79693818 0.805659 11
-2.0542841 -1.1305592 2.9505296 11
1.7676581 -0.65511876 3.8698387 11
1.9347309 -0.80473959 1.3373775 11
1.7392167 -0.60640037 4.3287725 11
2.0439882 -0.75582922 -0.060670495 11
0.36493951 -1.0759413 1.8827502 12
0.52158946 -1.070694 1.4981024 12
-1.1078973 -1.0900764 -0.38936901 12
-2.0182252 -1.1342638 2.2063959 12
1.6587516 -0.34942973 5.2177958 12
-2.8120728 -0.84536988 -2.6168332 12
1.742808 -0.50832099 4.0847483 12
1.7094573 -0.438775 4.5920172 12
2.0704141 -0.60904664 -0.57023168 12
0.36982346 -1.0400311 1.8878558 13
0.51710415 -1.0381635 1.4971646 13
-1.0313752 -1.1679794 0.57719195 13
-1.1034807 -1.0248532 -0.36513269 13
-2.0237551 -1.0686622 2.205107 13
-2.0618963 -0.97461593 2.8975759 13
-2.0207455 -1.039838 2.4509525 13
1.6782228 -0.26822221 4.7754698 13
-2.8259363 -0.67824984 -2.6183605 13
2.1102972 -0.39832777 -1.3062227 13
1.9661051 -0.61840767 0.79960537 13
0.36809677 -1.0055213 1.8880839 14
-1.1148493 -0.95329809 -0.37898755 14
-2.0289435 -1.0022515 2.203593 14
2.1363735 -0.14425147 -1.9920261 14
-2.0328159 -0.97253466 2.4206243 14
-2.1372001 -0.72611845 3.7363975 14
-2.0476797 -0.93161929 2.6763394 14
-2.0720925 -0.88400424 2.942657 14
1.7371072 -0.2949667 3.8631752 14
-2.1105895 -0.80910945 3.3296862 14
1.7060624 -0.208776 4.3222733 14
-2.8453827 -0.50724638 -2.6287107 14
-1.1193211 -0.88355273 -0.37600505 15
-2.0331764 -0.93503475 2.2015424 15
1.6189815 0.13342535 5.2112989 15
1.7200915 -0.12033045 4.0904951 15
-2.0491295 -0.89845884 2.4256227 15
2.0621405 -0.17616308 -1.0573773 15
-2.8504243 -0.31127763 -2.7449002 15
2.1069517 -0.032945991 -1.774688 15
2.004302 -0.3417964 -0.066667914 15
1.1083031 -1.0419734 -5.6731129 8.5
1.372643 -1.0162225 -5.6626496 8.5
1.7842861 -0.97606641 -5.6275449 8.5
2.1715155 -0.93739259 -5.600615 8.5
2.5401292 -0.94474089 -5.5716643 8.333333
2.962853 -0.99208713 -5.5376601 8
3.3889036 -0.95031971 -5.5121989 8
3.7606597 -0.91351765 -5.4733081 8
3.9882841 -0.89088333 -5.4569268 8
1.0769339 -0.66164595 -5.6919694 10
1.3378223 -0.6347692 -5.6662807 10
1.7349559 -0.59215212 -5.6312413 10
2.0520005 -0.55643713 -5.6076541 10
2.5833302 -0.58364493 -5.5693293 9.666667
2.926775 -0.58835536 -5.5450702 9.5
3.3476877 -0.53841746 -5.5117407 9.5
3.7244925 -0.49249828 -5.4833598 9.5
4.0152192 -0.45640057 -5.457664 9.5
0.21737289 -0.3630513 -5.7528729 11.5
0.4739759 -0.33764195 -5.7371202 11.5
0.88539636 -0.29603958 -5.701087 11.5
1.3029463 -0.24949479 -5.6714163 11.5
1.7158633 -0.19990313 -5.6442475 11.5
2.0450859 -0.18568921 -5.6133318 11.4
2.4664798 -0.14883041 -5.5803294 11.333333
2.8894897 -0.18228936 -5.5502958 11
3.3116279 -0.12303996 -5.5210409 11
3.688262 -0.068259954 -5.4937444 11
3.9780154 -0.025366306 -5.4676876 11
0.18383718 0.02372992 -5.7694721 13
0.43953604 0.047893405 -5.7439008 13
0.85090792 0.091359854 -5.7088914 13
1.2676733 0.14062059 -5.6762414 13
1.6674372 0.19365728 -5.6537538 13
2.0201583 0.24273062 -5.6260934 13
2.5129347 0.22421515 -5.5879159 12.666667
2.8517461 0.22946453 -5.5556898 12.5
3.2711577 0.29691339 -5.5234122 12.5
3.6498108 0.36180365 -5.5016522 12.5
3.9389486 0.41164875 -5.475688 12.5
0.14807642 0.41577864 -5.7674694 14.5
0.4049837 0.44340539 -5.7550173 14.5
0.81690884 0.48928916 -5.723341 14.5
1.2337053 0.5419122 -5.6909924 14.5
1.6313332 0.59771132 -5.6608248 14.5
1.9635972 0.61965179 -5.6327443 14.4
2.4436564 0.58640313 -5.6009469 14
2.8169522 0.64978063 -5.5688081 14
3.2323875 0.72436643 -5.5301986 14
3.6078129 0.7973609 -5.5048389 14
3.8974051 0.8550663 -5.4806695 14
2.0813103 0.80770016 -5.6289668 15
2.4157901 0.86479831 -5.5988374 15
2.7892003 0.93353987 -5.5693603 15
3.2079902 1.0164864 -5.5385103 15
3.5853796 1.0970769 -5.5171742 15
3.8695221 1.1569154 -5.4852109 15
3.3058805 -1.2008364 -4.5281334 7
-2.6465101 -1.6983643 -3.9033999 7
-2.6659322 -1.3944702 -3.9990692 8.5
-2.7031021 -0.98380059 -4.0084825 10.5
-2.7389741 -0.56753612 -4.0137987 12.5
-2.7757268 -0.14099336 -4.0191021 14.5
-2.6809206 -1.6844057 -3.4020147 7
-2.6973786 -1.4031785 -3.5735965 8.5
-0.70539939 -1.2425597 -3.6663394 8.5
-2.7335324 -1.0174838 -3.5850048 10.5
-0.73696929 -0.88705945 -3.6724286 10.5
-2.7615671 -0.62332046 -3.6238737 12.5
-0.7780537 -0.43223184 -3.6909113 13
-2.8018737 -0.22917068 -3.596005 14.5
-0.8119173 -0.057451129 -3.7062912 15
-2.7041879 -1.6767983 -3.1140218 7
-2.7272243 -1.41012 -3.1602626 8.5
-0.74027538 -1.2536831 -3.1922426 8.5
-2.765131 -1.0008632 -3.1315722 10.8
-0.77769035 -0.84731084 -3.2160816 11
-2.7963243 -0.63317639 -3.1666164 12.8
-0.81447113 -0.4333533 -3.2235732 13.5
-2.8282318 -0.273476 -3.2217646 14.666667
-0.83624774 -0.18027377 -3.2192054 15
-2.753068 -1.4457405 -2.7535119 8.333333
-0.77700865 -1.1886731 -2.8120694 9
-2.7961855 -0.96334416 -2.7544513 11.2
-0.80949056 -0.81712663 -2.8132038 11.5
-2.8283439 -0.56221926 -2.8103428 13.5
-0.8437959 -0.43493646 -2.8238807 14
-2.8537517 -0.30922878 -2.753274 15
-2.7588229 -1.6554006 -2.3234363 7
2.2634139 -1.2087806 -2.2272737 7
-2.7914329 -1.3462011 -2.3384881 9
-0.83217871 -1.0871904 -2.1897504 10
-0.80011255 -1.2023087 -2.4699814 9
2.2413683 -0.94510651 -2.3492563 8.666667
-2.8211985 -1.0005529 -2.3801577 11.2
-0.84969831 -0.89506537 -2.1969521 11.5
-0.83673704 -0.78995985 -2.4774396 12
2.2091346 -0.56604815 -2.3970389 11
-2.8611541 -0.5867703 -2.3274934 13.833333
-0.87938899 -0.56794226 -2.2080822 14
-0.86934882 -0.43471688 -2.493638 14.5
2.1739311 -0.15009129 -2.412199 13.5
-2.8717914 -0.36864018 -2.4653478 15
2.1446314 0.099399924 -2.3924792 15
-2.798449 -1.6450938 -1.8954048 7
2.2542562 -1.2056038 -2.1067321 7
-2.8186679 -1.3353196 -1.9861495 9.1428576
-0.82937121 -1.2448026 -2.0384088 8.8000002
2.2110877 -0.90269482 -2.0238402 9
-2.8495831 -0.9918083 -1.9746454 11.5
-0.87390298 -0.78489447 -1.9973559 12.6
2.178237 -0.52535319 -2.0098577 11.5
-2.8822136 -0.64394122 -1.998822 13.8
-2.8463802 -0.74144125 -2.1794169 13
-0.89684272 -0.46660841 -2.0788023 15
2.1419082 -0.13761914 -2.018954 14
2.2093716 -1.1920325 -1.5711913 7
-0.86576128 -1.1818385 -1.6289804 9.5
2.1822314 -0.91581804 -1.6118219 9
-0.90130156 -0.79888302 -1.6459033 13
2.1469498 -0.49385327 -1.6304369 12
-0.92204112 -0.57250458 -1.6541364 15
2.1118517 -0.13585031 -1.6215978 14.5
-0.88067865 -1.4364911 -1.1447763 7
2.1663833 -1.1792822 -1.0531001 7
-0.89979607 -1.1833011 -1.1687465 9.7777777
2.1559391 -0.92751515 -1.2157278 9
-0.93264192 -0.80777299 -1.2101851 13.714286
2.1182566 -0.5420531 -1.2078161 12
2.0882115 -0.19211411 -1.2386062 14.6
-1.3594275 -1.5479915 -0.70402908 6
-0.90727645 -1.4516094 -0.77339458 6.6666665
0.68746269 -1.3654574 -0.65794683 6
2.1319437 -1.1710001 -0.68994546 7
-0.92900705 -1.1887791 -0.79610085 10
2.1271963 -0.93912733 -0.78410816 9
-0.95800149 -0.86451614 -0.80315876 14
2.0894904 -0.54439151 -0.78900814 12.333333
2.0709867 -0.24565661 -0.88907456 14.666667
-1.6790497 -1.5727255 -0.52395272 6
-0.95988131 -1.4331113 -0.38241458 6.75
1.0416189 -1.329988 -0.43602252 6
1.3008095 -1.3019419 -0.19799471 6
2.0998573 -1.1627003 -0.32043445 7
-0.98574346 -1.1846986 -0.39945495 10.5
2.090353 -0.89478344 -0.38574636 9.5
-1.011018 -0.9113307 -0.40739501 14.5
2.0564947 -0.51384449 -0.38141966 13
2.0351505 -0.29475427 -0.34804463 15
-0.93082881 -1.495019 0.13153839 5
-0.70607293 -1.4772235 0.048493266 5
0.32543629 -1.3833913 0.19767451 5
1.4785115 -1.2825955 0.0029437542 6
2.1005764 -1.1555243 -0.065885544 7
2.0636306 -0.90672553 0.0067915916 9.5
2.0279183 -0.50177753 -0.00094461441 13.5
-1.1890514 -1.5144041 0.28071213 5
-1.0358264 -1.4458942 0.49536008 5.75
0.15679514 -1.3908232 0.57730865 4
0.60180014 -1.3539878 0.42690432 5
1.7176937 -1.2538356 0.3943404 6
2.0529304 -1.1462222 0.42373794 7
-1.0302534 -1.2414937 0.5748781 11
2.0336046 -0.91669106 0.42082781 9.5
1.9981722 -0.53766406 0.42460883 13.555555
-1.0200825 -1.4195478 0.69593722 6
0.28585476 -1.3767393 0.68444037 4
0.49287874 -1.3550839 0.92212427 4
0.90823114 -1.318485 0.86526352 5
1.9269267 -1.1993819 0.87033969 6.3333335
2.029994 -1.1400172 0.74818778 7
-1.0410764 -1.2208965 0.70198035 11.888889
1.9909908 -0.88096356 0.87274224 10
2.0083833 -0.91554105 0.79736787 9.5714283
1.9556757 -0.53394902 0.9511528 14
1.9804126 -0.56591189 0.75537205 13.5
-0.3962912 -1.4228374 1.3725115 29
-0.3247897 -1.4164881 1.371998 29
0.61130095 -1.3384508 1.2531786 4
1.0211788 -1.3016298 1.2550056 5
1.9739484 -1.1764857 1.2654855 6.5
1.9639226 -0.88619322 1.2731165 10
1.9359165 -0.54713923 1.2640753 14
-1.0190758 -1.5814567 1.5851911 3
-0.4029173 -1.4237381 1.4653202 20.608696
-0.32427663 -1.4147607 1.4647913 21
0.61215031 -1.2720975 1.4744278 5.7142859
1.9716381 -1.176663 1.5473499 6.5
0.57961464 -1.0987422 1.4808115 10.833333
1.9441079 -0.88953865 1.558874 10
1.9127296 -0.55479592 1.5521634 14
-1.5811706 -1.5132533 2.0634859 5
-1.3743134 -1.4964509 2.0252528 4.5
-1.0592656 -1.4671388 2.0816987 4
0.35169876 -1.3024281 2.0051825 5.1999998
0.38889199 -1.0972385 1.9117992 11.142858
-1.9897952 -1.4864664 2.387151 6.5
-1.339992 -1.4859015 2.3644972 5
-1.0018423 -1.4543417 2.4576249 4.6666665
-0.56555259 -1.4183351 2.3294814 4
-0.12461117 -1.3805143 2.3170772 4
0.39482677 -1.3316019 2.5174952 5
0.62891906 -1.3152978 2.3193538 5
-2.0153148 -1.2171493 2.3961053 10.5
-2.0408618 -0.93942344 2.3944516 14.5
-2.0229764 -1.4911236 2.8011808 6.5
-0.86729014 -1.4390169 2.6771729 5
-0.5594188 -1.4108952 2.7500186 5
-0.120904 -1.3727546 2.7323003 5
0.18486202 -1.348205 2.6445308 5
1.4052945 -1.2400684 2.885541 6
-2.0422268 -1.22271 2.802279 10
-2.0707648 -0.91059095 2.7853615 14
-2.0459275 -1.452078 3.1716475 7
-1.7928408 -1.5091846 3.2148862 6
-1.4998994 -1.4799187 3.41659 6
0.83270764 -1.2792372 3.3530149 6
1.0632734 -1.2631491 3.2126064 6
1.2602502 -1.2492415 3.0274656 6
1.8662785 -1.1218823 3.2928236 7
-2.0675097 -1.2137127 3.1663342 9.7777777
1.837432 -0.86872625 3.2117276 9.5
-2.0976949 -0.88141656 3.1924372 13.5
1.8047072 -0.46445066 3.2014627 13.4
1.7750832 -0.26861644 3.3468199 15
-2.0645285 -1.4521141 3.4724479 7
-1.2411213 -1.4549346 3.5321615 6
-0.96066916 -1.4289172 3.6211348 6
-0.51109177 -1.3888196 3.7004433 6
-0.14234371 -1.3573568 3.6977932 6
0.21845597 -1.3270173 3.6153045 6
0.52737784 -1.3025236 3.5108774 6
1.8231307 -1.1227793 3.6175914 7
-2.0946159 -1.2091718 3.568403 9.5
1.8116912 -0.85571355 3.6309466 9.3999996
-2.1289396 -0.81147879 3.5653651 13.5
1.7763425 -0.46659166 3.6395915 12.833333
1.7597059 -0.22370648 3.5822911 15
-2.0990465 -1.4528205 4.0165324 7
1.8089901 -1.1218606 3.9556351 7
-2.1200333 -1.2213271 4.0136619 9.1111107
1.7943412 -0.90347648 3.9734945 8.833333
-2.1588869 -0.81692874 4.0128078 12.7
1.7572979 -0.46421129 3.9376609 12.5
-2.1778269 -0.55575204 3.9847662 15
1.7336291 -0.19425321 3.9453244 14.666667
-2.1352217 -1.4542165 4.5463753 7
1.7709867 -1.1224643 4.4137611 7
-2.1503959 -1.2100406 4.39645 9
1.7669564 -0.83974159 4.3187551 9.1999998
-2.1779506 -0.84129936 4.3745799 12
1.7338949 -0.47697228 4.3059363 12
-2.2058322 -0.52350789 4.3733025 14.5
1.697481 -0.11719584 4.3823633 14.571428
1.7472099 -1.1223223 4.8986983 7
-2.1748495 -1.1868277 4.7718501 9
1.737692 -0.84034175 4.7686615 9
-2.208185 -0.77832705 4.7733545 12
1.7078091 -0.45219249 4.696682 11.8
-2.2412529 -0.4231171 4.7886548 14.5
1.671611 -0.10909522 4.8224597 14
-1.4438506 -1.3877108 5.3410797 7
-0.9468419 -1.3429646 5.3915377 7
-2.20224 -1.1620317 5.1754622 9
1.7106677 -0.79360056 5.1347609 9.166667
-2.2373219 -0.79912251 5.2210188 11.4
1.6817876 -0.41704226 5.0998545 11.666667
-2.2698531 -0.40182912 5.1977215 14
1.6478571 -0.071917057 5.1178575 13.857142
-2.1912653 -1.4567358 5.4329343 7
-0.45355743 -1.2996536 5.4259262 7
-2.2213268 -1.2195405 5.531014 8.5
-1.1758897 -0.90620309 5.6196609 10
1.6981961 -0.88319308 5.4255023 8.5
-2.2566895 -0.81782603 5.5415401 11
-1.1980066 -0.67495787 5.6278763 11.5
1.6652824 -0.47831333 5.4451566 11
-2.2901974 -0.43355131 5.546236 13.333333
-1.2396815 -0.27369988 5.6603174 14
1.6203483 0.011041284 5.4055467 14
-2.308733 -0.16362906 5.5036159 15
1.6084664 0.18230128 5.4077587 15
-2.2487483 -1.2006223 5.9404688 8.5
-2.28145 -0.80586678 5.9113069 10.8
-2.3226166 -0.37425184 5.9507933 13.2
-2.345418 -0.053902149 5.9142742 15
-2.2733192 -1.4615221 6.5865078 7
-2.2808533 -1.1779976 6.4253173 8.5
-2.3149872 -0.7993229 6.4224262 10.5
-2.349833 -0.41425264 6.4200487 12.5
-2.3818765 -0.021355152 6.407896 14.5
-2.2874994 -1.4622171 6.8685064 7
-2.3160064 -1.1575941 6.8694439 8.5
-2.3480349 -0.75022495 6.8533492 10.5
-2.3830152 -0.33686882 6.8440809 12.5
-2.4179616 0.086223483 6.8321519 14.5
0.86948514 -1.1866802 7.2217975 7
-2.3348544 -1.142754 7.1859913 8.5
-2.3749056 -0.7121129 7.1870384 10.5
-2.4014912 -0.3863107 7.1767464 12
-2.4306078 -0.053697228 7.1721325 13.5
-2.4576211 0.28367734 7.1599307 15
-0.04959026 -1.2628515 7.654942 7
0.46836996 -1.219507 7.4525533 7
1.568903 -1.1291702 7.7562342 7
2.1439552 -1.0834256 7.7799916 7
2.6956873 -1.0406511 7.6720152 7
-2.1973968 -1.114921 7.5169473 8.5
-0.15184984 -0.91810149 7.6462383 8.6000004
0.310399 -0.89807165 7.6704206 8.5
0.70810413 -0.86018562 7.7029104 8.5
1.0971518 -0.80044103 7.7138429 8.6000004
1.4406513 -0.81269002 7.7436233 8.3999996
1.9036275 -0.74353218 7.7722683 8.5
2.2759895 -0.66521299 7.7859373 8.666667
-2.1804097 -0.71913302 7.5130463 10.25
-1.8031189 -0.63630015 7.5384407 10.5
-1.3458946 -0.58007437 7.5624909 10.6
-0.94519925 -0.56934679 7.5882363 10.5
-0.52032685 -0.53118211 7.6173577 10.5
-0.16039418 -0.49625725 7.644114 10.5
0.27259445 -0.45275944 7.6650252 10.5
0.66877902 -0.40976632 7.6895642 10.5
1.0369654 -0.48388433 7.7121062 10
1.3682479 -0.44689488 7.7242684 10
1.8722557 -0.38622141 7.7629271 10
2.1925988 -0.34744418 7.7758956 10
-2.2835443 -0.41829741 7.5010858 11.6
-1.8302145 -0.30110878 7.5242858 12
-1.3847258 -0.26962495 7.5568633 12
-0.97357267 -0.23680174 7.5829549 12
-0.54891944 -0.1982398 7.6117744 12
-0.18921599 -0.1629585 7.6304536 12
0.24372387 -0.11529922 7.6575942 12
0.63955069 -0.067575812 7.6841512 12
1.0043918 -0.16200578 7.7045455 11.4
1.3754903 -0.06655097 7.7245135 11.6
1.8400239 -0.025769711 7.7524142 11.5
2.1630607 0.021450996 7.7738309 11.5
-2.2861953 0.021328449 7.493227 13.5
-1.8618636 0.043297648 7.5275674 13.5
-1.4134576 0.069494605 7.5479546 13.5
-1.0023901 0.10104668 7.5733981 13.5
-0.57785934 0.14005768 7.6017947 13.5
-0.21849102 0.17555666 7.6156969 13.5
0.21441007 0.22896326 7.652976 13.5
0.60960352 0.28053224 7.6766047 13.5
0.96648502 0.33015776 7.6930552 13.5
1.3047991 0.38373709 7.7191706 13.5
1.8001333 0.46549237 7.7488375 13.5
2.1290054 0.39298654 7.7608557 13
-2.3190935 0.37698054 7.4942374 15
-1.8902918 0.39105761 7.5146308 15
-1.4590362 0.41593945 7.5451236 15
-1.1142852 0.4400897 7.563076 15
-0.60734951 0.48524857 7.5938525 15
-0.24806729 0.52485132 7.6179442 15
0.1841591 0.57906878 7.6439409 15
0.57963729 0.63686907 7.6734095 15
0.93563366 0.6902467 7.6856842 15
1.2564695 0.7469089 7.7111802 15
1.6809119 0.8249917 7.7356491 15
2.0976977 0.77528787 7.7571197 14.5
2.4048471 -0.81637919 7.8043776 8
2.6521893 -0.66722 7.8161831 8.5
2.3605499 -0.32598978 7.7895346 10
2.6166682 -0.29354548 7.8015699 10
2.3316522 0.047397614 7.7893238 11.5
2.5877585 0.086387873 7.8018756 11.5
2.2984867 0.42429018 7.779933 13
2.5529156 0.46895635 7.7901411 13
2.2633309 0.80835485 7.7672424 14.5
2.5196061 0.8613677 7.783062 14.5
0.69386876 -1.0808791 -5.7210059 8.6754999
0.1103631 -1.1500545 -4.8333988 8.6774998
0.081229657 -0.82214069 -4.8396912 10.1775
0.53025937 -0.77854776 -4.8272028 10.1755
-1.0441458 -1.0855502 0.5542044 15.0185
-1.0466235 -1.1704109 0.7055034 13.396438
0.562558 -1.196743 1.5733645 8.1300001
0.37455326 -0.97910655 2.0017259 14.616
-1.9964101 -1.3308613 2.292887 9.059
-2.0590928 -0.93512404 2.4934063 14.5615
-1.0061871 -1.1371286 5.4926353 8.5855007
-0.50763065 -1.0924989 5.5267606 8.5889997
2.155797 -0.10659674 -0.16795671 6
2.1462827 -0.026928877 1.6215959 7
-0.98647159 0.050947469 -1.8876081 8
2.1232522 0.029988039 1.6195185 8
4.9137759 0.11020713 3.1603506 8
5.4435019 0.12503979 3.7879786 8
-1.0488644 0.10334411 -4.0199232 8
-1.7479217 0.046682391 -1.8843858 8
2.1446443 0.040127754 0.78671265 8
2.1216996 0.033331349 1.2445395 8
0.26212341 -0.0018575341 3.9200773 8
2.1444948 0.054598022 -0.1097405 8
-1.7504647 0.0013038497 0.34913576 8
2.1438265 0.061137628 -0.41701913 8
3.450227 0.067098856 3.8551998 8
-1.7611399 0.018333476 -0.57823157 8
-1.7555008 0.0081280991 -0.046425939 8
-0.99471802 0.18144512 -1.9007747 9
2.1370907 0.087843508 1.6217299 9
0.60372144 0.17882217 -1.7677186 9
4.909039 0.27541792 3.1608672 9
5.4581389 0.31728762 3.7979348 9
-1.7486548 0.18901129 -1.8813071 9
-1.7382615 0.071486056 1.0780027 9
-1.7424154 0.089896649 0.35451746 9
2.1178062 0.089994758 1.2453909 9
-1.7709711 0.15489271 -1.194392 9
2.1458666 0.13674 -0.15914106 9
0.26148361 0.084489077 3.9151947 9
2.1050224 0.13327184 3.8631296 9
-1.7493091 0.077621847 0.80219436 9
-0.99017817 0.31073156 -1.8855417 10
-0.33453798 0.044476416 1.7754984 10
2.1394222 0.14577802 1.6226065 10
0.60223323 0.29421568 -1.7731519 10
0.076442868 0.046832327 2.266058 10
4.8946242 0.44004127 3.1575902 10
5.4354119 0.50758833 3.7900717 10
-1.750437 0.33186442 -1.8797665 10
2.1124949 0.17336231 0.51415056 10
2.1365864 0.24970888 -0.58818793 10
-1.7466476 0.15275069 1.0774043 10
3.7146466 0.35574061 3.8550107 10
-1.7773371 0.16565378 0.72289425 10
1.4066721 0.1973184 3.8702741 10
2.1044281 0.2349702 3.8653023 10
-0.99673933 0.44308642 -1.8948843 11
0.5539636 0.41818401 -1.8408411 11
2.1298203 0.20265567 1.6220871 11
0.82792145 0.40266544 -1.6797566 11
4.8595424 0.60181355 3.146188 11
-1.7883174 0.47206751 -1.8283188 11
2.1409898 0.22545512 0.78874981 11
-1.7663908 0.40237424 -1.1828923 11
4.35498 0.57162637 3.8524988 11
2.1333792 0.38897443 -1.0103962 11
-1.7789958 0.23989172 1.0046728 11
2.1123888 0.21048678 1.0305219 11
-1.7700295 0.35543174 -0.70115924 11
3.5331848 0.47762841 3.8598711 11
2.1512108 0.25973922 0.29564488 11
2.1460862 0.28312042 0.022210598 11
0.22373205 0.25821906 3.9152579 11
2.1438911 0.32609791 -0.41937947 11
2.7161133 0.39251247 3.8645813 11
-0.99125391 0.57269108 -1.8775349 12
0.55223101 0.53496021 -1.8258131 12
2.1303561 0.2611571 1.6227614 12
0.071240664 0.11315833 2.2743721 12
0.82714528 0.51811749 -1.6879363 12
5.4369044 0.8593151 3.0559897 12
-1.7918956 0.61671841 -1.8293157 12
0.22172105 0.34723607 3.9223955 12
4.3525519 0.73336071 3.8538342 12
2.1363266 0.2911751 0.73577493 12
3.5262599 0.61450112 3.8570969 12
2.1438587 0.36094767 0.023911595 12
-1.7677643 0.45351359 -0.57500601 12
-0.99610287 0.70739871 -1.8829753 13
0.55057341 0.65646482 -1.8325164 13
-0.32906449 0.14047235 1.7739154 13
2.1267498 0.31954044 1.6229537 13
0.073674202 0.14542778 2.2694025 13
0.82602364 0.63476944 -1.6925519 13
5.4490457 1.0965427 3.8057165 13
5.428195 1.0450761 3.0556409 13
-1.7666137 0.7706598 -1.8908827 13
1.8234415 0.51428616 3.8779612 13
2.1346164 0.46384901 -0.1494813 13
3.7049496 0.78392923 3.8560412 13
2.1323354 0.53178561 -0.58546281 13
2.7122529 0.62689823 3.866045 13
-1.7768052 0.42421156 0.72646761 13
-1.7654059 0.39129642 1.535784 13
-1.0101171 0.84959704 -1.9085112 14
2.1361623 0.38173568 1.6246965 14
-0.74427885 0.57497025 3.909333 14
-1.7597129 0.47968128 1.9303554 14
-1.0689807 1.3308741 -4.0195723 14
5.4278197 1.2918804 3.7986457 14
5.4260969 1.234622 3.0575011 14
-1.7994235 0.91192532 -1.8316743 14
2.0994649 0.43608928 0.52172029 14
4.3497643 1.0632361 3.8579123 14
2.1256156 0.71026278 -1.002584 14
2.1151211 0.3911528 1.0308125 14
2.9695914 0.79062426 3.8587637 14
-1.7598002 0.48556289 1.0787258 14
2.1366789 0.54098052 -0.10470629 14
1.4020612 0.56765914 3.8752234 14
-1.7521496 0.50102109 0.80672228 14
2.1382806 0.63107312 -0.59429669 14
-1.0039122 0.98294383 -1.8894114 15
2.1360686 0.44297656 1.6253264 15
-0.75306386 0.68085176 3.9244235 15
-1.753226 0.56382388 1.929554 15
-1.0699661 1.5421612 -4.0108776 15
5.4216228 1.4935946 3.798831 15
5.4316821 1.4295676 3.0619447 15
-1.7704015 1.0713871 -1.8876932 15
1.8206313 0.71747762 3.8798625 15
-1.7644234 0.81212234 -0.68581176 15
-1.7727423 0.57856148 1.0098404 15
2.137069 0.48690662 0.73602211 15
-1.7835064 0.91813481 -1.1900489 15
0.21839911 0.61786145 3.9204197 15
2.9749341 0.92130297 3.8669302 15
3.4393003 1.0209545 3.8656967 15
-1.7750242 0.56137818 1.5374053 15
2.1391768 0.60062462 0.027123928 15
2.142591 0.55158198 0.30149472 15
-1.7663717 0.69805968 -0.041365385 15
-2.9639645 0.62548089 -9.4704895 9
-2.9702327 1.0295591 -9.4689407 10
-2.9752486 1.4357146 -9.4633436 11
-2.9818611 1.8460293 -9.4625473 12
-2.9846053 2.258554 -9.4494734 13
-2.7879624 0.62445277 -9.4574127 9
-2.7994456 1.02793 -9.4732351 10
-2.7974029 1.4293772 -9.4444494 11
-2.8102307 1.8406793 -9.4642868 12
-2.8156219 2.2531586 -9.4594698 13
-0.81741601 0.24572621 -9.5034513 8
-0.90202671 0.63229746 -9.4941921 9
-0.58230501 0.63429081 -9.484848 9
-0.90747124 1.0212952 -9.4901276 10
-0.58925587 1.0232033 -9.4967175 10
-0.91312796 1.4128777 -9.4880104 11
-0.59305125 1.4114397 -9.4769554 11
-0.91766196 1.8064649 -9.4771576 12
-0.5988856 1.8050468 -9.4763546 12
-0.92357475 2.2057989 -9.4756498 13
-0.60424644 2.2024496 -9.4719038 13
0.28565854 0.64485586 -9.5047798 9
0.28042096 1.030411 -9.4933529 10
0.27497023 1.4187853 -9.489769 11
0.26919812 1.8123493 -9.4973755 12
0.2634427 2.2103479 -9.5014477 13
-0.99458057 0.57322085 -8.5248613 9
0.44328851 0.64632386 -9.4946346 9
-1.0011401 0.9300074 -8.5320311 10
0.43796891 1.0311311 -9.4799166 10
-1.0036356 1.2862182 -8.5125065 11
0.43231505 1.421767 -9.4977779 11
-1.0121257 1.8306097 -8.5134516 12.5
0.42699069 1.8106791 -9.4762316 12
-1.0197251 2.3828704 -8.5077477 14
0.42123193 2.2101147 -9.4915199 13
0.028395832 0.22976999 -8.4751263 8
-0.98721248 0.51778978 -7.6026173 9
2.3518879 0.68222213 -9.5168114 9
2.5180352 0.68727148 -9.5375118 9
-0.9925037 1.0033512 -7.5893297 10.5
2.346225 1.074142 -9.5125875 10
2.5094945 1.0793195 -9.5173836 10
-1.0005908 1.4956492 -7.5922089 12
2.3428047 1.4702772 -9.5222492 11
2.5057738 1.4762565 -9.5243864 11
-1.0032992 1.8254811 -7.5778685 13
2.337074 1.868383 -9.5181017 12
2.5007927 1.8761827 -9.5245934 12
-1.008148 2.1619458 -7.5757589 14
2.3288963 2.2678068 -9.4992437 13
2.4928362 2.2773843 -9.5083466 13
-0.98176914 0.61962157 -6.8235893 9.5
-0.98615676 1.0653572 -6.8094845 11
-0.99025875 1.3661346 -6.8062677 12
-0.99861318 1.8267893 -6.8127699 13.5
-1.0054069 2.2953069 -6.8099842 15
-0.96915299 0.15856561 -6.1670446 8
-0.97677094 0.5694201 -6.1729937 9.5
-0.98239309 0.98254484 -6.1685781 11
-0.98599607 1.3995806 -6.1535568 12.5
-0.99118286 1.8241297 -6.1460104 14
-1.0006881 2.1211252 -6.1706972 15
-0.96465594 0.27101031 -5.5959177 8.5
-0.96993703 0.65198314 -5.59237 10
-0.97818261 1.0388808 -5.6024246 11.5
-0.98730415 1.4333258 -5.616065 13
-0.98735744 1.827364 -5.5867567 14.5
-0.96014279 0.25020674 -5.1066971 8.5
-0.96843725 0.60743845 -5.1181774 10
-0.97303122 0.96751517 -5.1130877 11.5
-0.98021108 1.456666 -5.110323 13.5
-0.98745888 1.8345848 -5.1157112 15
0.18278998 -0.089920521 -5.5216999 7
-0.95880491 0.23257364 -4.6888304 8.5
2.0749695 0.20692159 -6.3921165 8
-0.96512491 0.67938673 -4.6852379 10.5
2.0665975 0.62817305 -6.3760004 9.5
-0.96636182 1.0158263 -4.6679192 12
2.0588815 1.0514308 -6.3633833 11
-0.97552747 1.3642355 -4.682703 13.5
2.0530968 1.4817418 -6.3611317 12.5
-0.9801628 1.7162584 -4.6784449 15
2.0456197 1.9172751 -6.350522 14
2.0439303 2.2182918 -6.3610458 15
-0.95465845 0.2162666 -4.3067875 8.5
-0.96080631 0.6372025 -4.3041506 10.5
-0.96645778 1.0639781 -4.2992077 12.5
-0.96890646 1.3884941 -4.2882338 14
-0.97332042 1.6118072 -4.2913322 15
1.8826816 -0.067204952 -5.3874426 7
-0.99786144 0.23808609 -4.0325327 8.666667
2.0761509 0.32440576 -5.8433275 8.5
-1.014688 0.60658097 -4.0203924 10.5
2.0703645 0.71883684 -5.8388691 10
-1.0195978 1.0145501 -4.0138702 12.5
2.0657537 1.1181383 -5.8402987 11.5
-0.98399717 1.4319588 -4.0144663 14.5
2.0595057 1.5218562 -5.8341818 13
2.0574865 1.7980939 -5.8407555 14
2.0489404 2.0705135 -5.8159714 15
2.084132 0.29573548 -5.1694069 8.5
2.0798039 0.65631264 -5.1692963 10
2.073606 1.0197963 -5.161871 11.5
2.0694325 1.4567562 -5.0942059 13.333333
2.0627382 1.8253044 -5.2293062 14.666667
-0.94671565 0.15872127 -2.9338295 8.5
2.0894535 0.38160503 -4.5924492 9
2.0976255 0.16216163 -4.6142473 8
-0.94903713 0.56838 -2.9200904 11
2.085386 0.71389312 -4.5920267 10.5
-0.95478994 0.98653394 -2.916199 13.5
2.0846381 1.0519328 -4.6049109 12
-0.96042663 1.2461098 -2.919966 15
2.0763648 1.3913623 -4.5883207 13.5
2.0706069 1.7387648 -4.5819826 15
-1.7323523 0.18762164 -1.8571925 9
-0.93820268 0.21168007 -2.4337201 9
-0.94034749 0.22733295 -2.7099569 9
2.0967109 0.25797641 -4.2681913 8.5
-1.7287719 0.61869812 -1.873704 12
-0.94208103 0.58109999 -2.4271457 11.5
-0.94982809 0.62224239 -2.7178619 11.5
2.0912066 0.67831159 -4.2661657 10.5
-1.7333193 0.9851895 -1.8609524 14.5
-0.95011276 0.96235001 -2.4310186 14
-0.95154053 1.0239894 -2.7032363 14
2.0854254 1.1047301 -4.263382 12.5
2.0831311 1.4328933 -4.2692146 14
2.0802116 1.6553619 -4.2681246 15
2.1012211 -0.052759226 -3.9592044 7
-1.7806773 0.17241298 -1.5421543 9
-1.7844527 0.18218058 -1.7317946 9
-0.93490988 0.19018057 -2.0581138 9
2.1079633 0.23489009 -3.7102444 8.5
2.0994372 0.24533017 -3.9651344 8.5
-1.7878411 0.57671863 -1.5330079 12
-1.7904832 0.60316187 -1.7283969 12
-0.9420858 0.59303087 -2.0263107 12
2.0979826 0.6155284 -3.6916797 10.5
2.0955665 0.64573169 -3.9679363 10.5
-1.7905521 0.93188459 -1.5082772 14.6
-1.7935777 0.96330702 -1.7226131 14.5
-0.94567281 0.96008325 -2.0452271 14.6
2.0938983 1.0036337 -3.6929862 12.5
2.0900548 1.051881 -3.9652269 12.5
2.0861104 1.3985362 -3.6822498 14.5
2.0821176 1.4658976 -3.9543455 14.5
-1.7720819 -0.091047883 -0.90983129 7
-1.7784851 0.14192408 -0.91111565 9
-1.7768319 0.14938469 -1.080245 9
2.1089818 0.21927765 -3.3360693 8.5
-1.7797601 0.49462035 -0.90430069 12
-1.7814035 0.55174983 -1.079977 12.285714
2.1031311 0.62714213 -3.3087165 10.8
-1.784385 0.8582285 -0.9007194 15
-1.7905147 0.86467773 -1.1380012 14.666667
2.0955267 1.0716776 -3.3479717 13.2
2.0930896 1.4067165 -3.3288672 15
-1.7768178 -0.089956716 -0.59465861 7
2.1210802 -0.043272138 -2.8265398 7
-1.7742867 0.18230255 -0.59274459 9.5
0.5650937 0.18333302 -1.8416066 9
2.1151543 0.1967947 -2.7710998 8.5
2.1107872 0.20578223 -3.005842 8.5
-1.7774246 0.53515118 -0.62312341 12.666667
0.59906286 0.52822083 -1.7768817 12
2.1094611 0.59902114 -2.7831271 11
2.1048884 0.62602001 -3.0023491 11
-1.7768772 0.786735 -0.53839946 15
2.1049559 1.0064176 -2.767504 13.5
2.0987463 1.0551273 -2.9984443 13.5
2.1008968 1.2715342 -2.8108766 15
2.0963328 1.3205014 -3.0000026 15
-1.7608364 -0.088535801 -0.24911118 7
0.82188898 -0.046551645 -1.7166371 7
-1.7694414 0.15264815 -0.035670519 9.5
-1.7683098 0.16127391 -0.21052003 9.5
0.81113273 0.23536403 -1.7013695 9.5
1.0119894 0.16407017 -1.7761023 8.8000002
2.116389 0.27696171 -2.4481969 9.125
-1.7730539 0.54459447 -0.019520998 13.5
-1.7749333 0.57912433 -0.21967089 13.571428
0.76827186 0.56988448 -1.7080944 12.428572
1.0015104 0.53799522 -1.7700164 12
2.1145527 0.64856225 -2.4407232 11.6
2.109169 1.0209489 -2.4499662 14
-1.7581913 -0.08790949 0.28437531 7
-1.336669 -0.15800691 0.070664406 6
-1.1461077 -0.15334967 -0.13955271 6
0.4209367 -0.12560616 -0.83554721 6
2.1319358 -0.036099833 -1.9105437 7
-1.7649214 0.15491843 0.30531049 9.6923075
2.1234362 0.22870281 -1.9329803 9
2.1239557 0.24206243 -2.1721013 9
-1.7685025 0.50815582 0.28988171 13.5
2.1192117 0.63123596 -1.932647 12
2.115865 0.6663394 -2.1636188 12
2.1135285 0.98838991 -1.9228079 14.6
2.1131151 0.95687759 -2.1642873 14
-1.7468276 -0.12956256 0.86972457 6.5
-1.6585646 -0.14668044 0.58097941 6.25
0.83895075 -0.12006436 -0.81475997 6
1.1836605 -0.11579299 -0.74333 6
2.1321893 -0.032119703 -1.3543472 7
-1.7611902 0.1474576 0.82604694 9.833333
-1.7628076 0.16984338 0.60106295 10
2.1400108 0.19306326 -1.2771657 9
2.1333299 0.20583154 -1.5154088 9
-1.7618721 0.50093949 0.84625745 14
-1.7673273 0.52197665 0.6015684 14
2.1242819 0.62876374 -1.5052786 12.5
2.1203814 0.91045839 -1.5573483 14.666667
-1.7564874 -0.1228715 1.1752217 6.5999999
-0.63228375 -0.15393782 0.70414406 5
-0.4473896 -0.14993815 0.4671725 5
0.46833891 -0.13308224 0.097108483 5
1.4352835 -0.11295708 -0.6490438 6
2.1381526 -0.028882019 -0.85863948 7
-1.7555234 0.15202343 1.1662169 10
2.1386077 0.24543135 -1.0448296 9.6153851
-1.7613146 0.48323193 1.1607313 14
2.1319871 0.63875592 -1.0359912 13.285714
2.127465 0.83744657 -1.0697558 15
-1.7564228 -0.1348798 1.6861882 6.5
-1.7517169 -0.13229303 1.4582384 6.5
-0.80853778 -0.15902065 1.0971367 5
0.579956 -0.13341297 0.29835129 4.5
0.89443231 -0.12770437 0.15374517 5
1.916163 -0.088613838 -0.43025398 6.25
2.1439309 -0.027340304 -0.59503579 7
-1.752435 0.1462215 1.6722577 10
-1.7565682 0.14735354 1.4661236 10
2.1462727 0.23751117 -0.41656077 10
2.1446848 0.20601733 -0.61817932 9.5
-1.7567902 0.47407097 1.6716908 14
-1.7561786 0.47365811 1.4608424 14
2.1425161 0.55383301 -0.42744911 13.5
2.1371353 0.58746922 -0.61774993 13.5
-0.86924618 -0.16446044 1.6190188 5
-0.86757451 -0.16224422 1.4505045 5
0.73563182 -0.13220781 0.53303438 4
1.033496 -0.13014783 0.63525319 4
1.366184 -0.12299526 0.37925899 5
2.1503503 -0.064438239 -0.08516717 6.5
-1.7503731 0.18173517 1.9100912 10.428572
-0.8682223 0.095653951 1.7830483 10.272727
2.1517484 0.21499527 -0.10337305 10
-1.7616746 0.47959915 1.8972154 14
2.1448684 0.55289763 -0.092165709 14.142858
0.48318464 -0.1413586 1.4725611 29
0.54538363 -0.14018212 1.436743 29
1.3287287 -0.12743486 0.88961977 4
1.67203 -0.12064214 0.67931265 5
2.1480696 -0.055322703 0.50717223 6.5
2.1580362 -0.059699841 0.23485327 6.5
-0.73841709 0.096182629 1.7820091 10.5
-0.43758416 0.11050966 1.7768606 11.652174
2.1453645 0.23807086 0.46783066 10.857142
2.1561959 0.22953565 0.22898078 10.5
2.1513817 0.51156569 0.41172123 14.666667
2.1510046 0.49199203 0.21313334 14
0.069373637 -0.16302171 1.9374784 3
0.52950066 -0.14138323 1.5529891 21
0.59169966 -0.14020677 1.517171 21
1.4546955 -0.12591991 1.1314993 4
1.8088951 -0.11870046 0.93848217 5
2.1333258 -0.051877543 0.8463015 6.5
2.1272135 0.21014644 0.84298295 10.809524
2.126651 0.45593172 0.7444697 14.571428
-0.012988806 -0.16581623 2.4640903 3
0.25208509 -0.15411487 2.4090097 4
1.4790146 -0.13185292 1.6891137 4
1.7131133 -0.12620135 1.4599742 4.5
2.0695748 -0.06817238 1.2819718 6.1428571
0.068883657 0.048032071 2.2797635 10
2.1299255 0.20656468 1.2966807 11
2.130621 0.44521365 1.2883472 15
0.16629279 -0.15906598 2.8049326 5
0.48300481 -0.15432337 2.7196698 4.6666665
0.80324399 -0.14629059 2.3929751 4
1.1836146 -0.13924424 2.1703463 4
1.6192987 -0.13214383 2.049211 4.6666665
1.8636827 -0.12667635 1.7902359 5
2.1322703 -0.054414041 1.5370314 6.5
2.1343577 0.2042474 1.5396817 11
2.1331236 0.44110575 1.5418797 15
-0.2097134 -0.17236996 3.6806526 6
0.7072711 -0.1528378 2.8464637 5
1.0443304 -0.14638971 2.7392769 5
1.3619767 -0.14070971 2.5584521 5
1.6102941 -0.1343628 2.3057406 5
2.8121583 -0.11347726 1.8503342 6
-0.58879358 0.14411229 3.9113853 9.636364
-0.60186273 0.5064007 3.9156406 13.4
-0.40176654 -0.10000354 3.9050581 7
-0.13920349 -0.09484002 3.9008896 7
0.24267823 -0.12720829 3.8332622 6.5
0.51166254 -0.16276297 3.786742 6
1.1675246 -0.134232 3.3759694 6
2.5246425 -0.12391359 2.6169603 6
2.6721802 -0.11907718 2.2984507 6
-0.13464606 0.16376871 3.903897 9.916667
0.19817948 0.15786371 3.9015043 9.8571424
-0.45181632 0.55310655 3.9124033 14
-0.17955583 0.52738291 3.9092202 13.9
