# .PCD v0.7 - Point Cloud Data file format
VERSION 0.7
FIELDS x y z intensity
SIZE 4 4 4 4
TYPE F F F F
COUNT 1 1 1 1
WIDTH 1249
HEIGHT 1
VIEWPOINT 0 0 0 1 0 0 0
POINTS 1249
DATA ascii
1.4032936 -0.48972711 0.46077478 6
1.9574058 -0.58153534 0.64037603 12.557264
3.1651902 -0.41964015 0.60663807 5.625
4.5249777 -0.40169394 0.58761781 4
-7.7556591 -0.2098522 0.57086277 13.961111
-1.7480568 -0.095134906 0.56607592 6.7738099
-1.2339957 -0.21416885 0.67604673 11.5
-1.0688024 -0.20512274 0.62454385 10.913979
-0.59785831 -0.14239776 0.62429571 4.6666665
-0.37375718 -0.1168239 0.7913602 3
0.10081997 -0.12771046 0.47507247 21.055555
0.63652438 -0.13287097 0.6405527 4.3333335
1.0268093 -0.13095205 0.61493903 4.6999998
1.3265263 -0.13544643 0.62318689 5.3333335
1.8994453 -0.13588515 0.59757608 9.9285717
2.1221762 -0.17516741 0.59867388 7.8486662
3.1261277 -0.18673727 0.59447265 10.55562
3.2477498 -0.18234946 0.62731606 8.8453379
3.7453592 -0.36335397 0.40214804 29
4.7418108 -0.27702799 0.57308447 4.1666665
5.0265398 -0.27096617 0.61925793 5.3000002
5.4228272 -0.14802346 0.58281034 7.7107692
-7.7143154 0.15974425 0.59827769 14.25
-1.7532641 0.20668119 0.58802515 10.490614
-1.2281138 0.2073025 0.64754921 11.5
-1.0833949 0.21730356 0.64419389 13.611111
1.9178133 0.25952622 0.60659832 11.666667
2.1128345 0.205622 0.60860199 10.911057
3.0895612 0.22332668 0.66729122 13.796249
3.2216668 0.18122432 0.69687146 14.571428
4.1680388 0.1914091 0.44272819 11.989797
5.4169722 0.16118854 0.53982151 11.733096
-1.7692069 0.51340884 0.62985283 13.270166
-1.2569202 0.55534619 0.67207134 13
-1.130016 0.53117377 0.67968774 14.666667
1.9046215 0.59704584 0.57230556 13.657143
2.1142585 0.49303129 0.60396725 13.665666
4.1235895 0.47483745 0.42395306 13
5.4325538 0.57808167 0.56488883 12.666623
-1.7941768 0.91604453 0.61238974 13.52
-1.2965461 0.95656598 0.69570941 14.5
1.8931795 0.90935725 0.53760254 14.75
2.0858378 0.97085512 0.57049292 13
5.4124885 0.98365778 0.55206472 13.944446
-1.8183092 1.264816 0.68277103 14.666667
1.9956398 1.3118029 0.50102997 15
2.0448217 1.4364182 0.60392517 14.333333
5.376626 1.3870623 0.56471145 14.75
1.9863477 1.7266359 0.75085896 15
2.0161276 1.7274821 0.49454802 15
-1.0179214 -2.1826105 0.97836047 8.083333
-0.68010187 -2.3081839 0.98686886 5
-7.6644835 -1.667155 1.0660006 9
-7.5427389 -1.6828673 1.0035579 7
-6.4101624 -1.612669 1.0459085 8.0319996
-6.2759171 -1.7993317 1.0737294 7.5174999
-3.0084162 -1.609736 1.080143 6
-1.0372629 -1.8574352 1.0002162 12.003375
-0.67538589 -1.8328288 1.1419568 5
-7.7024679 -1.452973 1.0364031 9.5714283
-7.4778767 -1.3827022 1.0537659 8.7321835
-7.0817833 -1.3906089 1.12607 8.6547613
-6.5836501 -1.4472049 1.1269929 8.4050007
-6.2198439 -1.3193099 0.96442187 7.5634284
-5.9101777 -1.3159951 0.99769235 6.5666666
-5.4272079 -1.3328608 1.0377841 5
-4.975245 -1.2941658 0.98911905 4.8000002
-4.5955229 -1.2578636 0.95142078 5
-4.1811228 -1.2353352 1.0545344 4.875
-2.907311 -1.5347915 1.1116986 6
-1.9559931 -1.4851645 1.079052 5
-1.379815 -1.4168503 1.1572233 4.5
-1.0272336 -1.4352872 1.1033951 11.753858
-0.59031779 -1.3650969 0.84261942 3.5
-0.14389673 -1.2873073 0.99785316 4.666667
0.14603174 -1.3108711 0.93981498 4
0.51998371 -1.3124714 0.98661673 4.5
0.90823114 -1.318485 0.86526352 5
-7.6520338 -0.97623938 1.0518261 11.780519
-7.4700928 -0.99164253 1.05985 11.912694
-7.1164207 -0.88518083 1.1375403 13.25
-6.6477356 -0.84841889 1.1255006 12.5
-6.1957755 -1.1800908 1.0098094 9.0572138
-5.9407134 -1.1745993 0.94784892 9.9444447
-4.1492438 -1.1833285 1.0493594 4.3333335
-3.728756 -1.1338832 0.9702794 4.6666665
-3.5129578 -1.1167457 1.014359 5.125
-3.0339708 -1.0464067 0.95988518 4.625
-2.6046498 -0.99327254 1.0064365 4.75
-2.2089422 -0.95727843 0.97128105 4.5
-1.707248 -0.85893029 1.0014884 4.5
-1.2630253 -0.8913064 1.0489218 10.5
-1.0949787 -0.99411583 0.92326272 7.992064
0.18593311 -1.189605 1.1246111 6
1.0360417 -1.144913 0.92641205 6
1.8883686 -1.0027423 0.94830829 7.9047618
-7.6797109 -0.60014528 1.043138 12.981482
-7.4716625 -0.64245164 1.1111629 13.521739
-7.0817418 -0.44093484 1.0756086 14.333333
-6.6936312 -0.44821972 1.1087838 14.5
-6.2388582 -0.59793186 1.1540941 13.958334
-5.8036413 -0.4587782 1.1835905 15
-1.2624879 -0.58066267 1.0520617 10.564409
-1.0993019 -0.60257035 0.97200012 8.666666
-0.5997054 -0.72031492 0.88286787 4.3333335
-0.099449396 -0.65767401 0.9937402 5
0.52110577 -0.59307301 1.0773542 6
1.0140057 -0.69607294 0.97279853 7
1.9150158 -0.60956681 0.97863644 11.722222
-7.7407088 -0.20199603 1.0437375 14.545455
-7.4158959 -0.31211498 1.0563483 14.5
-7.0949435 -0.33175856 1.189803 15
-1.7581116 -0.11163259 1.0196681 6.6833329
-1.2463515 -0.21117413 0.95286649 12.875604
-1.0550125 -0.2089192 0.95931512 9.5500002
-0.59032106 -0.12509726 1.0895144 4
-0.2211971 -0.12249517 0.96581376 4
0.21988992 -0.12245558 0.96565437 4
0.68557483 -0.13722612 1.0107559 4.6666665
0.98908186 -0.13108228 0.99399382 4.5833335
1.383178 -0.12747569 0.96764863 4.5
1.8663913 -0.17573631 0.95848066 9.4025974
2.1252351 -0.11612655 1.0085419 7.4927773
3.1270494 -0.15434168 1.0038769 9.9776268
3.2863564 -0.1547935 1.0096105 8.2170334
3.8575664 -0.34322059 0.9248991 21
4.2668948 -0.25679159 1.0150146 5.25
4.6309905 -0.3006984 0.89152813 3.8333333
4.9221473 -0.29523271 0.97820061 4.5
5.4304461 -0.15283063 0.99345589 7.6153846
-7.7502098 0.21731141 1.0074934 14.625
-7.4303498 0.064474523 1.1948167 14.5
-1.7451302 0.17841046 1.0091777 9.833334
-1.2397753 0.17479371 0.99684477 13
-1.0987964 0.13051225 0.93075943 13.115385
1.9177164 0.28244278 1.0189126 11.791667
2.1575394 0.21018112 0.98245239 11.010814
3.0918248 0.21365114 0.96009272 12.789619
3.211503 0.24878365 1.0910599 14.25
5.4152274 0.19506812 0.97749144 12.335055
-7.7318869 0.41066694 1.1318364 15
-1.7536471 0.53558606 0.98891735 13.426666
-1.2689967 0.58692098 0.99705273 13.920833
-1.1214941 0.53038985 0.91465026 14.314285
1.897452 0.59161615 1.01097 14.333334
2.1709595 0.47334671 0.99318928 14.045152
3.1203077 0.66801667 1.1856039 14
5.4305911 0.58385259 0.956218 13.037662
-1.7793566 0.89581758 0.95947862 13.5
-1.3110607 0.97849107 1.0678873 14.25
-1.0650132 1.0423981 0.83784509 14.5
1.8191183 0.87058747 0.97081596 15
2.0690627 1.0237565 0.99478406 13.166667
5.3884096 0.97063893 0.91443062 14.3
-1.7952263 1.2291206 1.0316852 14.75
1.9898815 1.4336305 1.1508207 14
2.0491648 1.4546672 0.93176353 15
5.32341 1.3660305 0.92702293 15
1.9581413 1.7360585 1.1497228 15
-2.0208383 -2.1454244 1.5114231 10
-1.8803107 -2.1748247 1.4358864 9.3472223
-1.3858734 -2.1390052 1.5222286 9.8142853
-1.1492254 -2.1319931 1.4504826 9.6498775
-0.72996533 -2.3814797 1.318985 3
0.24360165 -2.2112899 1.3516066 4.75
0.45866477 -2.1890049 1.4151516 5
-7.3522949 -1.6307201 1.215867 8.75
-6.8256459 -1.6062498 1.2494892 9
-6.4065404 -1.6024995 1.3703278 8.5
-6.2634335 -1.7526298 1.249277 7.8333335
-5.7716484 -1.7059983 1.3348422 8
-5.4036865 -1.7782786 1.3539728 7
-4.855288 -1.6940705 1.3869925 7
-4.237597 -1.6489152 1.4462986 7
-3.7201533 -1.6045365 1.490316 7
-2.0385525 -1.8906714 1.486461 14.178
-1.9721071 -1.8916284 1.4242802 14.195437
-1.3427182 -1.9448091 1.5217844 14.508334
-1.0792468 -1.7824695 1.3894569 9.8249998
-0.66231352 -1.8963604 1.5378613 3
0.2684854 -1.7326018 1.5356317 4.5
0.51064193 -1.7138577 1.4492142 5
-7.6045203 -1.2599459 1.3456745 10
-7.4260182 -1.4229378 1.2856698 8.9675322
-6.9518251 -1.3695109 1.2675693 8.7027779
-6.7069254 -1.3594606 1.3154854 8.2857141
-6.1075349 -1.3400061 1.3177253 7.9418139
-5.7995839 -1.3214856 1.3351903 7.5980387
-5.3621182 -1.3260219 1.3640426 7.1624999
-4.9818654 -1.3112197 1.3973845 7.5250001
-4.6396213 -1.2988778 1.3959284 7.4577379
-4.2169418 -1.3858327 1.4620907 8.0699997
-3.7499609 -1.3873931 1.4660826 8.5499992
-3.3074021 -1.4123298 1.4709347 7.9444447
-3.003016 -1.3900005 1.5301932 7.9305558
-2.5109603 -1.3925787 1.5332273 7.5
-2.1418006 -1.3502362 1.5633767 7.3166666
-1.6620145 -1.3040349 1.5227225 7
-1.3628697 -1.2863828 1.4465564 6.6666665
-1.0473883 -1.4473625 1.4340242 9.8061075
-0.56319964 -1.3497485 1.4724481 8.021739
-0.28152201 -1.3395715 1.3830351 15.833333
0.18972011 -1.289569 1.4043107 4.3333335
0.56047106 -1.2673069 1.4553366 5.9523811
1.0211788 -1.3016298 1.2550056 5
-7.6384082 -0.97019988 1.2871524 11.416667
-7.4077687 -0.95408237 1.2770694 11.808455
-6.9282827 -0.97654533 1.267469 11.822694
-6.6135001 -1.0100055 1.3059967 11.415537
-6.1935563 -1.0072541 1.320103 11.476138
-5.7896237 -0.9896546 1.3475918 11.670198
-5.4148402 -1.0178858 1.3838003 10.926726
-4.9722638 -1.0057434 1.4011658 10.786185
-4.5921092 -1.0106202 1.4177885 9.8758202
-4.1953135 -0.98090565 1.454185 9.8189077
-3.7858098 -0.98634309 1.469581 8.9754038
-3.4011765 -0.96396625 1.4992604 8.4344778
-2.9990973 -0.95488811 1.5098481 8.2303715
-2.5656323 -0.92849988 1.5348046 8.4615564
-2.1705761 -0.93657398 1.5344008 9.3400679
-1.7894863 -0.88923275 1.5158653 8.5714283
-1.3271568 -0.93525863 1.5028069 9.0647373
-1.1454964 -1.0468626 1.3704227 10.764228
0.58516681 -1.0508995 1.5513601 9.6640482
0.88077927 -1.1528616 1.2285129 6
1.4543581 -1.1766287 1.3463115 6
1.9446907 -0.97917557 1.3789684 8.3888893
-7.6821342 -0.58284467 1.2936031 12.916667
-7.4015384 -0.62707865 1.3077576 13.125
-6.9449625 -0.60592633 1.2678907 13.127975
-6.5316563 -0.6651603 1.3045223 13.083638
-6.14608 -0.63374674 1.3222759 13.742708
-5.7366238 -0.63901365 1.3418583 13.1342
-5.399931 -0.64589918 1.3986455 13.747853
-4.9723444 -0.6370188 1.3972533 13.891304
-4.5595555 -0.64343411 1.4460378 13.587287
-4.1892385 -0.66319078 1.4630121 14.059499
-3.7724695 -0.6669358 1.4834398 13.197918
-3.4240828 -0.65484023 1.5148246 12.901582
-3.0002315 -0.63229883 1.5379722 12.989232
-2.5810342 -0.63596791 1.558156 11.792963
-2.1815383 -0.63423133 1.5596663 10.715608
-1.852059 -0.60813862 1.5350764 9.8589735
-1.3298906 -0.59787953 1.4731972 10.619658
-1.1109991 -0.57264572 1.47124 7.8485718
-0.58297133 -0.71702021 1.2978623 5
0.39743233 -0.56937349 1.520085 6.5
0.56837982 -0.64957148 1.5760957 12.8
0.91432917 -0.53873581 1.2233676 6
1.8849185 -0.55055386 1.3887328 11.4375
3.8394461 -0.43057269 1.3055046 25
-7.7014265 -0.15987226 1.353868 14.5
-7.4500246 -0.17929432 1.3254032 13.7
-7.059422 -0.21915938 1.3429646 14.5
-6.6264343 -0.30018631 1.3433576 13.7
-6.2523689 -0.27380258 1.3536516 13.5
-5.7627773 -0.26204655 1.3960521 13.98
-5.3492546 -0.27456015 1.4310645 14.4
-5.0168676 -0.26181468 1.3991455 14.694444
-4.5531344 -0.25284559 1.4809681 14.74
-4.1725197 -0.22333062 1.4825338 14.866666
-3.7622499 -0.28377202 1.5119839 14.19192
-3.4089215 -0.22574575 1.5533777 14.345238
-3.0511229 -0.33327687 1.5290174 13.984446
-2.5661409 -0.32310587 1.5584224 13.900357
-2.1642568 -0.21817805 1.5673549 12.700001
-1.859678 -0.15156397 1.4897523 9.875
-1.3177589 -0.23525715 1.436831 13.967505
-1.0307482 -0.18213506 1.3672094 8.4986115
-0.65060353 -0.12695293 1.4050226 5
-0.28191185 -0.13544181 1.4074987 4.708333
0.13964015 -0.12092055 1.4356201 4.6999998
0.55772042 -0.17917085 1.4479283 13.772727
0.97133201 -0.13335931 1.4172579 4.5
1.349839 -0.12667523 1.2359498 4.5
1.8211482 -0.16595475 1.3952285 8.5691919
2.1130927 -0.095163777 1.4462889 6.9683037
3.1319628 -0.17978007 1.4131018 8.5136805
3.2783895 -0.13461515 1.4290123 7.6964283
3.7352598 -0.17117283 1.2041535 4.6666665
4.1898327 -0.2556437 1.4514176 4
4.5823188 -0.26550865 1.3323735 4.8333335
4.9255238 -0.34556755 1.452849 3.8888891
5.4338346 -0.14584222 1.4113359 7.6484847
-7.2615404 0.18279299 1.3464483 14.25
-6.966568 0.16071776 1.296356 14.75
-6.6578736 0.096721768 1.3140399 14.666666
-6.2198143 0.087381005 1.3602347 14.722222
-5.6873727 0.13578171 1.4244496 15
-5.4130659 0.099652886 1.4426134 15
-2.6494997 0.11274569 1.4968965 12
-2.16468 0.24535681 1.5275124 12.908333
-1.7516958 0.20189969 1.440829 10.341344
-1.2983793 0.22341427 1.5004005 13.5
-1.1205853 0.20858109 1.3914577 13.041666
0.56477714 0.066889137 1.5984597 11.9
1.8839757 0.27463454 1.367303 11.865
2.1627123 0.19120775 1.3699667 11.424444
3.0858989 0.13219568 1.408394 13.392484
3.2138627 0.39411727 1.4537206 13.285714
5.435122 0.1881901 1.3697237 11.733851
-7.6557469 0.40941596 1.3304311 15
-2.748914 0.40479767 1.5609913 11.5
-2.1504352 0.64587533 1.550256 14.3
-1.760973 0.55765957 1.4315079 13.411305
-1.33198 0.6182121 1.4735681 13.583333
-1.1461675 0.60867882 1.3716969 14.666667
1.8484762 0.60882366 1.3856066 14.129629
2.1231036 0.50996649 1.4210484 13.711111
3.1939769 0.60852885 1.556988 15
5.4192195 0.60508579 1.401546 12.82722
-2.813616 1.0896086 1.5424132 14
-2.6548645 0.81115049 1.5659246 13
-2.2027965 0.96058321 1.5804145 15
-1.7776468 0.94495553 1.446228 13.76
-1.3769175 0.8871749 1.5324793 14.3
1.7863331 0.97175807 1.4560471 14.833333
2.0345411 0.84447002 1.332906 12
5.4175611 0.97116429 1.3491827 14.142858
-2.8402607 1.3705971 1.5348129 15
-2.5456774 1.286482 1.5734038 14.75
-1.8502781 1.2897339 1.4253579 14.875
-1.3968115 1.2567263 1.4871216 15
1.9806728 1.2853634 1.3296578 13.5
5.2909355 1.4662255 1.3185093 15
1.9413929 1.7406013 1.3299124 15
-2.0996709 -2.1660373 1.8433778 9.666667
-1.9389791 -2.3657787 1.9197587 5.6666665
0.27955517 -2.1028495 1.8859831 6.5
-7.3949203 -1.8159938 1.6475538 7.3333335
-6.9353876 -1.8040543 1.6785733 7
-6.4797773 -1.6784104 1.71189 7
-5.994401 -1.6789103 1.754424 7
-5.4905977 -1.6780933 1.7884626 7
-2.1392508 -1.8855028 1.8984543 14.506833
-1.9340006 -1.7920078 1.7756618 7.7321429
-1.4031398 -1.7584066 1.7329153 7.514286
-1.1054769 -1.7406623 1.7552798 7.3125
0.28418767 -1.826128 1.9016662 10.887818
-7.4040499 -1.4750886 1.644176 9
-6.930397 -1.4920565 1.6788807 8.5
-6.6194305 -1.4057614 1.6962084 8.6388893
-6.2089634 -1.3292751 1.7347994 8.833334
-5.8299208 -1.3941904 1.7601858 8.1800003
-5.4910412 -1.3827016 1.7880573 7.8942857
-5.0247965 -1.4100326 1.6941648 7
-3.8152895 -1.3339573 1.6545929 8
-3.379472 -1.4450434 1.6801119 7
-3.0013561 -1.3907843 1.769016 7
-2.4951065 -1.3284816 1.7395186 7
-2.0775797 -1.3663893 1.8331612 8.666667
-1.9105682 -1.4080145 1.7188846 10.660813
-1.3881265 -1.4027146 1.7042683 10.454545
-1.1267836 -1.4960607 1.7515433 11.7
-0.72103351 -1.378625 1.8224434 5
-0.25039575 -1.3335534 1.7411849 5
0.35034579 -1.3999622 1.9065176 9.9221354
-7.4369683 -1.1202345 1.6380653 10.666667
-6.9813676 -1.0956761 1.6748545 10.5
-6.5957427 -1.0349207 1.7035576 10.5
-6.224956 -1.0073868 1.7364604 10.5
-5.8723383 -0.96734518 1.7608556 10.433333
-5.4831233 -0.88346893 1.7898134 10.490476
-5.096909 -1.0384635 1.7715863 9.25
-4.0311913 -0.84999603 1.6208868 11
-3.7780471 -0.83018917 1.6452713 11
-3.3316774 -1.1670747 1.7325256 8.5
-2.9371417 -0.9861601 1.6745175 8.1428576
-2.5573218 -1.025194 1.7376823 8.1208334
-2.121913 -0.97435921 1.73917 7.6777778
-1.7700043 -0.95615149 1.6688923 8.997077
-1.3758893 -0.97906721 1.6862268 10.096749
-1.1596531 -0.95614499 1.8063475 8.5
0.32332405 -1.0147063 1.8446442 9.6955891
0.53465724 -0.97458941 1.6590313 8.909091
1.2006524 -1.1924359 1.801139 6
1.8645115 -0.99048311 1.8026485 7
-7.4915619 -0.62842894 1.6477785 13
-7.0314646 -0.66946 1.6748689 12.625
-6.6353707 -0.61563057 1.7037058 12.633334
-6.2963495 -0.55514628 1.7309828 12.833334
-5.8765159 -0.5308764 1.7625325 12.583333
-5.4640479 -0.46830076 1.7973682 12.517857
-4.9708714 -0.69498128 1.6243553 11.5
-4.0845366 -0.42152154 1.6100402 13.5
-3.8272181 -0.41101205 1.6292295 13.5
-3.3806906 -0.77468932 1.7226982 10.75
-2.970119 -0.59579486 1.7212608 10.365625
-2.6334829 -0.66188759 1.6950843 10.054545
-2.1472087 -0.60751247 1.679724 11.27587
-1.7835728 -0.587641 1.6631629 10.534721
-1.3301131 -0.5814414 1.671155 9.7101336
-1.1043512 -0.60696948 1.6768577 8.4230766
0.25960374 -0.57700247 1.8318202 10.380702
0.53847802 -0.55978203 1.6711738 10.678572
0.81062245 -0.51195967 1.7315331 7
1.8928813 -0.63989592 1.828071 8.5
3.1890762 -0.42069092 1.9578888 5
-7.3026633 -0.20948096 1.6680638 14.809525
-6.9973588 -0.26186743 1.6873963 14.6
-6.696342 -0.24239798 1.6982673 14.5
-6.2481751 -0.16383119 1.7358752 14.694444
-5.8423638 -0.11479887 1.7651002 14.541667
-5.4705086 -0.05979538 1.7966951 14.476192
-5.0169334 -0.30802834 1.6195407 14
-4.1168542 -0.15734911 1.6023149 15
-3.8599167 -0.15151644 1.6238995 15
-3.440387 -0.29599005 1.6915756 13.666667
-2.9758241 -0.14914319 1.7167614 12.788095
-2.6183028 -0.26662949 1.6973994 12.486139
-2.1879711 -0.28995669 1.7290841 12.289884
-1.783917 -0.24318685 1.6893981 12.225891
-1.3680286 -0.2549969 1.6759835 13.008513
-1.081093 -0.18958274 1.6752014 9.954545
-0.56447262 -0.094485104 1.710307 6
-0.1898856 -0.070221163 1.7155229 6.3333335
0.22979179 -0.20479429 1.838194 9.8421049
0.51821464 -0.17465293 1.6719178 9.711853
0.90863937 -0.17528473 1.8211751 10.44662
1.4195623 -0.13639064 1.790567 5
1.83805 -0.19069973 1.7911658 8.7511215
2.1931047 -0.07677456 1.7468995 6.083333
2.4938638 -0.086164199 1.8001322 6
3.1516271 -0.20648639 1.8115801 8.5295029
3.2293453 -0.17097844 1.8447514 7.5
3.7443888 -0.15487671 1.7476518 5.25
4.2421474 -0.27355987 1.7674551 4.6666665
4.6570873 -0.24638706 1.8040973 4.9444442
4.9295216 -0.31397799 1.8784939 5.3333335
5.4411435 -0.1466935 1.7838602 7.2894735
-3.4777732 0.037465215 1.7433734 14.5
-3.0568004 0.2948404 1.8198478 12.5
-2.6355104 0.14729415 1.7834973 12.511111
-2.2314589 0.10165702 1.8015171 12.071428
-1.7878858 0.18906373 1.7341108 11.843191
-1.3497995 0.11812104 1.7564112 13.34127
-1.0089688 0.15308331 1.6791291 11.603863
-0.60274541 0.16069725 1.716651 11.043419
-0.25630546 0.13582602 1.7047386 10.538836
0.16147567 0.13151146 1.7532624 11.791217
0.56629592 0.12833588 1.6710126 12.443358
0.87296987 0.19198063 1.8160746 11.063125
1.8482519 0.2886391 1.8278817 11.485119
2.176501 0.18685852 1.6771749 11.35252
2.5348551 0.11122888 1.8316616 11.358786
3.0947509 0.17465268 1.8104979 12.431168
3.2161002 0.37275353 1.9378586 12.285714
5.4337277 0.1751105 1.79309 11.363275
-2.9568846 0.68659127 1.8060591 15
-2.5029998 0.58059096 1.8439682 14.25
-2.2795968 0.45694759 1.8032864 11.875
-1.7662863 0.54603136 1.805874 13.908659
-1.3555652 0.54593182 1.8081589 14.2
-1.1788536 0.52482885 1.6240244 14.333333
-0.67888737 0.45639262 1.9512098 14.57575
1.8152378 0.68044931 1.8545133 13.889285
2.1380835 0.55812359 1.6403009 13.833333
2.6291003 0.44047478 1.7692535 14.666667
3.0554011 0.54163176 1.7688535 14.083333
5.4024568 0.55962294 1.8352123 12.941713
-3.0896213 0.82701558 1.8344626 12.5
-2.6797698 0.81079757 1.8681123 12.5
-2.2265401 0.85962844 1.7286869 13.916667
-1.7806721 0.87087566 1.8588022 14.6014
-1.3883547 0.95651996 1.7621433 15
1.7669197 1.0188509 1.9068601 14.8
5.400846 1.0153803 1.7758838 13.695238
-3.2309489 1.4271564 1.8170674 14.5
-3.0576091 1.4104216 1.8297627 14.5
-2.5811653 1.3764851 1.8488762 14.5
-2.2836859 1.3597131 1.8523135 14.5
-1.8454516 1.293404 1.8661337 15
5.3338585 1.3735516 1.778738 14.75
-1.4996347 -2.4307239 2.020112 3
-2.1872027 -2.2059848 2.2300248 8.916667
-1.934144 -2.3830349 2.3809314 5
-0.53538048 -2.2524238 2.3370574 29
0.32578421 -2.0826652 2.0648398 6.8333335
0.45437813 -2.071552 2.173218 6.7777781
0.84714937 -2.1296964 2.2583919 5
1.8061508 -2.0034664 2.1051309 6.5
-2.0671711 -1.7435641 2.2201002 10.388889
-1.8404493 -1.8787183 2.1868904 5.6666665
-1.360579 -1.9393616 2.262614 3
0.29036534 -1.9119298 2.0265851 12.162625
0.45064598 -1.8519609 2.1634037 9.1095238
0.96935928 -1.6469402 2.2802882 5
1.8064678 -1.7510141 2.1213923 9.5
-2.0445604 -1.3711519 2.1855624 13.75
-1.9893274 -1.3541721 2.2485218 8.5931664
-1.4318253 -1.4985352 2.1510785 4.8333335
-1.0592656 -1.4671388 2.0816987 4
-0.65535337 -1.3612459 2.3164468 5
-0.18500352 -1.2925166 2.2081954 5.3333335
0.3817865 -1.4517677 2.0760927 8.8000002
0.51379734 -1.3928845 2.2000315 10.710242
1.8516515 -1.3603891 2.0799706 10.7
-2.0289924 -1.0159271 2.2422178 13.7
0.37455326 -0.97910655 2.0017259 14.616
1.8553295 -0.94581527 2.2280898 10.5
-1.1335115 -0.62642229 2.110671 7
-0.47792092 -0.75234461 2.2524157 6.5
-0.13440686 -0.66357511 2.127311 6
1.7995211 -0.64040709 2.20122 9.9761896
3.1940951 -0.40666345 2.0238557 5.5
3.2227793 -0.41238466 2.2761624 5.5
4.1940813 -0.41368568 2.2672796 3
-1.7394778 -0.060049016 2.1270428 7
0.14255641 -0.092955105 2.2591622 6.8333335
0.54727548 -0.12272681 2.2739933 6
0.98790711 -0.17391735 2.1351218 11.750022
1.5016837 -0.14281778 2.325129 21.069445
1.8194587 -0.19288504 2.1652181 9.130435
2.1532435 -0.16493511 2.269124 4.25
2.6814842 -0.13291016 2.1686993 5.333333
3.1597476 -0.20403025 2.1956556 9.1046715
3.2506077 -0.1496236 2.3144734 21.811111
3.7672453 -0.17104653 2.1040204 4.833333
4.2577958 -0.30058005 2.1665218 4
4.5348015 -0.31527719 2.101681 4.5333338
4.843482 -0.27232233 2.2685242 5.5
5.4524622 -0.11667748 2.2116122 7.6583338
-1.7598654 0.16392165 2.1534503 9.3499994
-0.68889123 0.30406073 2.2966163 10.387333
-0.018466949 0.041401517 2.1928897 8.6606255
0.10096113 0.12443762 2.2639465 11.158875
1.0322031 0.27250886 2.0371733 10.1415
1.7860193 0.24079908 2.2235823 12.105556
3.1531155 0.2493633 2.1974392 14.263889
5.4320502 0.20530239 2.1442251 10.986294
-1.754181 0.54985136 2.1375628 13.546972
-0.67308742 0.55865544 2.2855599 12.778167
1.7676219 0.67236376 2.2375383 13.796875
3.1814971 0.68769372 2.008708 14.666667
5.4117222 0.5706501 2.1953528 13.116403
-1.8447404 0.95492339 2.3718379 13.330999
-0.72413307 0.8980872 2.2838862 14.666667
1.5876086 1.0540427 2.3477142 14
1.8118281 1.0172479 2.1783755 14.75
5.3988347 1.0527364 2.1688001 13.638888
-1.8383396 1.2821143 2.2593951 15.080999
1.5647805 1.2835222 2.3704526 15
5.3549609 1.376358 2.1773539 14.833333
5.2119541 1.7305762 2.3186467 15
-2.2803192 -2.221766 2.6595173 8.5
-1.8793458 -2.3655689 2.7920144 5
-1.5347035 -2.3446789 2.4197216 4
-0.54862118 -2.2509589 2.4289074 21
0.60051316 -2.13097 2.7236168 4.5
-2.1853762 -1.8317223 2.5815833 11.322223
-1.7918946 -1.8909377 2.6742113 5
-1.3794899 -1.8515018 2.6639977 4
-0.44475111 -1.7682574 2.5168791 25
-0.37337688 -1.7614202 2.5203443 25
0.54381907 -1.6637821 2.758564 4
0.9616282 -1.62525 2.7418664 5
1.7155852 -1.8182961 2.6307995 8.625
-2.0654225 -1.424228 2.5632613 12
-1.99485 -1.3157976 2.4547172 9
-1.3744221 -1.4243296 2.642967 6
-0.9592101 -1.4161985 2.6572137 5.4166665
-0.51396537 -1.3731008 2.7477641 5.5
-0.11735128 -1.337346 2.7087855 5.5
0.29593378 -1.3146404 2.5632446 5.3333335
1.8337179 -1.3989666 2.4592237 9.375
-2.0467045 -0.94802761 2.5420511 14.093583
1.8258753 -0.92996484 2.6227627 9.5
-0.13528991 -0.49108636 2.6260056 7
1.7696894 -0.62958288 2.569643 8.9333334
-1.7833465 -0.055696383 2.6410654 7
-0.012988806 -0.16581623 2.4640903 3
0.18866879 -0.12034728 2.4861226 5.5
0.56817156 -0.13370721 2.7174084 5.5555553
1.0774583 -0.15430035 2.6800587 5.5
1.4510933 -0.14694211 2.4804726 13
1.8071319 -0.18811922 2.5404096 9.3616667
2.1314821 -0.16669033 2.4592707 4.75
2.5369339 -0.15504339 2.5612001 18.333334
3.1385281 -0.12567198 2.5565796 9.53125
3.3707073 -0.20152351 2.6344831 5.6750002
3.8099918 -0.17674255 2.5538428 4.6666665
4.1776195 -0.29466718 2.6002817 4.1666665
4.5273914 -0.28619802 2.5471904 5.3333335
4.862834 -0.23343335 2.5288715 6
5.4385242 -0.13764516 2.57125 7.229167
-1.7511758 0.17338575 2.6968422 9.0625
-0.30153108 0.12518521 2.5143261 9.0024996
0.1305396 0.12618764 2.4474537 10.916667
1.7609551 0.2493543 2.5876181 12.182291
3.1544311 0.22955076 2.5714343 13.334571
3.2538438 0.0089905411 2.4448304 9
5.4323502 0.16302875 2.5636721 10.386422
-1.7493221 0.58394849 2.6214638 12.573215
1.7777907 0.67927259 2.5980914 13.066667
3.1246979 0.68716556 2.5212743 14
3.2097068 0.42297539 2.4414718 12
5.4061871 0.5623526 2.5571136 13.185185
-1.7500515 0.91625834 2.6091762 14.251125
1.7636255 1.0300288 2.5839183 14.625
5.3810711 1.0471114 2.5170546 13.208333
-1.830287 1.2798102 2.6393547 15
5.3186169 1.4213302 2.5658526 14.25
5.1949105 1.7909747 2.542484 15
-2.3720398 -2.2114549 3.0762448 8.5
-1.6415032 -2.3409123 2.8530583 4.5
-1.3443601 -2.3096368 2.977999 4
0.21929434 -2.1543388 3.1593571 4.25
0.62857938 -2.1164107 3.1531096 5
1.6115211 -2.0204449 3.1997156 6
-2.428741 -1.8053365 3.1441422 14.2
-2.1890588 -1.7884737 2.993984 9.6506433
-1.6990039 -1.8709456 3.0463943 5
-1.4663783 -1.8483449 3.0897734 4.5
-1.1532164 -1.815521 3.1823454 4
0.57812762 -1.6489323 3.1847708 4.5
0.81464648 -1.6266209 3.171185 5
1.641497 -1.8241192 2.9160378 8.5
-2.0919588 -1.4048196 2.9931605 10.734385
1.4914688 -1.3716482 3.087743 11.285714
1.7659298 -1.352216 2.9321971 9.5
-2.071492 -0.96764898 2.9958 12.875
1.7449666 -0.99421901 3.1121998 12.666667
-1.1240618 -0.75523341 2.8694265 7
-0.65981674 -0.70626128 3.0430205 7
0.42574382 -0.43036616 2.831398 7
-0.22121257 -0.17111513 2.8470409 5
0.21825695 -0.16297278 2.9478354 5
0.65400702 -0.15825108 2.8978662 4.5
1.0240676 -0.16104829 3.0741973 4.25
1.3633279 -0.15975498 2.9735966 3.9200001
1.7820673 -0.1803644 2.9807777 7.4199996
2.1933494 -0.15082413 2.9434564 4.5
2.7232914 -0.15602067 2.9640527 5
3.0972726 -0.12093922 3.0118906 8.125
3.2724612 -0.21864223 2.9782662 6.8000002
3.8625705 -0.17266163 2.9782171 4.75
4.335681 -0.17796624 2.8261976 4.5
4.5060959 -0.25187498 3.0698688 5.5
4.9175377 -0.15013111 3.0401568 6.5
5.4388714 -0.12002861 3.0355096 7.3625002
-1.7322315 0.17092447 3.0096197 9.098959
1.7460864 0.29852444 2.9562016 10.541667
3.1755416 0.18808872 3.0099628 13.964543
3.2412395 0.11058208 2.8607867 9.5
4.9927316 0.19449158 3.1219113 8.7209997
5.4476271 0.17161775 2.976063 10.111723
-1.7282183 0.56847119 2.9950728 12.359375
1.5650942 0.58173668 2.9021184 11.5
1.7342854 0.6194784 3.0980079 13.435
3.1553917 0.68812788 2.9561744 14.083334
3.2106628 0.41341004 2.8463509 11.5
4.9377952 0.52207798 3.1038404 10.65125
5.4400311 0.55164343 2.9782369 12.829117
-1.718672 0.86584842 3.0395908 14.52381
1.5160463 1.0489925 2.8760569 13.5
1.719967 1.0473508 2.9970665 14.388889
5.4476914 0.98823911 2.9982178 13.583333
-1.8289487 1.284397 2.9587567 15
1.4785659 1.4064972 2.8578928 15
1.6765909 1.3181565 3.0964661 15
5.429606 1.3346214 2.9732487 14.833333
-2.4544489 -2.2079988 3.480648 8.375
-1.6613168 -2.3316751 3.2115927 5
-1.3211228 -2.2935205 3.4222674 4.75
-0.87629014 -2.2545481 3.3244338 4
-0.51076394 -2.2182198 3.3815784 4
-0.055719793 -2.1714389 3.4799256 4.5
0.30319995 -2.1371031 3.498548 5
-2.4641516 -1.7680126 3.3182309 14.333333
-2.1495109 -1.7687957 3.3420112 7.6999998
-1.4519892 -1.8356556 3.4485915 5
-1.0927811 -1.7993279 3.4952383 4.5
-0.67735445 -1.7607276 3.4716539 4
-0.28737345 -1.7227312 3.5016696 4
0.21674958 -1.6770253 3.4030814 4.25
0.53209269 -1.6431918 3.5426731 5
1.5669057 -1.8386748 3.2938857 8.25
-2.1379309 -1.3632983 3.4266899 10.65
-1.7928408 -1.5091846 3.2148862 6
-1.3705103 -1.4674267 3.4743757 6
0.52737784 -1.3025236 3.5108774 6
0.94799054 -1.2711931 3.2828107 6
1.5263487 -1.3644063 3.2720633 14
1.7477537 -1.2955437 3.3599281 8.875
-2.0969141 -0.97406161 3.3729513 12.125
1.8518553 -0.99530429 3.2522755 8.25
-1.4844429 -0.75710571 3.5373712 7
-0.090928793 -0.64671063 3.2211726 7
0.98888135 -0.5340693 3.3996375 7
1.4870067 -0.48272088 3.4455783 7
1.8014159 -0.45496497 3.353368 10.2
-1.7325275 -0.096987322 3.4805326 7
-0.95816112 -0.18223563 3.3946319 6
-0.54703009 -0.17417988 3.504632 6
0.34167361 -0.15577444 3.3297377 6
0.50563097 -0.16944116 3.3599682 5
1.0616256 -0.11888865 3.5042412 6
1.4309589 -0.11698453 3.45575 6.2142859
1.7937772 -0.14235228 3.3868632 8.5925922
2.2818162 -0.17271115 3.3940411 4.8333335
2.608762 -0.16695717 3.4314837 4.9000001
3.1543922 -0.17412262 3.345278 4
3.4060442 -0.15315299 3.4472675 6.8888888
3.766433 -0.17246525 3.3383722 5.3333335
4.2013292 -0.18181358 3.3538365 5
4.6404634 -0.27570564 3.4382787 6
4.9196391 -0.10083525 3.4155893 7.1227269
5.4420142 -0.13129766 3.4107904 7.5384617
-1.714789 0.18158475 3.3637338 9.6700001
1.5100517 0.27705017 3.4910285 10
1.7488623 0.3070482 3.3962655 10.375
3.153271 0.1616489 3.5234742 11
3.237926 0.14988421 3.3510587 9.5
4.7800488 0.27561966 3.5726864 12.333333
4.9616122 0.18223006 3.3932774 10.235572
5.4505596 0.1784544 3.3742993 10.623997
-1.7220744 0.56690246 3.3429971 12.707525
1.4706645 0.65905321 3.5059083 11.5
1.7112422 0.69627756 3.3944659 12.25
3.0562384 0.64723933 3.5352507 12.333333
3.20047 0.49018416 3.357898 11.5
4.7637544 0.43070114 3.5085227 14.684166
4.9715581 0.46992746 3.4048529 12.266708
5.4427495 0.58778059 3.3543806 13.433808
-1.7509924 0.88304806 3.3584492 13.943234
1.4308236 1.0428138 3.4981649 13
1.6676568 1.0431491 3.4916925 13.833333
3.0689399 0.96399045 3.4454579 13.5
5.4652572 0.96346295 3.3048096 13.6865
-1.8239009 1.2522719 3.4234364 14.75
1.3907008 1.4244552 3.4480331 14.5
1.6452078 1.3391415 3.4058826 14.833333
5.477829 1.3007274 3.2761447 14.904834
-2.5225189 -2.2177937 3.8412995 8.0888882
-0.95145881 -2.2489152 3.7119935 5
-0.52227044 -2.206636 3.7781773 5
-0.11653548 -2.1704211 3.7191715 5
-2.5708141 -1.780105 3.8224649 13.1875
-2.201098 -1.8250241 3.7575428 6.833333
-1.0813048 -1.7912436 3.7428818 5
-0.66101885 -1.7468457 3.8924217 5
-0.26140043 -1.708132 3.9025426 5
0.13846377 -1.6734527 3.8058534 5
1.4470465 -1.8302921 3.7451935 8.2914286
-2.199676 -1.4253159 3.7719431 10.75
-0.96066916 -1.4289172 3.6211348 6
-0.51109177 -1.3888196 3.7004433 6
-0.14234371 -1.3573568 3.6977932 6
0.21845597 -1.3270173 3.6153045 6
1.4069093 -1.4143319 3.7814901 13.047619
1.6798496 -1.3826936 3.8665304 7.6818185
-2.1113653 -1.1441356 3.7582819 10
1.7324241 -0.95055616 3.7997749 10.581575
-2.1575136 -0.64093524 3.8605819 14.5
-0.91169071 -0.70320034 3.7098198 7
-0.42702508 -0.6577971 3.8213625 7
1.2523003 -0.50170571 3.9677753 7
1.7670995 -0.52864057 3.815697 12.111111
-1.687907 -0.074630246 3.7833951 7.4000001
-1.4030535 -0.12286273 3.9868712 7
-0.59359139 -0.13064753 3.8923719 6.6666665
-0.24684134 -0.13632746 3.87323 6.5
0.27108061 -0.084724665 3.9031837 7
0.58754575 -0.099301986 3.8753347 6.75
0.96471775 -0.072475784 3.8826053 7.0599999
1.3261777 -0.085924424 3.8379507 6.75
1.7457401 -0.12270177 3.8910339 8.104166
2.1918137 -0.077662051 3.9378245 6.9428568
2.6624839 -0.088990971 3.8894773 6.7685184
3.0447407 -0.099277012 3.8537898 6.3571429
3.3609664 -0.12830926 3.8331382 6.0857139
3.7836711 -0.079180308 3.9369891 7
4.325851 -0.081838317 3.9471273 7
4.5408826 -0.11595702 3.8729458 6.6666665
5.0540051 -0.14148736 3.895875 6.5
5.4571671 -0.09558697 3.8396404 7.4111109
-2.4078677 0.039677411 3.6341743 9.5
-1.6994863 0.16235772 3.8521438 9.3795452
-1.2848349 0.13792253 3.9863648 9.5
-1.1372273 0.081193447 3.9690413 9
-0.60029072 0.13456115 3.9573612 9.7356901
-0.22363476 0.11960403 3.9414809 9.6150789
0.24307854 0.18583977 3.9166234 10.083491
0.66222507 0.1792413 3.9157159 10.142858
0.99871302 0.18635979 3.8952832 9.630435
1.3668547 0.20722535 3.9204082 10.298809
1.7430179 0.20125136 3.8915184 9.7113628
2.1969469 0.17959975 3.9455061 10.069078
2.6398442 0.19788083 3.9519157 10.082097
3.0286849 0.18871367 3.9505889 9.5867357
3.43346 0.15981914 3.9430745 9.0682535
3.8006449 0.20270181 3.9383304 9.2716045
4.1772552 0.18386066 3.9343808 8.7976189
4.5820227 0.21731851 3.9164691 8.666666
4.9032164 0.2114408 3.7901351 9.7620993
5.4368753 0.1824778 3.828234 9.0699606
-2.4727895 0.51855755 3.6493034 11
-1.7104275 0.60584897 3.8827882 12.844113
-1.3498806 0.65164363 3.990943 14.25
-1.0244184 0.63346469 3.9563179 13.694
-0.61567497 0.58538735 3.9296772 13.9265
-0.17646424 0.59144521 3.9357059 13.746333
0.22054002 0.56953019 3.911936 13.553572
0.57809812 0.5379777 3.9086258 13.777305
0.96641928 0.52059036 3.9128921 13.666667
1.4140599 0.52384824 3.9028773 13.260714
1.7367554 0.59168386 3.8863907 13.236591
2.2149239 0.58210051 3.9259925 13.680555
2.6366191 0.60578662 3.9121172 12.808586
2.9853702 0.63502347 3.9319625 12.694312
3.4226308 0.55064315 3.9383352 12.246667
3.773984 0.60529637 3.9258189 12.393827
4.1769638 0.60027444 3.9253807 11.75
4.5688238 0.6234681 3.9191003 11.006666
4.9362345 0.64320308 3.9233799 11.03125
5.439218 0.57974374 3.8263307 11.994189
-2.5180883 1.0025268 3.6343253 12.5
-1.7452018 0.9079209 3.8399205 13.781876
-1.1157701 0.94881141 3.8826284 14.5785
-0.64954448 0.91996741 3.866724 14.7475
-0.25205788 0.94097739 3.8766277 14.834999
0.15974624 0.94722712 3.8833053 14.716901
0.58530027 0.95067847 3.8657565 14.75
0.99953485 0.954234 3.870039 14.583334
1.390612 0.93714571 3.8725069 14.25
1.7020149 1.0088339 3.8619735 13.944446
2.1918056 1.0111446 3.8861589 14.15
2.5953434 0.95048219 3.8880274 14.166667
2.9910157 0.978302 3.8832467 14.275
3.3778882 0.96629393 3.9090219 14.216665
3.7989032 0.96414137 3.8904922 13.116666
4.244029 0.97797519 3.9100552 13.55
4.5844779 0.99828041 3.9232397 13.275
4.9674253 1.0203232 3.9307876 12.859999
5.4315252 0.98331058 3.8370225 13.517178
-2.573683 1.4970791 3.6327529 14
-1.8203375 1.2263449 3.8520961 14.5
1.5770433 1.4053562 3.9437499 14.5
2.2416282 1.2111924 3.9255924 15
2.5920212 1.2608205 3.9266989 15
3.0538073 1.2890143 3.9002445 15
3.4220724 1.3236554 3.9035861 14.833334
3.812418 1.3821375 3.914001 14.75
4.2118282 1.3284749 3.9021394 14.5
4.5909462 1.3831778 3.9063981 14.5
4.9811311 1.3549833 3.9086981 14
5.4148064 1.3405672 3.8086197 14.571786
4.6924281 1.6407201 3.934237 15
4.9713783 1.6736246 3.9364159 15
5.3468995 1.7244927 3.7750278 15
-2.6516101 -2.1954522 4.3283396 8.227272
-2.1859288 -2.3564444 4.054986 6
-1.7944871 -2.310262 4.3576922 6
0.7912308 -2.0673521 4.3061585 6
1.0852084 -2.0470014 4.0661693 6
-2.6680272 -1.6629412 4.1753244 13.75
-2.2577701 -1.7258497 4.1581135 8
-1.9480536 -1.8578931 4.271409 6
1.3834696 -1.8335739 4.1150956 8.151515
-2.6397996 -1.5672818 4.0395079 15
-2.2282891 -1.3389877 4.1501312 10.704861
1.0959001 -1.5678413 4.3054295 6
1.3379606 -1.4302498 4.1096263 10.75
-2.2196419 -0.92239618 4.1749282 13.233334
1.587791 -0.93674213 4.1474013 7
1.7935323 -0.96073771 4.1974797 8.0666666
-2.4250419 -0.42325479 4.1000533 8
-2.2058322 -0.52350789 4.3733025 14.5
-1.5489433 -0.7076028 4.1165919 7
1.5399952 -0.66931242 4.314652 8.5
1.7259351 -0.5998708 4.2106304 9.625
-2.4617271 -0.19437279 4.2350483 9
-1.7005575 -0.063006364 4.1365461 7.5
-1.4757016 -0.10071577 4.1177211 7
-1.1355621 -0.11421765 4.0941319 7
-0.56723344 -0.078087717 4.077796 7.25
-0.23258543 -0.093978666 4.0885429 7
0.15714209 -0.10385436 4.0669608 6.8055553
0.6321463 -0.070782356 4.0329204 7.2000003
1.0459323 -0.026319236 4.0875902 8
1.4960927 -0.13574505 4.1679716 8.3012991
1.7040312 -0.1534787 4.2287703 10.369047
2.1447914 -0.095019974 4.0488214 6.8581629
2.5796797 -0.10011215 4.0656095 6.6944442
2.9518752 -0.10823721 4.0799036 6.6999998
3.3631828 -0.088749826 4.0785894 7.0571427
3.8343337 -0.096849225 4.0839934 7
4.1760969 -0.082362905 4.0798373 7.25
4.6011233 -0.13044779 4.0818009 6.6666665
4.9218426 -0.086947665 4.0700874 7.1999998
5.3632274 -0.16495734 4.1105995 7
-2.5139139 0.17525378 4.3730297 10.5
-1.6617237 0.1962122 4.1156864 9.227273
-1.3496194 0.17085004 4.1075878 9.1428566
-0.94288284 0.16563235 4.1011691 9.5
-0.53801966 0.13703884 4.1021714 9.2962961
-0.17037922 0.26903504 4.0926528 10.958333
0.1646249 0.20711444 4.0773621 10.492064
0.63075805 0.25195312 4.0605965 11.664773
1.0001925 0.21049227 4.0833292 10.939395
1.4093951 0.16987349 4.1159434 10.784388
1.727244 0.2613475 4.1108923 12.416734
2.1529696 0.22954245 4.0699782 12.298654
2.5814407 0.22548164 4.0908327 12.251
2.987252 0.19564201 4.0841279 11.932322
3.382642 0.24952558 4.0804982 12.517989
3.8148324 0.18112513 4.0966496 11.166667
4.1853828 0.16965517 4.0702677 10.206731
4.6815472 0.18503211 4.0790248 10.12963
4.9760303 0.23004419 4.0736613 10.338576
5.4329991 0.11572933 4.1369414 9.2992201
-2.5428405 0.52800262 4.239274 11.25
-1.6722341 0.60454464 4.1131582 11.977778
-1.3610469 0.53718609 4.1276784 11.666667
-0.98600954 0.61200571 4.1011896 13.32653
-0.55303127 0.52063465 4.1130462 12.457143
-0.14631939 0.58500302 4.0970678 13.75
0.1698837 0.4964022 4.0824523 13.76
0.62805033 0.52334154 4.0784826 14.4375
0.99427891 0.48762631 4.1038184 13.857143
1.4238459 0.51833588 4.1549392 13.862132
1.7323577 0.51078558 4.1006446 14.001275
2.1737735 0.43022075 4.0927377 14.55
2.5979555 0.42130935 4.0400138 14.260888
3.1462443 0.40923002 4.1338143 15
3.4173045 0.40615413 4.0937624 15
3.8048096 0.46911886 4.0553513 14.154167
4.1534157 0.51917851 4.062057 13.678486
4.648015 0.50086445 4.0645976 13.098214
5.0737791 0.5575791 4.0637751 13.026786
5.4117513 0.6184504 4.1620164 13.37112
-2.5827048 0.93981302 4.2310371 12.5
-1.6853678 0.99157035 4.1097708 14.037037
-1.3755862 0.93417788 4.130528 14.222222
-1.0605892 1.00639 4.1472297 14.333333
-0.62550694 0.8834672 4.1428208 14.166667
-0.17996085 0.85169357 4.12955 14.8
0.19261074 0.80031854 4.1477861 14.5
1.5012327 1.0764705 4.2105184 13.222222
3.7719634 0.87849128 4.0024991 14.666667
4.1884661 0.8993299 4.0125871 14.142857
4.6077075 0.96834135 4.027988 14
4.9787188 1.0510308 4.2461662 14.244257
5.4063125 0.95090175 4.222775 13.736333
-2.6262233 1.4226134 4.0863276 13.5
-1.7549968 1.297217 4.1476669 14.833334
-1.3566768 1.2341626 4.1668878 15
1.4666485 1.4140393 4.193728 14.555556
5.0608864 1.2386645 4.0338068 15
5.3824191 1.2797447 4.1921463 15.002999
1.2553883 1.7366669 4.1584673 15
-2.7218535 -2.1191986 4.6359334 8.833333
-1.4068911 -2.2676234 4.5628061 6
-1.0555515 -2.2311578 4.6690788 6
-0.69330132 -2.1955678 4.72826 6
-0.32674277 -2.1608744 4.7125225 6
0.10377181 -2.1228259 4.6285114 6
0.5632453 -2.084868 4.4466114 6
-2.7555153 -1.7834715 4.6466269 11.857143
-2.3293116 -1.8094537 4.6640711 7
-1.5063699 -1.8069038 4.5873961 6
-1.1636595 -1.769611 4.7317562 6
0.44170818 -1.6187009 4.6928339 6
1.3091859 -1.815686 4.4791908 8.25
-2.7850318 -1.4846753 4.6321502 14.5
-2.2676742 -1.5037869 4.5769849 8.9000006
0.8836838 -1.5834478 4.468441 6
1.2266167 -1.3802165 4.6077256 12.5
1.6360176 -1.4390554 4.4270649 7
-2.296011 -1.0591856 4.5884233 11.709091
1.5517259 -0.98647171 4.6456256 10.583333
1.7058749 -0.9750998 4.6041327 8.25
-2.2377293 -0.5349775 4.657639 9.916667
-0.47498709 -0.59601247 4.4022331 7
1.5611176 -0.60077804 4.6205335 9.625
1.7352883 -0.5592503 4.614089 10.766666
-2.5169938 -0.17716263 4.6119308 9
-2.2825694 -0.11421101 4.5928726 9.75
1.4964018 -0.19497198 4.6660042 10.5
1.6866205 -0.19641604 4.6322546 10.25
2.6227615 -0.047325954 4.4789786 8.5
2.897397 -0.036858454 4.4706588 8.5
4.9807024 -0.021538287 4.409471 8
5.3477926 -0.21033612 4.5474768 7
-2.3246884 0.27763915 4.5975175 11.25
1.5005071 0.25097436 4.6856904 11.333333
1.6546052 0.198789 4.6043215 11.4
2.603075 0.36683017 4.4751 11
3.0679128 0.26633102 4.4928269 10.333333
3.3164356 0.02795355 4.4546328 8.8000002
4.2398663 0.10208385 4.431211 9
4.5402117 0.037278488 4.4260793 8.5
4.9994245 0.18268444 4.4903722 9.5759993
5.4983287 0.10233553 4.6151242 8.833333
-2.559139 0.43798423 4.4145923 10.5
-2.3649487 0.70403576 4.5895162 12.875
1.4989552 0.6388312 4.6681762 12.555556
2.5834174 0.78945309 4.4695473 13.5
2.8591104 0.78816968 4.4594007 13.5
3.2595854 0.60300231 4.4512148 12.35
4.1995764 0.46321738 4.4375529 11.25
4.5215211 0.44122201 4.4206905 11
4.9403429 0.51176429 4.406805 11.25175
5.4700599 0.55785036 4.6171346 12.2
-2.5057187 1.0746822 4.6253095 13.5
-2.3766026 1.0647429 4.4320412 15
1.4853872 1.0097898 4.583746 14.016666
2.5741343 1.0469797 4.4548974 15
3.0064971 0.98848659 4.4871788 14.5
3.2491055 1.0451193 4.4429283 15
4.1842313 0.94190645 4.417953 14.166667
4.5947528 1.0322866 4.4101834 14.5
4.9196897 0.86162406 4.4063001 13.335667
5.4324355 0.9230603 4.6004086 13.5
-2.5492327 1.3889669 4.4893579 14.25
1.5015388 1.465942 4.6328187 14.5
5.3465009 1.3617071 4.6439033 14.666667
-2.7062185 1.6704947 4.4265952 14
1.4967096 1.6651495 4.4517994 15
-2.8206253 -2.0780091 5.0557241 9
-2.7373838 -2.3196371 4.8067422 7
-1.8723215 -2.1174159 5.1648731 8.0410004
-2.8544226 -1.6755767 5.0278993 12.285714
-2.3800354 -1.8070787 5.1437864 7
-0.71120977 -1.7238225 4.8440218 6
-0.34406051 -1.6881801 4.8506966 6
0.020898581 -1.6548868 4.8180828 6
1.1614529 -1.7741101 5.0654058 8.5
1.2173694 -1.8065282 4.8909655 8.25
-2.8949723 -1.3624516 5.0691519 14.666667
-2.3119538 -1.50886 5.0809021 8.5
1.14455 -1.3811356 4.9803987 12.083333
1.5774449 -1.436372 4.8830566 7
-2.4437561 -0.98625308 5.0278821 14.238095
-2.1928236 -1.1597928 5.1506004 8.75
0.32035863 -0.90336239 5.1490216 7
1.148096 -1.0684524 4.8462458 15
1.4850936 -0.88406199 5.1390471 11.777778
1.7679994 -1.0810845 4.9654307 7
-2.272732 -0.52094054 5.1364684 10.375
-1.8672985 -0.79376584 4.9781418 7
-1.2878149 -0.73271924 5.1342158 7
1.4754722 -0.57954544 5.0375352 11.228571
1.7329805 -0.63393891 4.9917207 9.666667
-2.3158295 -0.13467917 5.0436449 10.625
1.4628047 -0.18761528 5.006629 9.7888889
1.6677487 -0.12364023 5.0108328 11.443877
2.6654696 -0.074704409 4.9350657 8.5
2.9828506 -0.071996674 5.0289001 8.25
4.6942272 -0.21950875 4.8682418 7
5.0639558 -0.12071838 4.8574982 7.5
5.3525629 -0.25061783 5.0074186 7
-2.5807607 0.21316788 4.8036242 10.5
-2.3543174 0.25955421 5.0711336 12.125
1.4373758 0.22234139 5.0496182 10.956667
1.6614053 0.38006961 5.102047 14.5
2.6442361 0.3393155 4.9321094 11
2.9517889 0.33480597 5.0267506 10.25
3.3294199 0.19558151 4.9093761 10
4.2832613 0.080305547 4.8829551 9
4.5841384 0.01648888 4.8751931 8.5
5.0240393 0.15359049 4.938652 9.5759993
5.4877968 0.13495755 5.0837269 8.75
-2.4939528 0.69476968 5.0182223 12.333333
-2.392343 0.64530247 4.8575406 12
1.3830893 0.60663527 5.0412765 12.893333
1.6695569 0.40633595 4.8062472 15
2.6242113 0.76084805 4.922451 13.5
2.9198632 0.74759465 5.0276937 12.25
3.3006959 0.7673465 4.9038916 13.5
4.2635374 0.48226771 4.8806109 11.5
4.5641885 0.42057672 4.8715186 11
4.9837999 0.55167383 4.8559732 11.6014
5.4408398 0.57544726 4.9876766 11.436333
-2.4536772 1.109051 5.0264096 13.833333
1.3886223 1.0576447 5.0322232 13.666667
2.6097927 1.0226111 4.924758 15
2.8992894 1.013449 5.0247936 13.5
3.2881134 1.0203537 4.9000878 15
4.2401905 0.93520534 4.8683567 14.25
4.5372953 0.96006531 4.8649111 14.25
4.9513593 1.0132951 4.849123 14.335667
5.4103928 0.9855715 4.9588485 13.8045
-2.5689545 1.5127412 4.919621 14.666667
1.1699569 1.3352636 5.1104717 13
1.4533982 1.5207071 5.0601306 14.5
2.8691664 1.4277546 5.1344867 13.5
5.331933 1.4430838 5.0976672 14.5
1.1234233 1.7971034 5.0282364 14.5
1.4172931 1.8131957 5.0279155 15
5.1153622 2.0666444 4.9269252 15.1775
-2.8872788 -2.1887693 5.4104481 8
-1.3660953 -2.1723495 5.2421594 7
-2.9580197 -1.6423569 5.4718175 12
-1.8578401 -1.6382678 5.4006081 12
-1.4441029 -1.8816061 5.3286176 8.3907499
-1.1368314 -1.675935 5.4247494 7
-0.79901516 -1.6422811 5.4722719 7
1.0913781 -1.7900754 5.4240174 8.25
-2.9936204 -1.2866037 5.4741302 14.5
-2.4311407 -1.5625395 5.3859634 9
-2.206296 -1.3381381 5.4819741 7.75
-1.8999267 -1.3330247 5.4239573 14.5
-1.3735596 -1.400219 5.4338698 7.6940002
-0.9824664 -1.4150964 5.4659753 8.3907499
-0.53280795 -1.2800028 5.468298 7
1.0394603 -1.4175489 5.4912057 11.270833
1.5254157 -1.318469 5.2047863 8
-2.484345 -1.0035784 5.3786035 13.476191
-2.2260237 -0.98054254 5.4766803 9.75
-1.2442641 -1.0623677 5.583293 8.566
-1.0061871 -1.1371286 5.4926353 8.5855007
-0.50763065 -1.0924989 5.5267606 8.5889997
1.0244479 -0.99442607 5.370811 14.75
1.5074964 -1.0158422 5.5242805 8
1.6994827 -0.84912252 5.3281622 8.75
-2.266948 -0.60056531 5.4156275 11.146666
-1.4488999 -0.48845208 5.5053916 8.031167
-0.85577345 -0.43127096 5.561058 8.0477505
-0.75279212 -0.5949738 5.3970995 7.5637498
-0.2549929 -0.64435965 5.3867788 7
0.29307571 -0.56888127 5.3498645 7
1.4602537 -0.54927307 5.4258151 9.5972223
1.698452 -0.62901539 5.3645473 9.833333
-2.5923202 -0.26085249 5.2597656 9
-2.3443739 -0.14707632 5.4555864 11.4
-1.3088369 -0.39320508 5.4757695 8
1.4883275 -0.11734095 5.4129596 9.0555563
1.6841087 -0.35266221 5.3198109 11.25
2.6692047 -0.10628405 5.4295216 8.5
2.9437327 -0.094044119 5.4241991 8.5
3.3623991 -0.026369333 5.4121962 8.8000002
5.0691872 -0.14512902 5.37813 7.5
5.488657 -0.074321792 5.2694287 7
-2.475177 0.24470975 5.420711 10.625
-1.7402198 0.083015323 5.40834 9
1.443745 0.27539268 5.423069 10.75
1.6306462 0.10134876 5.3629255 14.166667
2.6471362 0.3074114 5.4254088 11
2.9222846 0.31404772 5.4183602 11
3.3234043 0.32723537 5.4123144 11
4.2866211 0.053579748 5.3929634 9
4.5644827 0.21577474 5.384059 9.8999996
5.0035706 0.096914418 5.3718319 9.00175
5.4472833 0.24326389 5.5414424 8.5
-2.5164154 0.67243683 5.4140182 12
-1.7922131 0.55495065 5.3485837 10.333333
1.3767807 0.69475949 5.4056182 12.833333
1.639663 0.4171015 5.4149132 14.333333
2.624213 0.73022783 5.4227796 13.5
2.899575 0.7312994 5.4175081 13.5
3.301595 0.73825705 5.4087963 13.5
4.2566643 0.61880058 5.3849564 12.5
4.9853654 0.52655041 5.3704882 11.6014
5.4120865 0.65330315 5.4527321 11.254499
-2.5577347 1.0677378 5.4154186 13.25
1.3586553 1.0194122 5.4356899 13.833333
2.6104193 0.9906044 5.4195309 15
2.8860099 0.98811758 5.4137812 15
3.2890921 0.98969305 5.3986988 15
4.2349982 1.0358022 5.3829746 15
4.5382853 0.93421286 5.3786092 14.25
4.9518781 0.98811436 5.3646793 14.335667
5.3858733 1.0541717 5.4179606 13.672666
-2.5975661 1.4309968 5.4207096 14.375
-1.8834318 1.3668209 5.4687009 12.5
1.3668603 1.4006106 5.4185524 14.625
5.3279366 1.4383608 5.5305185 14
-1.9401915 1.8765602 5.2333302 14
1.395859 1.8450028 5.2182093 15
5.3092289 1.6698139 5.543973 15
-3.0028911 -2.0324481 5.8537879 9
-3.0311427 -1.6612048 5.8335404 11.5
-2.4426544 -1.8055253 5.6754589 7
1.0319211 -1.8163784 5.6809788 8
-3.0749636 -1.2749953 5.8441648 14
-2.4879413 -1.5345373 5.8181677 9
-2.2487483 -1.2006223 5.9404688 8.5
0.9861201 -1.300203 5.671217 12
1.4710355 -1.3693841 5.65484 7.5
-2.5280793 -1.1231985 5.8082323 12
-2.2477283 -0.96630228 5.8309135 9.6499996
-0.98965728 -0.96293771 5.6207819 9.2842503
0.56084621 -0.93559891 5.999424 7
0.97591758 -0.99886191 5.7057567 12.25
1.4403793 -1.0175034 5.6571732 9.25
-2.5643232 -0.76677692 5.813406 14.5
-2.3355138 -0.6187647 5.8438339 8.833333
-1.2733599 -0.67030859 5.7794189 10.544
-1.1980066 -0.67495787 5.6278763 11.5
1.4022285 -0.63726163 5.6473899 11.5
-2.502373 -0.20043333 5.8620458 9.166667
-2.3151519 -0.26038465 5.854465 13.566667
-1.2467782 -0.27052438 5.7282658 13.25
-1.054857 -0.11369154 5.9520369 9.1070004
-0.65559113 -0.25552326 5.7740064 8.0477505
1.3545179 -0.28051752 5.6255531 12.75
2.6685512 -0.15966567 5.866612 8.5
2.9423752 -0.14618847 5.8642025 8.5
3.3534479 -0.076870471 5.8583083 8.8000002
4.5492716 -0.008213073 5.834548 8.8000002
5.0275145 -0.10798588 5.8238697 8.00175
-2.5457695 0.2282597 5.8621011 10.5
-2.3123004 0.044511795 5.6796374 14.5
-1.3431374 0.023303971 5.7489872 11.79675
1.3922409 0.21254921 5.6712246 10.75
2.6431851 0.25441259 5.8682346 11
2.918313 0.26209825 5.8622622 11
3.2984481 0.30820608 5.8541341 11.2
4.2946467 0.0079631507 5.8360224 9
4.5682092 0.35044456 5.8342776 11
4.9925003 0.28498709 5.8249245 10.4014
5.4452558 0.25924671 5.8799529 8.5
-2.5799296 0.61170208 5.8516331 11.666667
-1.4699116 0.4762913 5.7735734 11.0935
1.3497957 0.60947955 5.6633706 12.25
2.6207042 0.67523676 5.8570256 13.5
2.8940337 0.6791321 5.8599629 13.5
3.2965782 0.68713862 5.8491969 13.5
4.2519846 0.57325184 5.8356876 12.5
4.5384493 0.7611872 5.8251343 13.5
4.9387326 0.68803573 5.8265309 12.833333
5.4051237 0.65107393 5.838707 11.254499
-2.6184719 0.99318296 5.8509088 12.833333
-1.8313339 0.83036578 5.60251 11
1.4141448 1.0357134 5.7211924 12
2.605248 0.9356339 5.8560023 15
2.8796573 0.93545163 5.8552356 15
3.2824743 0.93918824 5.8430228 15
4.227809 0.98858595 5.8278384 15
4.5243249 1.0156081 5.8240142 15
4.9665275 0.97657317 5.8158712 14.5028
5.3807349 1.0069119 5.8247433 13.506
-2.8288009 1.2196834 5.7904654 13
-2.5757618 1.4621077 5.8878531 14.5
1.3848116 1.3487196 5.7154217 13
5.3271036 1.3965824 5.8527746 13.5
-1.9302189 1.6593781 5.9956164 13
1.3403401 1.8290262 5.7156754 14.5
5.2967963 1.7583618 5.8713293 15
-3.0754366 -2.2086287 6.2739677 7.75
-3.1348724 -1.6768551 6.3040905 11
-3.1779661 -1.2573931 6.2974758 13.5
-2.5353031 -1.5097266 6.1909642 9
-3.2017908 -0.9993304 6.289156 15
-2.5719206 -1.1375223 6.1826639 11.5
-2.2310791 -1.108207 6.1199775 8.5
-2.6105835 -0.75191545 6.1885338 14
-2.2668169 -0.69713199 6.098732 10.5
