# .PCD v0.7 - Point Cloud Data file format
VERSION 0.7
FIELDS x y z intensity
SIZE 4 4 4 4
TYPE F F F F
COUNT 1 1 1 1
WIDTH 1217
HEIGHT 1
VIEWPOINT 0 0 0 1 0 0 0
POINTS 1217
DATA ascii
-0.55337489 -0.13459249 1.3849962 4.7759266
-0.21124059 -0.13634799 1.4319701 4.2468252
0.21843603 -0.13436058 1.3674651 6.2720222
0.58520919 -0.15354253 1.3938298 11.392991
0.95838487 -0.15214583 1.4138577 5.5515151
1.4069941 -0.13726309 1.3773197 4.3289475
1.8377584 -0.17242263 1.4098481 7.5739026
2.1118546 -0.12511045 1.3931029 6.9049931
3.1409731 -0.17386794 1.3738482 9.3197832
3.2590485 -0.2075693 1.3839587 7.289773
3.7694285 -0.20692466 1.4118432 13.632275
4.1788416 -0.27858281 1.352559 4.4954734
4.6080184 -0.28361142 1.4045993 4.2406759
4.9537058 -0.30472329 1.4274676 4.3791661
5.4109454 -0.19055633 1.408007 7.2073369
-7.6666045 0.12832971 1.2247248 13.166667
-7.3654094 0.17665203 1.2738757 13.954545
-7.0081306 0.14518788 1.2922286 13.961538
-6.5953579 0.17573448 1.3168949 14.09804
-6.1837797 0.18395357 1.3429229 14.489583
-5.7778907 0.2133275 1.3794378 14.71282
-5.3773589 0.24511436 1.398059 14.761905
-4.996068 0.19052304 1.4162046 14.480953
-4.5523314 0.19524972 1.4216529 14.470238
-4.1906791 0.11279264 1.4384371 14.237798
-3.7966249 0.10637679 1.4433492 14.23006
-3.3901157 0.091382504 1.4646331 14.482381
-2.9738569 0.13592754 1.4864651 14.207845
-2.6080601 0.17557731 1.4914918 13.346337
-2.1889117 0.23645979 1.5194874 13.277089
-1.7832865 0.17572932 1.4242278 10.133345
-1.2907804 0.19394915 1.4361449 13.002564
-1.1033218 0.19926213 1.3680699 13.058411
0.61736196 0.11983202 1.5666045 13.023737
0.83221942 0.12966502 1.5430492 13.934128
1.8894863 0.27317247 1.4011078 12.066596
2.1519604 0.20647362 1.4089441 11.160474
3.0941362 0.13965116 1.3748503 13.597855
3.2269502 0.21745051 1.3976505 12.434218
5.4247942 0.1897555 1.4114188 12.516775
-7.7032952 0.57802784 1.2511292 14.888889
-7.4288321 0.50092202 1.2669266 14.5
-7.0484514 0.54153997 1.3088007 15
-6.579339 0.51496762 1.3109127 15
-6.1406822 0.51501232 1.3326759 15
-2.9469192 0.67966866 1.5142245 12.5
-2.5975878 0.55551976 1.5301286 12.716667
-2.1696205 0.61991811 1.5349733 14.302468
-1.7669593 0.53912443 1.4184155 13.200943
-1.3082863 0.62133187 1.3780404 13.854166
-1.1354953 0.54213083 1.4116037 13.996768
1.8693248 0.6261186 1.4039593 14.07523
2.1418087 0.51659524 1.4221663 14.084812
3.1572137 0.62841374 1.4275635 14.071428
3.2105289 0.40186524 1.3106146 13.285714
5.3946342 0.51730102 1.3896849 13.404483
-2.9273539 1.096543 1.5151302 14
-2.6356292 1.0019654 1.5417609 13.775757
-2.2684591 0.94694519 1.5652715 14.444444
-1.7888267 0.93865269 1.4476656 13.764192
-1.3910955 0.95752454 1.4147809 14.516667
-1.0866573 0.93969649 1.3425089 14.009523
1.8439314 0.97804683 1.3860459 14.5
2.030947 0.85740852 1.3650174 12
5.4129915 0.97841156 1.4053288 14.050001
-2.9428139 1.3817637 1.506457 15
-2.6184497 1.3306261 1.5400302 14.90625
-2.3295906 1.2037431 1.5593448 14.5
-1.8388505 1.2451226 1.4265754 14.819445
-1.444136 1.2261223 1.4401127 15
-1.116629 1.2580245 1.4121299 15
1.9446946 1.3254883 1.3924842 13.5
5.3372917 1.4026791 1.4233103 14.814285
1.8974979 1.7836022 1.3911438 15
-2.1075869 -2.4491069 1.8581581 6.5083332
-1.9377177 -2.4577737 1.8872479 5.4761901
-1.5363574 -2.5024276 1.9548998 3
-2.0862379 -2.1690702 1.8088378 9.4808884
-1.8561841 -2.1942692 1.768221 6.0400105
-1.369601 -2.1295116 1.6912628 5.7148266
-1.1327752 -2.1151507 1.6878947 5.4773006
0.26578093 -2.1113331 1.8525938 6.2965937
-7.3411293 -1.7861623 1.6606007 7.25
-7.0093999 -1.7965767 1.6724815 7
-6.650631 -1.7035675 1.7038099 7.125
-5.8805795 -1.6787516 1.7517687 7
-5.4917374 -1.6817415 1.7693491 7
-2.0841444 -1.8343328 1.8573035 13.407553
-1.8763438 -1.7823641 1.7745768 9.2634125
-1.3659686 -1.7908634 1.7161413 9.0021982
-1.1221031 -1.7863295 1.7140749 9.0627756
-0.68281996 -1.6578121 1.6408913 3
0.3009204 -1.8124619 1.904338 9.0355606
1.8829705 -1.7688242 1.9298588 9.5
-7.3153996 -1.5002719 1.6527613 8.4909096
-6.9607615 -1.4729871 1.675899 8.515686
-6.5937319 -1.3664565 1.692149 8.7685184
-6.2340984 -1.2821147 1.7301663 8.9722223
-5.8063359 -1.3726749 1.7640648 8.1765871
-5.4263096 -1.3366914 1.7761563 8.018857
-5.0575361 -1.4068718 1.7552338 7.2307692
-4.7614126 -1.358703 1.6144693 7
-4.0058756 -1.2746291 1.6240773 8.5
-3.7885981 -1.3758985 1.6517301 7.681818
-3.4086089 -1.435605 1.6883303 7
-2.987082 -1.3767627 1.738407 7.2045455
-2.5918047 -1.3390301 1.7411548 7.1821551
-2.1003697 -1.3901391 1.857873 11.427868
-1.871767 -1.3898953 1.7787279 11.095862
-1.380663 -1.4104832 1.7248147 10.465532
-1.1093488 -1.4304932 1.7378358 10.195598
-0.61825091 -1.3804682 1.8367057 4.7051282
-0.31037998 -1.3945432 1.8204584 17.383743
0.33816487 -1.3992898 1.9061936 9.535532
0.47003391 -1.2642285 1.8814025 6.75
1.3860718 -1.2020828 1.8557043 6
1.9059995 -1.254289 1.9055958 6.4499998
-7.3726659 -1.1097871 1.6448116 10.522917
-6.9934416 -1.0582817 1.6715758 10.583334
-6.5750852 -1.0154743 1.6965355 10.570588
-6.205081 -0.97249323 1.7350844 10.538462
-5.7839303 -0.91186863 1.7580435 10.570107
-5.3757119 -0.95226204 1.7485914 10.042235
-5.0519109 -1.0722082 1.7576065 9.0920172
-4.0538573 -0.8619439 1.612172 11
-3.7147937 -1.0853436 1.652969 9.3214283
-3.3231719 -1.0969019 1.7046356 8.610507
-2.9502997 -1.0229689 1.7386914 8.5515871
-2.5796537 -1.0089151 1.7469354 8.8365078
-2.1480336 -1.0012817 1.7713171 9.0723791
-1.8315394 -1.0056187 1.7542038 10.879891
-1.3798206 -0.97429734 1.762393 8.5707264
-1.1207652 -1.0427978 1.750475 9.9575691
0.33446631 -1.0471926 1.8168296 10.721827
0.52120739 -1.0138754 1.7567118 10.427789
0.96655792 -1.0252218 1.7047797 7.3024998
1.2006524 -1.1924359 1.801139 6
1.8979545 -0.98954111 1.8283995 8.4957991
-7.4108925 -0.65216196 1.6478474 12.755208
-7.0224204 -0.62985402 1.6667465 12.753333
-6.5847511 -0.60009372 1.694872 12.7
-6.2032981 -0.54502559 1.7346572 12.613554
-5.80124 -0.49646384 1.7521509 12.731771
-5.4081297 -0.57564968 1.7449527 12.106593
-5.0413113 -0.67237639 1.7185102 11.444445
-4.0845366 -0.42152154 1.6100402 13.5
-3.7463255 -0.67361379 1.6487491 11.776922
-3.3742111 -0.70310122 1.6917336 11.217302
-2.9746065 -0.62054294 1.7457067 10.724378
-2.5847683 -0.63078004 1.7270936 10.389384
-2.1773691 -0.63047934 1.7031183 10.445985
-1.7819195 -0.60350764 1.7112558 10.095113
-1.3892068 -0.58201736 1.7491686 9.6954975
-1.0666012 -0.58680713 1.7192407 8.136776
-0.61465961 -0.68718642 1.819461 6
-0.19849899 -0.64412212 1.8157737 6
0.2641767 -0.6049664 1.8168761 10.929674
0.56990737 -0.54429227 1.698416 8.533309
0.8747884 -0.49049211 1.7527577 6.9000001
1.875334 -0.60219771 1.8413237 11.606912
3.190098 -0.42772344 1.9004322 5.7333336
3.2263935 -0.45938385 1.8246878 5.4363332
4.1637316 -0.43204236 1.7918438 3
4.6359782 -0.42528814 1.8476214 3
4.9581728 -0.42288083 1.8068585 3.8653846
5.2435765 -0.4089053 1.6445497 5
-7.6305985 -0.36310244 1.6150122 14.5
-7.3691559 -0.24096364 1.6511769 14.690477
-6.9973226 -0.23988187 1.6783074 14.56739
-6.6063023 -0.21512508 1.6939201 14.58421
-6.197979 -0.1550685 1.7365934 14.523435
-5.7629995 -0.13756441 1.7419384 14.558332
-5.3802333 -0.16155688 1.7544041 14.292537
-5.0809011 -0.23461589 1.713966 14.116666
-4.1168542 -0.15734911 1.6023149 15
-3.7783535 -0.22604106 1.6459945 14.193333
-3.3931258 -0.24907772 1.701139 13.594232
-2.9815729 -0.20456383 1.7378824 12.746175
-2.5849168 -0.23507048 1.7258687 12.580521
-2.1873286 -0.24101163 1.7294677 12.433764
-1.7693015 -0.19668558 1.7364138 10.861673
-1.4130592 -0.21722341 1.7342552 11.8978
-1.0100704 -0.17744237 1.6982386 9.0664062
-0.61107439 -0.12408918 1.6836355 5.5394735
-0.19666831 -0.12655024 1.7278875 4.3550725
0.1980101 -0.16341084 1.8008895 6.7875896
0.59171754 -0.20460084 1.736147 11.42331
0.94191408 -0.17256734 1.8079473 8.5734539
1.438677 -0.13663478 1.8021756 4.9384055
1.8552868 -0.18052824 1.8068346 8.2861147
2.1719692 -0.1288767 1.8049603 6.1423306
2.584585 -0.094981596 1.8197182 5.9691119
3.1370876 -0.18462354 1.8062402 8.9973822
3.3101368 -0.21019493 1.8121629 9.0146828
3.7374988 -0.17376652 1.7450995 12.328703
4.1956944 -0.2991257 1.8213748 4.3735628
4.602355 -0.28880182 1.8214051 4.6069999
5.0136266 -0.31228626 1.8212963 5.0796504
5.4210114 -0.16297129 1.8037595 7.3726578
-5.5408726 0.026357114 1.7589848 14.45
-5.1693044 0.0087310076 1.7780955 15
-3.7304041 0.028529346 1.6625354 15
-3.3408341 0.096539684 1.7635033 14.545455
-3.000495 0.19406371 1.7939379 13.371099
-2.5814428 0.18035792 1.795261 13.045643
-2.183116 0.17045267 1.7619457 13.036426
-1.7794046 0.16371794 1.7688379 11.607002
-1.395077 0.18079703 1.7701058 13.282363
-0.9996407 0.15198438 1.7284557 11.294253
-0.59346557 0.17185363 1.7673059 11.289333
-0.1845175 0.13532226 1.7161142 11.001447
0.16934597 0.11258063 1.7998672 11.618596
0.56826544 0.11566834 1.7136641 12.370506
0.874699 0.18234587 1.7927414 11.495716
1.8542703 0.26611134 1.8197584 11.925907
2.2223358 0.16117342 1.7939621 12.435992
2.5683842 0.15572658 1.8092937 11.905091
3.0864387 0.17234574 1.7757643 13.203363
3.22276 0.2591691 1.8085883 12.069445
5.428308 0.17987758 1.8118503 11.852214
-3.2338457 0.52542573 1.8051497 15
-2.9699011 0.63213795 1.8055757 13.833333
-2.5830765 0.59567076 1.8235682 13.785714
-2.2062924 0.5764159 1.7756227 13.056972
-1.7644775 0.56151295 1.7973208 13.435923
-1.3570549 0.58767009 1.774483 14.124537
-1.1106822 0.52459222 1.7332796 12.935088
-0.67781991 0.47194645 1.9318899 14.422279
1.8293549 0.63503277 1.822129 14.04205
2.108022 0.55813092 1.7088469 14.309525
2.626369 0.43598247 1.7665205 14.87061
3.0771487 0.54704815 1.8053603 14.251234
3.2052448 0.54853588 1.8215466 14
5.3958774 0.50376362 1.8166293 13.305376
-2.979142 0.88583916 1.8043569 12.75
-2.6419804 0.96547276 1.8043491 13.166667
-2.2450023 0.96881527 1.7454231 13.996969
-1.7925018 0.91746575 1.7938111 14.037404
-1.4166785 0.96761203 1.7431437 14.7
-1.0985793 0.95404917 1.808421 13.681818
1.5580442 0.97860599 1.9810901 13.5
1.7919388 1.0078415 1.8225191 14.73913
5.421525 0.99290383 1.7976255 13.881529
-3.2311912 1.4110291 1.8016953 14.5
-2.955874 1.4012853 1.7975974 14.533334
-2.6060517 1.3890827 1.8070439 14.636364
-2.3297358 1.3764938 1.804527 14.722222
-1.8451767 1.248172 1.7903862 14.844445
-1.5051446 1.3206556 1.6519229 15
-1.0977188 1.3232782 1.7845343 15
1.5334784 1.2884644 1.8975878 15
1.7929494 1.2198606 1.8993628 15
5.3847365 1.3475463 1.8079621 14.844
5.2100935 1.6110452 1.8745959 14.5
-2.208199 -2.444752 2.2828624 6.5
-1.9428556 -2.4622126 2.319767 5
-1.5121738 -2.4656045 2.1665714 3.4166667
-2.1420398 -2.1649063 2.208451 8.3758564
-1.8952863 -2.1875694 2.154079 5.440001
-1.4448153 -2.2047377 2.2050905 3.0425532
-0.54933923 -2.3055701 2.3401444 27.714285
0.33952814 -2.1142361 2.0778177 7.0067058
0.4538222 -2.1218872 2.2137997 6.2771258
0.84263986 -2.1575301 2.2629673 5
1.7978518 -2.0723209 2.1315284 6.5098038
-2.0960033 -1.7948021 2.1705229 11.633947
-1.8731472 -1.7715716 2.2028403 5.7747235
-1.3758341 -1.8252493 2.3013835 3
-0.99794984 -1.619174 2.2454991 3
0.34473541 -1.8231494 2.1119831 11.524515
0.4802427 -1.7712244 2.2188168 8.2079353
0.93429476 -1.7616328 2.2577839 5
1.8412354 -1.771322 2.1432781 7.8470325
-2.0426812 -1.427675 2.1569357 13.412371
-1.9329668 -1.4244304 2.1670182 8.8483925
-1.3443035 -1.5085305 2.1948292 4.5166669
-0.96134526 -1.5095267 2.1935802 3.75
-0.63218021 -1.377195 2.2097366 4.909091
-0.27272722 -1.4038441 2.2128158 17.19066
0.32709858 -1.4056995 2.0992036 11.44376
0.4939532 -1.4137951 2.1699898 9.6647024
0.98111081 -1.427896 2.2297497 5
1.8692553 -1.3861772 2.118906 9.7573977
-2.0250657 -1.1164265 2.2130556 14.897842
-1.9901859 -1.0913182 2.1023054 14.544715
-1.3533206 -0.92434108 2.0070238 7
-0.38091421 -0.83074969 2.0107775 7
0.29115528 -1.052888 2.0148091 10.845572
0.51299286 -1.1250387 2.0945737 13.121641
1.8796364 -1.0035352 2.1327078 11.20795
-1.2945836 -0.72113729 2.2555346 7
-0.9598887 -0.65038353 2.2238421 6.7692308
-0.59910589 -0.69696122 2.1949999 6.4000001
-0.19321781 -0.66705883 2.1114578 6
0.23873675 -0.58778828 2.0427058 6.4000001
1.8526652 -0.63987499 2.1836383 12.426001
3.1911948 -0.43223774 2.1263409 5.8479991
3.2285159 -0.45377842 2.2139046 5.4596605
4.1883116 -0.43568987 2.2729807 3.1132076
4.544528 -0.42795348 2.1856861 3.4075162
4.9129605 -0.41699696 2.1744635 4.5999999
-1.7223276 -0.068784669 2.1735382 6.8633332
-1.3773261 -0.13641213 2.0579536 6
-0.92930651 -0.24112514 2.0594311 8.5
-0.79524279 -0.22931112 2.1691699 8.5
-0.18362485 -0.15849718 2.1673381 3.470875
0.17906979 -0.12890697 2.2388391 5.9943337
0.62567806 -0.14045359 2.2175713 5.2142859
1.0338109 -0.15864721 2.157907 13.069135
1.3810121 -0.14992371 2.2498991 14.062169
1.8305992 -0.18337302 2.2049305 9.2879486
2.1624947 -0.16901986 2.2146246 5.6319447
2.6345978 -0.17234376 2.2388275 4.7982454
3.16078 -0.17628159 2.1924877 10.430655
3.2844231 -0.23121768 2.1871593 12.496
3.8220077 -0.17352515 2.1474161 4.4102564
4.216361 -0.28411639 2.1530781 4.443223
4.526628 -0.28707817 2.1626852 5.1801047
4.9065194 -0.29391706 2.2170708 5.3805308
5.444705 -0.15848 2.2235057 7.4116883
-1.7377312 0.18563737 2.192312 9.7498188
-0.88402277 0.209041 2.0906985 10.333333
-0.69435596 0.28833011 2.2717578 10.301955
-0.020770004 0.048689626 2.2147405 8.8116846
0.098726206 0.11887819 2.2182465 11.124244
1.0161405 0.23219709 2.0429153 10.3755
1.8036615 0.25371405 2.2106769 11.715581
2.0417864 0.30912688 2.1922021 12.108673
3.1235163 0.20095673 2.139297 13.353944
3.2297781 0.20876297 2.2131083 11.117227
5.4314084 0.17526443 2.203855 11.323006
-1.758379 0.5630855 2.1892431 13.138385
-0.91863418 0.56313002 2.1178422 11.75
-0.66231233 0.53514183 2.2559683 12.946036
1.5895107 0.56574082 2.1067386 11.5
1.8037975 0.66257477 2.2274911 13.859776
2.1027362 0.63443214 2.2096431 13.527779
3.1580429 0.63779241 2.2244136 13.857142
3.2041652 0.47611737 2.2465601 12.85
5.3979125 0.5364753 2.2317572 13.278207
-1.8123356 0.95666665 2.1874251 13.718749
-0.9514339 0.92120957 2.0306664 13.25
-0.73045892 0.87616777 2.2721095 14.539853
1.5902913 1.0597615 2.2535522 14
1.7742121 1.020028 2.1780322 14.684211
2.2259769 1.1284671 2.3153806 13.5
3.0704179 0.98240721 2.3215864 14.4
5.4215302 0.99973398 2.1840873 13.752932
-1.8417604 1.2549963 2.1446168 14.940305
-0.98783958 1.2560253 2.1029394 14.5
1.5697215 1.2793846 2.2345393 15
1.8402052 1.2924887 2.1295435 15
2.1907547 1.4767089 2.314538 15
5.1784134 1.551873 2.2512631 14
5.3720293 1.3531433 2.2076001 14.677778
5.183073 1.7232296 2.1491895 14.875
5.2119541 1.7305762 2.3186467 15
-2.3061423 -2.4463506 2.6860237 6.5
-1.8441579 -2.4578142 2.7492547 4.8823528
-2.2237868 -2.1616592 2.6067727 8.2018337
-1.8662897 -2.1874788 2.5561287 5
-1.4832674 -2.1913309 2.5324295 4
-0.51288491 -2.1503294 2.4800174 23.754099
0.38300741 -2.2139719 2.6852279 4
0.62872815 -2.1432986 2.7478116 4.5666666
0.85166621 -2.0596719 2.5984583 5
1.7424935 -2.070374 2.5081558 6.5
-2.1597371 -1.7917353 2.5963738 10.937683
-1.7870703 -1.7946892 2.6370738 5
-1.3868133 -1.7955856 2.6492755 3.9822693
-0.45225966 -1.8238525 2.5232701 24.925926
-0.37982729 -1.764222 2.5224488 25.155844
0.52043045 -1.7853098 2.759594 4
0.93505317 -1.7983828 2.5795503 5
1.7838982 -1.7711095 2.5235107 7.8761268
-2.0906868 -1.4073986 2.6146166 12.817109
-1.9123133 -1.5058718 2.5787399 6.8441291
-1.364997 -1.5261241 2.591743 4.5982456
-0.96569848 -1.4388503 2.6057327 4.9907403
-0.45857033 -1.4996855 2.5467579 18.333334
-0.30543575 -1.4793786 2.5203931 20.150944
0.27873975 -1.3281004 2.6347697 5
0.59693289 -1.4285219 2.6721921 4.3125
0.96817702 -1.45727 2.644489 5.019608
1.8125677 -1.3967774 2.51933 9.8064432
-2.0648253 -1.0730325 2.6408055 14.507902
-1.4925958 -0.80901879 2.7760746 7
-0.17290664 -0.91160405 2.7412739 7
1.8344575 -1.0192519 2.5371311 11.129489
-1.0183579 -0.72892582 2.5550513 7
-0.54527438 -0.6272164 2.5741827 7
-0.21002083 -0.56339872 2.6181622 7
0.14081383 -0.48935032 2.6377349 7
1.8090297 -0.64635718 2.589494 12.440707
3.1774042 -0.4185749 2.6769028 6.8333335
3.2230685 -0.45035043 2.6155896 6.068213
4.2124119 -0.4444178 2.6031837 4.2647057
4.4802823 -0.43543506 2.6034648 4.7469134
4.845108 -0.42244416 2.4484737 5
-1.7527591 -0.055981878 2.6154053 7
-0.54521012 -0.16512823 2.7414298 6
-0.11998621 -0.17154835 2.6806812 4.6666665
0.20065455 -0.15113606 2.5595167 5.1666665
0.58671689 -0.14886521 2.6326718 5.2592592
0.99278992 -0.16210315 2.6162932 5.0714288
1.3977033 -0.16807638 2.5993447 7.0892258
1.820663 -0.17243323 2.5680082 10.82459
2.1863756 -0.16482438 2.5347269 12.451825
2.5986872 -0.17216855 2.5856781 12.885469
3.1531315 -0.17421903 2.5948155 10.987467
3.2627606 -0.22025181 2.5949771 7.8355989
3.8147342 -0.1713939 2.5697463 4.5308642
4.2190309 -0.27281624 2.5691123 4.9568968
4.5620027 -0.26503199 2.5971615 5.5175438
4.9979062 -0.24977882 2.5914769 5.9622641
5.4536605 -0.16181131 2.6177855 7.3720918
-1.7404258 0.18363692 2.6249008 9.3300228
-0.64185643 0.084964439 2.5254412 8.5024996
-0.071287431 0.06223511 2.4610555 8.8048086
0.10116281 0.11229875 2.4575117 9.6823759
1.5939264 0.22932953 2.6713042 14.6
1.7757257 0.26582217 2.6189234 11.643991
2.0555196 0.28098753 2.6029673 11.210889
3.1607952 0.15579168 2.6206732 14.323089
3.2295043 0.19770046 2.6198027 10.614286
5.4376879 0.16980337 2.6129599 10.737623
-1.7476079 0.59131217 2.6023498 12.716934
1.5894516 0.7307272 2.4635401 12.5
1.7868549 0.67486304 2.6312625 13.374792
2.0139415 0.68946767 2.6122217 14.533333
3.1595495 0.64724982 2.6306732 13.9375
3.216011 0.42450395 2.6470575 11.9
5.4065819 0.58317655 2.6094325 13.522242
-1.7791526 0.92231846 2.5836811 14.045542
1.5173527 1.0660213 2.5543077 13.833333
1.7523369 1.0359949 2.6265357 14.48
3.1141837 0.86942577 2.706398 13.75
5.4113431 0.97248417 2.611881 13.755356
-1.8365713 1.2419481 2.6394711 14.833334
1.5299826 1.3281486 2.5650594 15
1.735974 1.413819 2.6674249 15
5.173562 1.4930606 2.4837775 13.5
5.3901329 1.3740731 2.6162245 14.735348
5.1686497 1.8145537 2.5070038 15
5.2378397 1.7810285 2.6377101 15.084249
-2.4087412 -2.4520953 3.0650189 6.5
-2.3899801 -2.4405859 3.0765717 6.5
-1.6793801 -2.4336767 3.0174861 4.8000002
-1.366408 -2.4283378 2.920867 4
-2.4170527 -2.1540463 3.0564187 10.392195
-2.2730341 -2.1655602 2.9926214 7.3235478
-1.7464372 -2.2361007 2.9512959 4.8650794
-1.3952559 -2.1708212 3.0456779 4.1805553
0.20229638 -2.2084448 3.1497266 4.2398372
0.56712747 -2.138355 3.1211998 4.8333335
0.84412831 -2.0142667 2.8419149 5
1.6505628 -2.0629551 2.8879256 6.4933333
-2.4437094 -1.8548299 3.1036205 14.211131
-2.1903324 -1.7805756 2.9666295 9.9817038
-1.6952438 -1.7987565 3.0515163 5
-1.4459141 -1.8084377 3.0869081 4.4583335
-1.1648202 -1.8635052 3.1627822 4
0.35626885 -1.8853073 3.080163 4
0.59722716 -1.7383139 3.1153872 4.5047622
0.85711968 -1.8056462 2.9510696 5
1.704174 -1.7701823 2.9152129 7.8499994
-2.1243465 -1.4214047 3.0047455 11.691426
-1.6521771 -1.5388347 2.9817474 5.4444447
-1.3547978 -1.5335438 2.9828367 4.7787037
-1.0162455 -1.4998895 3.0552869 4.5555553
-0.5711289 -1.4106121 2.9740629 5.0833335
-0.15743388 -1.3786275 2.987206 4.9000001
0.28982088 -1.3649205 3.0644422 4.6666665
0.60414445 -1.3957148 3.080081 4.7413793
0.86481977 -1.4333879 3.1119354 5.1142859
1.5246705 -1.3761266 2.9293242 11.380417
1.7603525 -1.3782154 2.9124672 9.5630064
-2.1026101 -1.0660511 3.0303597 14.021052
-0.21354288 -0.96216917 3.0711312 7
1.7904476 -1.0233539 2.9231205 11.400444
-2.1142979 -0.79551077 3.0704241 13.636364
-1.3630005 -0.78853983 3.0582607 7
-1.0201306 -0.75023395 2.971487 7
-0.55907768 -0.69191468 2.9612644 7
0.14289367 -0.55569553 2.8901324 7
0.49656069 -0.49885079 2.8462038 7
1.0467359 -0.51802969 3.0775983 7
1.4646695 -0.46899891 3.0862937 7
1.7870042 -0.60616702 3.0123031 12.80187
3.1620045 -0.41198531 3.0482521 6.9583335
3.2226892 -0.44227567 2.9669039 6.6333327
4.2355447 -0.46096379 2.831775 5
-1.8288414 -0.20323932 3.0185785 7.125
-1.0806091 -0.18883494 3.1446149 6
-0.43958628 -0.16239251 2.9589059 6
-0.13024364 -0.16603951 2.9199419 5.2941175
0.21606502 -0.16089121 2.9816687 5.2142859
0.61601281 -0.15801524 2.983479 4.8428574
1.0122174 -0.15541615 3.0111179 4.8611112
1.4105223 -0.16955049 3.0159872 4.8700857
1.8026369 -0.16604118 3.0021863 6.3547268
2.1694922 -0.17523968 2.9941022 5.7200756
2.5997431 -0.18454832 2.9913085 5.2065215
3.165381 -0.16831648 3.0009906 9.0227461
3.2599075 -0.23004861 3.0328777 8.043643
3.7972724 -0.17935374 2.9965646 4.7653513
4.2143698 -0.19591026 2.9583292 5.1934214
4.5661058 -0.25950789 2.9835641 5.8095241
4.9558544 -0.22778575 3.0225461 6.28125
5.439743 -0.17744812 3.0128617 7.1921082
-1.7487859 0.16606356 3.0082996 9.0462809
1.5512342 0.31536278 2.9109108 10.333333
1.8047701 0.30694857 3.0080352 10.959682
2.0335655 0.32333866 2.9440286 11.722222
3.1668169 0.15096149 3.001688 14.185792
3.2262166 0.064023532 3.0223477 12.176028
5.0662227 0.21477808 3.099009 9.1002493
5.4491048 0.16879801 3.0083969 10.488596
-1.7356943 0.5886386 3.0145969 12.40219
1.5329286 0.6465283 2.9419019 11.75
1.7906839 0.68928939 3.0232317 13.418977
2.0071034 0.65535533 2.9454122 13.85
3.1380115 0.65092951 3.0111117 14.160254
3.2137873 0.42015597 3.011461 11.777778
5.0389681 0.50081569 3.0938606 11.326321
5.4234695 0.57277548 3.0025587 13.198092
-1.7491244 0.91444063 3.0215724 14.181887
1.5178934 1.0288723 2.9651935 13.416667
1.7268151 1.0421629 3.0266356 14.568627
3.0379028 1.1072718 2.986372 14.333333
5.4196501 0.91173273 3.0080223 14.125852
-1.8356667 1.2349837 2.9820871 14.7125
1.4710294 1.3858763 2.9627938 14.857142
1.6684011 1.3177123 3.0367157 15
5.4395418 1.337117 2.9758646 14.803397
5.3437057 1.6942465 2.8142152 15
-2.4978304 -2.4479632 3.488781 6.5
-1.3627354 -2.4214549 3.353215 4.7222223
-2.4923396 -2.1841755 3.5080442 9.1021509
-2.2860746 -2.1465302 3.3171244 6.5
-1.6310644 -2.2450595 3.2974329 5
-1.359548 -2.209399 3.4147961 4.7368422
-0.90206176 -2.2262795 3.3525593 4.0394735
-0.54398078 -2.1593678 3.4255035 4
-0.10973763 -2.1705034 3.4657321 4.3636365
0.19879183 -2.1145566 3.4446898 4.6326532
0.5306223 -2.0332754 3.2496254 4.75
1.544154 -2.0643716 3.319118 6.5166664
-2.5244713 -1.8013554 3.4708636 14.03488
-2.2400453 -1.7759079 3.3657343 9.3700638
-1.4566892 -1.8023987 3.4493351 5
-1.1174402 -1.7651187 3.4187152 4.3571429
-0.66187924 -1.8062843 3.4824009 4
-0.26980999 -1.7940735 3.4949927 4
0.18370323 -1.7974459 3.4102516 4.2592592
0.56178474 -1.8296756 3.3631494 4.8504276
1.5537561 -1.7778426 3.3018584 9.2676764
1.6696877 -1.7582595 3.3502021 6.6581202
-2.1757405 -1.4183162 3.4134662 11.377698
-1.7844782 -1.5158595 3.341321 6
-1.3739541 -1.5261613 3.3912036 5.375
-0.99753404 -1.5076333 3.4241238 4.8733335
-0.58131212 -1.4857229 3.4324133 4.4615383
-0.19909288 -1.4737041 3.4536798 4.3333335
0.23601098 -1.4681865 3.4106061 4.4757581
0.56647837 -1.4705619 3.4373519 4.9545455
0.90768027 -1.3093593 3.3090527 5.75
1.5103602 -1.3328651 3.3256922 12.755704
1.7308224 -1.4000627 3.2952564 8.3654766
-2.1446815 -1.0704513 3.4340136 13.49147
-0.28033304 -1.0141423 3.5924428 7
1.5898144 -1.1560214 3.367321 14.198208
1.7507045 -1.0198846 3.3052802 11.209333
-2.1387031 -0.69997412 3.4876702 13.858334
-1.4916207 -0.75815266 3.4841118 7
-1.0209326 -0.739353 3.4134338 7
-0.79740226 -0.73198199 3.3670561 7
-0.23335354 -0.66516024 3.3324347 7
0.71523976 -0.55505478 3.4566607 7
1.0297241 -0.52838373 3.3924496 7
1.3943785 -0.48579115 3.4658499 7
1.7702832 -0.58945864 3.3775668 12.998293
3.1361759 -0.4101817 3.4655204 7
3.2285571 -0.42692778 3.3856187 7
4.559586 -0.41104499 3.5334418 6
4.9128194 -0.40800303 3.5455902 6
-1.7639362 -0.15689214 3.4645584 7.25
-0.91513693 -0.18452874 3.4107502 6
-0.62921447 -0.18072075 3.4535525 6
-0.19172813 -0.16271332 3.3577702 6
0.22737177 -0.1599281 3.3383427 5.6315789
0.6153726 -0.16513757 3.4056771 5.3571429
1.0499886 -0.12584546 3.4310584 5.8589749
1.3875848 -0.1269903 3.4368913 5.7617087
1.8089439 -0.15694015 3.3984425 6.7053418
2.1871865 -0.17149982 3.4115133 5.123188
2.5851851 -0.16985437 3.4017112 4.6037502
3.1107564 -0.14042953 3.3864987 8.0827522
3.2510791 -0.21592797 3.4035897 8.2813339
3.7932825 -0.17436789 3.3801281 5.1444445
4.1797929 -0.17551731 3.3627429 5.4400001
4.5643315 -0.34115928 3.4474826 6.005208
4.9448638 -0.19816007 3.3867052 6.5338621
5.4473014 -0.16703776 3.409148 7.5304637
-2.0313983 0.097198069 3.5731666 9.5
-1.7576952 0.13419262 3.4099853 8.9440832
1.5218153 0.26986977 3.4163852 10
1.7853607 0.29337505 3.4001882 10.527864
2.0260215 0.32767305 3.3026228 11.333334
3.1620615 0.18668792 3.4146326 13.547643
3.2215347 0.09898138 3.3631699 11.81613
4.7572789 0.30743065 3.5342767 12.575389
4.9923825 0.19373378 3.443105 9.7453785
5.4531002 0.17901196 3.4068925 10.652692
-2.0538983 0.54519689 3.5104542 11
-1.7406106 0.56744426 3.4035184 12.110179
1.5139179 0.63743168 3.4520495 11.5
1.7701117 0.68154764 3.4023845 12.839262
3.113179 0.59179622 3.3954492 13.709401
3.208756 0.42729884 3.3720727 11.357142
4.7648058 0.44225708 3.5003347 14.007866
4.9508009 0.45999002 3.3833363 12.345175
5.4308996 0.56658649 3.4134393 13.288144
-2.0997362 0.95787716 3.5245283 12.333333
-1.76114 0.91699183 3.4117463 13.747411
1.466814 1.072681 3.4383669 13.25
1.7353947 1.0203511 3.4066815 14.231483
3.1064475 0.91937476 3.3586547 13.541667
5.4278769 0.90034616 3.3875892 14.192991
-2.1056752 1.2958615 3.4103675 13.416666
-1.8268192 1.2430664 3.392931 14.709938
1.4469758 1.4516007 3.4150848 14.785714
1.6452103 1.3896958 3.4191973 14.863636
5.4579291 1.3760165 3.3987577 14.691399
-2.148438 1.6837716 3.4926345 14.625
1.5551841 1.653079 3.5988605 15
5.3100467 1.6921282 3.4156003 14.939062
-2.5746727 -2.4324763 3.8324184 6.916667
-2.2662394 -2.4522555 3.943512 6
-2.5262122 -2.2082891 3.8312314 8.2138338
-2.3420727 -2.1239581 3.7670884 6.4871793
-1.2518642 -2.1270907 3.6782327 5
-0.92782193 -2.1885026 3.7751832 5
-0.53037953 -2.1808872 3.8216448 5
-0.11018263 -2.1560228 3.7496943 5
0.28252354 -2.0358508 3.6426272 5
1.4001567 -2.0664628 3.70666 6.5357141
-2.5304341 -1.787774 3.7859724 12.640508
-2.2534256 -1.7752728 3.8245654 7.9022217
-1.0900228 -1.804338 3.748512 5
-0.64821899 -1.8186001 3.8965716 5
-0.2565372 -1.7922521 3.8967016 5
0.13361472 -1.7984941 3.7679191 4.9680853
0.42717716 -1.7905916 3.6156342 5
1.4834723 -1.7859756 3.7416768 7.9965892
1.631263 -1.6363969 3.7140937 6.5625
-2.4406765 -1.5461059 3.7171974 14.245846
-2.2094936 -1.4051607 3.8158627 10.771635
-1.7792556 -1.5443037 3.7985892 6
-1.3621998 -1.4862566 3.8000948 6
-0.9683674 -1.516654 3.7381597 5.1875
-0.60149592 -1.4981526 3.8515933 5.1363635
-0.22564973 -1.4833323 3.8751938 5.1111112
0.17180166 -1.4683838 3.785538 5.0999999
0.63798708 -1.2974974 3.7626698 6
0.99365199 -1.263882 3.8164623 6
1.4655939 -1.3738374 3.7664835 11.257618
1.680207 -1.3661313 3.7859361 7.7791619
-2.1914399 -1.0407223 3.83337 13.362371
-0.44125807 -1.0294647 3.7588508 7
-0.38274598 -1.0124338 3.6797349 7
1.5452038 -1.0783117 3.7966299 13.922854
1.7134329 -0.99486214 3.7809887 10.678091
-2.5570502 -0.45972601 3.9359064 8
-2.1592014 -0.64219475 3.8521383 14.012411
-1.9739747 -0.40451515 3.8520443 8
-1.4941391 -0.69768596 3.8331051 7
-0.89795315 -0.6923129 3.7506213 7
-0.54359967 -0.68263704 3.7028153 7
-0.10062444 -0.64530534 3.7464056 7
0.072753787 -0.62702131 3.7710552 7
1.0104297 -0.53467983 3.7929115 7
1.3112017 -0.49931851 3.7504008 7
1.6988856 -0.62640649 3.8028576 13.05681
3.1260722 -0.4092398 3.7444212 7
3.2313161 -0.43141142 3.7415321 7
4.5688076 -0.42266986 3.6775138 6
4.8976197 -0.4132762 3.6080785 6
-2.5068595 -0.1777802 3.8858631 9.1000004
-2.0037639 -0.34994602 3.94854 8
-1.7330242 -0.16099028 3.7774167 7.1111112
-1.4220425 -0.11991308 3.9712799 7
-0.95555514 -0.10864273 3.9587615 7
-0.58195043 -0.15026934 3.8425086 6.4294872
-0.1660471 -0.13277532 3.8608413 6.5148144
0.22208366 -0.11533859 3.8544452 6.606111
0.61692822 -0.098846905 3.8404238 6.685667
1.0113596 -0.12324041 3.7811959 6.5353847
1.3895887 -0.12610088 3.7726288 6.4248676
1.7857355 -0.11568589 3.8485532 7.6422443
2.1877484 -0.095124304 3.8583655 6.6776433
2.6088552 -0.096318506 3.8647757 6.5349727
3.0744767 -0.11040459 3.8204682 7.3731751
3.3308392 -0.14851968 3.7970133 7.6207881
3.7554469 -0.11009563 3.8664403 6.5660915
4.2168651 -0.1060304 3.8783627 6.7916665
4.5974693 -0.1121969 3.8714335 6.6929822
4.9477062 -0.1053577 3.8231397 6.8999343
5.4729805 -0.14831363 3.8183117 7.6205473
-2.5335159 0.21673155 3.8305948 10.238095
-2.0168338 0.0989668 3.7811046 9.5
-1.7308376 0.1240118 3.8231235 8.8792896
-1.3826441 0.15661879 3.9581165 9.606061
-0.96415013 0.13612236 3.9568541 9.5623379
-0.57500499 0.14426 3.9445837 9.755168
-0.14542316 0.15476392 3.9098244 9.756587
0.2565209 0.16831507 3.877346 9.444726
0.64701682 0.18187781 3.8724711 9.4991093
1.0142173 0.17918691 3.8758252 9.4054155
1.4153904 0.1945928 3.8834298 9.5790358
1.7817161 0.22977421 3.8422654 9.7281046
2.1932287 0.20061626 3.8785489 9.3245249
2.6002705 0.19177084 3.8779049 9.1382618
3.0706284 0.21633686 3.8419709 10.874324
3.3581445 0.16730013 3.8307981 10.199964
3.8358331 0.18954688 3.892411 8.8698492
4.2114477 0.19417596 3.9026542 8.8696203
4.6274261 0.21765192 3.8665962 9.0521326
4.9849424 0.23270924 3.7941954 9.6903477
5.4643321 0.15744874 3.8083849 9.9662552
-2.5730183 0.65952069 3.8209202 11.611112
-2.059602 0.56887966 3.7693853 11
-1.7283387 0.58389634 3.8179958 12.149163
-1.3696934 0.6661455 3.9463131 14.004054
-1.0161518 0.64662498 3.9148028 13.097754
-0.58003378 0.62227118 3.9136767 13.43258
-0.14920354 0.60282749 3.902468 13.623433
0.24554406 0.55775487 3.8760617 13.137714
0.63607419 0.56964409 3.8740895 13.200731
1.019295 0.5666219 3.8794465 13.062674
1.4155985 0.57566637 3.8840411 12.843495
1.7634426 0.61258996 3.8368886 12.624781
2.18327 0.5950371 3.8817587 12.707582
2.5854714 0.58443952 3.876477 12.193548
3.0342026 0.58566236 3.862536 13.043822
3.4110854 0.56183165 3.8815289 11.704258
3.8391759 0.58546591 3.882817 11.41844
4.2123857 0.60316515 3.9055464 11.686534
4.6624761 0.55082172 3.8568451 11.479319
4.9685516 0.56262916 3.82546 11.387005
5.4463792 0.56346852 3.8217795 13.306915
-2.6166649 0.98211861 3.8471522 12.555555
-2.1050589 0.98580885 3.7838402 12.333333
-1.7416691 0.92479253 3.8252428 13.842827
-1.3205791 0.91626376 3.8530016 14.821042
-1.0164835 0.9551965 3.8729692 14.654688
-0.57178771 0.94488716 3.8741393 14.642557
-0.13838404 0.92716348 3.8642731 14.735975
0.24503975 0.91734141 3.8470135 14.689066
0.63305485 0.92734772 3.8471928 14.638095
1.0313349 0.9438625 3.8476419 14.65303
1.452967 0.96123075 3.8594079 14.271875
1.7555259 0.99584764 3.8211303 14.262668
2.1888258 0.95741063 3.8507009 14.373435
2.5979249 0.94764721 3.8583412 14.246209
3.0446382 0.94990396 3.8490646 13.983088
3.434514 0.97138739 3.8731513 13.862416
3.8524737 0.98604321 3.8695612 13.391758
4.2355318 0.98893601 3.8824914 13.251532
4.6078277 0.99862742 3.8934417 13.295835
4.9809451 0.98933828 3.8934848 13.161613
5.4016018 0.92301679 3.7823648 13.946637
-2.6865826 1.4018692 3.7777143 13.75
-2.0751283 1.3738978 3.8407702 13.5
-1.8098646 1.2535006 3.8083811 14.701389
1.502995 1.4672406 3.89959 14.6
1.6318901 1.3540967 3.7693207 15
2.269794 1.2115226 3.8954811 15
2.6238439 1.2522601 3.8787894 15
3.0250075 1.3027648 3.8526037 14.954545
3.4589725 1.323805 3.8615227 14.841667
3.8593829 1.3338718 3.8591592 14.724817
4.2407603 1.3711115 3.8633628 14.724479
4.6207457 1.385514 3.8669527 14.580341
4.9782777 1.375176 3.8676085 14.304762
5.3855262 1.3644787 3.803395 14.46925
-2.7433906 1.6070671 3.9795339 14
-2.1383362 1.6452242 3.6383839 14.333333
1.2698455 1.6342876 3.8914828 15
4.6848087 1.6346473 3.8984027 15
4.9968982 1.6736029 3.8690462 15
5.3628702 1.7105981 3.7652481 15.011832
-2.686245 -2.4310067 4.2387948 7
-1.8833417 -2.432425 4.2756424 6
-2.6002891 -2.1775119 4.2268238 8.0547743
-2.1747413 -2.173888 4.1460557 6.1496601
-1.8552082 -2.3148179 4.3174729 6
0.71779537 -2.1356301 4.3275037 6
1.0268456 -2.0890496 4.0960364 6
1.3667939 -2.04198 4.0474386 7
-2.5870416 -1.7842566 4.1580119 11.72604
-2.2658145 -1.7766205 4.1936078 7.6313109
-1.9172391 -1.7823222 4.3066111 6
1.0581356 -1.8385541 4.2517991 6
1.3992001 -1.7585211 4.0769806 7.5388994
1.6147084 -1.6167442 4.0492091 7
-2.8050613 -1.5572234 4.3853149 15
-2.5318954 -1.5063778 4.1713276 13.804608
-2.2268214 -1.4018174 4.2083774 9.8389311
-1.78912 -1.5678896 4.244678 6
-1.4180582 -1.5070541 4.20046 6
-0.91906089 -1.4477713 4.2223992 6
-0.54415548 -1.4085243 4.2308683 6
-0.18045747 -1.3741374 4.1804237 6
0.18328512 -1.3372281 4.1791611 6
0.61029565 -1.2989779 4.1977029 6
1.0837725 -1.4020402 4.2929029 6
1.3957754 -1.4246446 4.0634089 9.6024046
1.6506228 -1.3858528 4.0605097 7.9126596
-2.415966 -1.1757423 4.2330627 15.0685
-2.2232368 -1.0140817 4.238368 12.328856
1.5083362 -1.0655216 4.0840588 13.08432
1.7585223 -1.0034459 4.2032833 8.4514227
-2.4600282 -0.47829738 4.1486521 8
-2.1739647 -0.57908887 4.2672744 11.609409
-1.6096392 -0.76817191 4.358037 7
-1.5731843 -0.72844446 4.2078705 7
-0.94434595 -0.65009427 4.1729617 7
-0.45216218 -0.60356516 4.2115188 7
1.495085 -0.6141215 4.2179852 8.3599997
1.7217051 -0.53461057 4.2431207 11.545681
-2.5447001 -0.17512682 4.2683029 9
-2.199285 -0.13746433 4.3072109 10.791666
-1.7294674 -0.14993107 4.0858622 7.3030305
-1.4047456 -0.13642004 4.1092591 7
-0.9846682 -0.13556451 4.1225648 7.034483
-0.61199343 -0.11185819 4.1020179 7
-0.20082679 -0.1446061 4.1128054 6.8895836
0.20310208 -0.1123299 4.0795465 6.7585716
0.57407141 -0.11467699 4.0600777 6.5852938
0.97414458 -0.093216605 4.0651469 7.0318179
1.4410499 -0.1431708 4.1098905 7.5145597
1.7458447 -0.14571023 4.1488214 8.7293501
2.1763897 -0.13552211 4.0769105 6.6792388
2.6088853 -0.11720735 4.0609326 6.4885836
3.0425358 -0.1152209 4.1289792 7.5464444
3.3420415 -0.13334002 4.1037159 7.2218046
3.7988827 -0.11732635 4.0922518 6.6771317
4.2018714 -0.11829724 4.1022677 6.7011905
4.6155915 -0.11861081 4.1392841 6.8669195
4.9962153 -0.12558047 4.2281923 6.9903102
5.481874 -0.13134533 4.2000375 7.8867135
-2.5721817 0.24747574 4.2498016 10.375
-2.2448912 0.29131755 4.3211832 11.530303
-1.7023987 0.11892519 4.0800614 8.804348
-1.3899771 0.13152981 4.1231833 8.9504728
-0.99281877 0.1430002 4.1339025 9.1140995
-0.59851056 0.13458379 4.1231999 9.2497511
-0.19903269 0.15065925 4.1219754 9.4695349
0.20666118 0.14097106 4.1031618 9.7129488
0.60698622 0.14614955 4.1067128 9.864933
1.000411 0.19015798 4.0967894 10.800763
1.4267449 0.19150148 4.1137381 11.253346
1.7758482 0.21766712 4.1009021 11.486208
2.2064707 0.19785923 4.0914655 11.530459
2.6103859 0.20389426 4.0978303 11.680245
3.0409489 0.21620271 4.127152 11.60676
3.3663504 0.19076191 4.1254168 11.096688
3.7931545 0.16209133 4.0924654 10.337328
4.2052803 0.14122319 4.1929278 9.4970436
4.6126881 0.11988826 4.2489576 9.1146765
5.0059257 0.16899146 4.2245708 9.4766035
5.4689422 0.17668676 4.2057052 10.247942
-2.601758 0.60798097 4.2425904 11.388889
-2.2496109 0.64785796 4.2838526 12.708333
-1.7012413 0.51214272 4.0830173 11.206856
-1.3969485 0.56842685 4.120717 12.284144
-1.0076584 0.57461303 4.1239824 12.499395
-0.59432071 0.52991825 4.1209764 12.486423
-0.20254095 0.5333901 4.1184154 12.847104
0.20737496 0.52405614 4.1077428 13.443791
0.60714948 0.52350163 4.1140656 13.517861
0.99779212 0.54794151 4.124475 13.858038
1.4047558 0.54169005 4.1399169 13.876492
1.747623 0.55209816 4.1243649 13.601928
2.2034998 0.52749443 4.1270242 13.748266
2.6232939 0.50829208 4.1254306 13.631341
3.0649211 0.54750746 4.1571612 13.868091
3.3659155 0.51496613 4.1361599 13.357007
3.8189425 0.50921309 4.0807662 13.865115
4.211884 0.51474696 4.1962357 12.797304
4.6262169 0.51029974 4.2432752 12.144415
4.9864922 0.54303402 4.2002664 12.451445
5.4364285 0.60207766 4.2214251 13.349845
-2.667655 1.0297537 4.2763052 12.65
-2.2804308 1.0181649 4.297286 13.807693
-1.7165077 0.90828347 4.0762067 13.315063
-1.3982747 0.93469262 4.1350145 13.963557
-1.0157572 0.97429997 4.1460886 14.324274
-0.60481119 0.94371486 4.1536798 14.348708
-0.20599216 0.8990494 4.1553674 14.460585
0.18438259 0.85455716 4.1627607 14.430239
0.56340104 0.83323109 4.1683044 14.534999
0.92689997 0.83106458 4.205761 14.525
1.4789398 1.014655 4.2210116 13.895834
1.6263083 1.068791 4.1713676 14.153846
2.2734282 0.8305108 4.2555761 14.411111
2.681771 0.96505541 4.3603249 14.668
3.0811803 0.9738608 4.3224392 14.240909
3.2593985 0.86173236 4.3336592 14.096154
3.8516312 0.84311932 4.0255775 14.866667
4.1840005 0.95059586 4.3113046 14.373787
4.6179395 1.0025378 4.3411736 14.303745
4.9787364 1.0172722 4.2897701 14.280065
5.3604636 0.93536508 4.2520895 13.959529
-2.823015 1.5484602 4.2848797 14
-2.6605709 1.3789926 4.1880245 13.666667
-2.1990168 1.3376489 4.1832209 13.333333
-1.7632692 1.2866578 4.0974274 14.448147
-1.4003677 1.2360523 4.1752653 14.744445
-1.1187232 1.2240381 4.1656899 15
-0.75371242 1.2158551 4.2370014 15
1.1800658 1.3929434 4.2869253 13.5
1.5160291 1.4087759 4.2369304 14.604166
1.6131839 1.2967486 4.1564484 14.333333
2.9817367 1.377882 4.0767412 14.5
5.0588331 1.2307842 4.0317183 15
5.3150501 1.2358639 4.3239293 15.000516
-2.8261766 1.6674979 4.2776623 14
-2.2078066 1.6153004 4.0555687 14
1.1394547 1.837579 4.2347441 15
1.3512335 1.7674148 4.2034788 15
5.1413441 1.9388871 4.2718377 14.1665
5.2500014 1.8222609 4.3892093 14.171
5.1187859 2.2272508 4.2727265 15.1665
5.2422857 2.1249156 4.3845196 15.16975
-2.8239379 -2.4542744 4.7197113 7
-2.7913322 -2.4161499 4.7472239 7
-1.5354879 -2.4150109 4.4766221 6
-2.8177152 -2.2630579 4.646328 8.5
-2.6382005 -2.1416276 4.5791497 7.8490567
-1.7157289 -2.1348507 4.4914041 6
-1.3761432 -2.1993489 4.6219954 6
-1.042768 -2.2315965 4.6910515 6
-0.69508845 -2.239624 4.714128 6
-0.3376343 -2.1834519 4.7190709 6
0.12765048 -2.1377995 4.6317081 6
0.55701375 -2.1100011 4.4479651 6
1.261688 -2.0432909 4.4834933 7
-2.8299181 -1.7618718 4.6068568 12.759523
-2.5678461 -1.8245956 4.5785303 9.8824005
-2.3355091 -1.7666684 4.6311197 7.3125086
-1.6143452 -1.9421443 4.515233 6
-1.4613613 -1.8125795 4.6128416 6
-1.1006496 -1.7652642 4.7610431 6
0.28769106 -1.8637995 4.7245741 6
0.61094397 -1.8017083 4.5748892 6
0.87117267 -1.720764 4.4592233 6.159091
1.3543788 -1.7711763 4.50945 7.9191175
-2.8432167 -1.4899267 4.5991626 15
-2.6163313 -1.3902204 4.5749593 14.066623
-2.2428155 -1.4225421 4.6398239 8.8246841
-1.377641 -1.5407461 4.555305 6
-0.98638761 -1.5147798 4.7275114 6
-0.54521739 -1.4236784 4.6710067 6
-0.17842861 -1.3845896 4.6315165 6
0.17397645 -1.3692631 4.6743855 6
0.5247165 -1.4461389 4.6505604 6
0.9445653 -1.4687808 4.455945 6.7258062
1.4217581 -1.4016682 4.4914608 10.294871
1.6361443 -1.3486063 4.4288421 7.2205882
-2.4743989 -1.0475894 4.733891 15
-2.2731245 -1.0087577 4.6139035 12.160916
-1.6923978 -0.80666828 4.5664988 7
0.23040807 -0.98319435 4.7576323 7
1.1105272 -1.151283 4.7994885 15
1.4648144 -0.99220276 4.5392709 12.5
1.7051409 -1.0153264 4.571435 8.556633
-2.5141916 -0.57954341 4.5620155 8
-2.2086072 -0.55836207 4.6245418 10.924806
-1.9348392 -0.67985904 4.6136947 7.5
-1.0906262 -0.73453236 4.6724315 7
-0.5398795 -0.64475769 4.6006145 7
0.074555732 -0.57461983 4.605442 7
1.1691726 -0.45634335 4.6526184 7
1.5352759 -0.64564657 4.6332407 12.576458
1.7129951 -0.5065468 4.6066084 11.08565
-2.5820377 -0.17690022 4.6363249 9.041667
-2.2216651 -0.15738396 4.6186776 10.289188
-1.9089718 -0.1275804 4.6076803 9.375
1.5023469 -0.25686306 4.665586 11.290684
1.6951518 -0.14884758 4.5819516 11.359619
2.6095994 -0.034360085 4.5007162 8.5
2.968673 -0.050776403 4.5313845 8.6418915
3.2068317 -0.15510893 4.4964743 9
4.5994234 -0.16319533 4.4831772 7
5.0378227 -0.16020052 4.5415688 7
5.4880695 -0.18288577 4.5938125 7.5388885
-2.5983851 0.23794578 4.6236606 10.409091
-2.2512543 0.26259419 4.6216288 11.317709
1.4410961 0.20085691 4.6156611 11.364422
1.6796787 0.25047803 4.5872617 11.378071
2.5849595 0.25460306 4.5126991 10.167857
2.9377947 0.24967362 4.5289445 10.426471
3.293514 0.14580642 4.5092392 9.4289951
4.2236819 0.1256132 4.5186429 9
4.5940495 0.091843911 4.518683 8.6378775
5.0235085 0.15572108 4.5939708 9.5061569
5.4832907 0.16921265 4.6224356 9.927495
-2.800339 0.73047841 4.6738281 11.5
-2.5925457 0.60503906 4.6228862 11.583333
-2.2798669 0.66788417 4.6115417 12.725491
-1.8850999 0.4784404 4.5594902 10.5
1.4379324 0.62465227 4.6192164 12.743549
1.6514121 0.68070894 4.5736065 12.039216
2.5759168 0.58251148 4.5225234 12.122222
2.9347768 0.59275591 4.5368686 12.581442
3.2579706 0.59142268 4.5148039 12.181667
4.2291422 0.50738722 4.5258679 11.390909
4.6045141 0.47892091 4.5212159 11.037619
4.9777265 0.47731948 4.560389 11.00439
5.4517097 0.60685039 4.6060019 12.933679
-2.8247211 1.0068724 4.5912228 12
-2.5632393 1.0594754 4.6281247 13.25
-2.3064926 1.01346 4.6225338 13.871213
-1.7764971 0.98046875 4.5004811 12
1.4969374 1.0449927 4.5884495 13.669791
1.7041504 1.0519501 4.5721445 13.583333
2.3869166 0.84843588 4.4292803 14
2.611836 0.9813239 4.4807415 14.410714
2.9850717 0.97585475 4.5033116 14.434907
3.2458315 0.94878769 4.4973245 14.338983
4.20858 0.96407211 4.5398574 14.193104
4.5787463 1.0093688 4.5221291 14.239286
4.9653192 1.0065936 4.561595 14.167983
5.3825254 0.97340649 4.6038513 14.02962
-2.8426452 1.3997726 4.6457396 13.25
-2.539922 1.4058454 4.6062026 14.4
-2.2386153 1.3539799 4.6119037 13.428572
-1.8114231 1.3193985 4.4949927 13
1.1825778 1.517828 4.6129041 14
1.4913976 1.4648321 4.5802727 14.507936
4.9583592 1.2083039 4.4943562 15.007169
5.3121796 1.2852046 4.5381455 14.918758
-2.8950529 1.7103871 4.6506343 14
-2.7062185 1.6704947 4.4265952 14
-2.2012303 1.7044741 4.5790987 14
-1.8449686 1.662375 4.4863763 14
1.164934 1.8376665 4.4948092 15
1.4174081 1.7382995 4.4985795 15
5.2925248 1.872401 4.4012427 14.1685
-2.8650064 -2.1389475 5.0068364 9
-2.6580067 -2.1435828 4.9859819 7.25
-2.0206659 -2.3737841 5.0570374 7
-1.8776628 -2.1935809 5.1422348 7.879178
-1.5858752 -2.2612107 5.1747699 7
-0.94924474 -2.0447447 4.8131895 6
-0.60914296 -2.059835 4.8335886 6
-0.24161425 -2.0339425 4.8248949 6
1.1536545 -2.0454247 4.9320259 7
-2.8824143 -1.7124014 5.0059729 12.285715
-2.5386999 -1.8308851 4.9669337 8.7042608
-2.3664992 -1.7202054 5.1625271 7
-0.88462645 -1.9230638 4.8283596 6
-0.62734491 -1.800203 4.8457747 6
-0.20168798 -1.7869434 4.8395848 6
0.016542371 -1.6423426 4.819303 6
1.1599187 -1.8063039 4.8679128 8.9047623
1.3096191 -1.7536167 4.9638371 7.4347825
-2.9127171 -1.3975248 5.0566201 14.58163
-2.607976 -1.3958958 4.9271383 12.816017
-2.2778285 -1.4107565 5.0355473 8.6545753
-1.0118084 -1.5504719 4.8060427 6
-0.65724689 -1.523118 4.8513179 6
-0.29270577 -1.5048449 4.8652139 6
0.047231298 -1.5074342 4.8347054 6
1.1239058 -1.3254411 4.8362064 13.342532
1.461556 -1.4037583 4.9089146 8.4906359
1.622151 -1.2456838 4.9317479 7
-2.4776003 -1.0206476 4.9633913 14.229082
-2.2512331 -0.97993392 5.0214529 11.327706
-1.9233296 -0.80967093 5.1535487 7
0.29714695 -0.93865842 5.0452971 7
1.1256515 -1.0964866 4.8664284 15
1.3944702 -0.98750776 4.9114738 12.497213
1.7205548 -0.98071951 5.0158601 8.0233021
-2.440449 -0.73609394 5.0151367 13.923077
-2.2576101 -0.6141234 5.0020709 12.1196
-1.9463093 -0.53501159 5.0076637 8.166666
-1.26263 -0.72810191 5.066205 7
-1.1846604 -0.73681748 4.9237962 7
-0.69747669 -0.68812352 5.0126171 7
-0.07912574 -0.62826449 5.0368996 7
1.472647 -0.59704524 4.9620099 13.379341
1.7000314 -0.50320208 5.0094943 10.493922
-2.6120768 -0.18826298 5.0435181 9.045455
-2.2484598 -0.15294474 5.0365825 11.209005
-1.9645467 -0.05065015 5.0716829 9.666666
1.50012 -0.23900026 5.050406 11.980952
1.6822723 -0.12799932 4.9764638 11.36972
2.6752996 -0.077610865 5.0099425 8.5
3.0136855 -0.07260678 4.9877739 8.575758
3.3878059 -0.051809613 5.0579047 8.4769239
3.9019637 -0.20957777 4.8262777 7
4.682117 -0.2199657 5.0242457 7
5.1409969 -0.078589864 5.0702629 8.4260283
5.4200168 -0.20618245 5.0140982 7.3697481
-2.8179677 0.33719504 4.9948587 10
-2.6165679 0.22895443 5.0059729 10.375
-2.2713983 0.27520913 5.0324531 11.263441
-1.8464508 0.23374188 4.9605184 9.666667
1.4479164 0.22232923 5.0516686 10.920988
1.6970429 0.21450523 5.0136256 12.278034
2.6544724 0.33618355 5.005106 11
2.9913225 0.31355181 4.9787474 10.888889
3.3356199 0.25371045 4.9839396 10.377778
4.2932744 0.12786946 5.0311108 9.333333
4.5782633 0.061457235 5.0338707 8.8244905
5.0346785 0.18716283 5.0238109 10.210669
5.4846439 0.12613046 5.0264006 9.4322062
-2.840905 0.67447877 5.0463352 11
-2.5503371 0.65845364 5.0327058 11.9
-2.2988658 0.66382223 5.0227222 12.768117
1.4473422 0.63065392 5.0294147 12.411404
1.7106429 0.65694845 4.9776311 13.214286
2.6333637 0.75829452 5.0117006 13.5
2.959291 0.73370719 5.0016074 13.191176
3.3100708 0.76237941 5.0228519 13.5
4.2720604 0.5615415 5.0459485 12.026316
4.5757351 0.41499281 5.0087981 11
4.9761829 0.44309777 5.0219183 11.003409
5.4579082 0.57092428 5.0294948 12.325987
-2.8895643 1.0176696 5.0235796 12
-2.508147 1.0599678 5.0347543 13.5
-2.2667277 0.96440446 5.0229669 13.65
-1.8136346 0.87668169 4.9594855 11.5
1.1858178 0.94097948 5.0791736 13.5
1.4541374 1.041697 4.9995556 13.602942
1.7784762 1.1315811 5.0190449 14.5
2.6195498 1.0195105 4.9994507 15
2.9352376 1.0140547 5.0204849 14.560606
3.2964847 1.0153116 5.0191088 15
4.2483292 0.95025915 5.0024829 14.363636
4.5472336 0.9564029 5.0184326 14.269231
4.953352 0.98962259 5.0232797 14.244051
5.3910494 0.96793735 5.0117087 14.065354
-2.8860259 1.3849809 5.0445414 13.1
-2.5455759 1.4349934 5.0113282 14.456522
-2.2129431 1.3990082 5.0567279 12.875
-1.8298151 1.4111907 4.9694753 13
1.1524994 1.3924994 5.0399237 13.25
1.4627495 1.4553741 5.0118423 14.236842
2.9062662 1.4147348 5.0510507 13.6
5.2998433 1.3433744 5.0227494 14.727271
-2.8947296 1.6584812 5.0596032 14
-2.5157115 1.6394699 5.1356411 15
-2.2372069 1.8119794 5.053442 14
-1.8699257 1.7719489 4.969996 14
1.1040556 1.8524872 4.9723568 14.75
1.3968629 1.7873218 5.0092068 14.818182
2.9086475 1.6268561 5.026145 14.5
5.364007 1.7232633 5.1814241 15
5.1218872 2.1874092 5.0099006 14.836833
-2.9332466 -2.4397562 5.2578473 7
-2.9154348 -2.2019224 5.3981371 8.1000004
-2.719862 -2.125376 5.5350924 7
-1.7404803 -2.0722277 5.2528777 7.874146
-1.3596529 -2.1339719 5.2863574 7.4416385
-1.1361965 -2.0653024 5.3816352 7
1.0761144 -2.0475006 5.2448115 7
-2.9748394 -1.753142 5.4516973 11.423077
-2.5969784 -1.7880841 5.3112311 8.8571424
-1.7266606 -1.8461775 5.341301 8.7636309
-1.419575 -1.794566 5.3896766 8.138813
-1.0417122 -1.7664646 5.4541349 7.7570968
-0.7989192 -1.6423154 5.4687805 7
1.0846822 -1.7824717 5.3644905 8.5265627
1.2934506 -1.7280537 5.3130293 7.0689654
-2.9822676 -1.3573093 5.4475327 14.085714
-2.5580788 -1.3964533 5.3241549 11.168176
-2.2320275 -1.3354425 5.4193497 8.7285719
-1.8553278 -1.3974313 5.4607968 13.678572
-1.3872646 -1.426098 5.4278436 8.2744722
-0.99429286 -1.4091145 5.4809327 8.2141485
-0.67703241 -1.3638253 5.470027 7.2456174
-0.36847767 -1.2893869 5.4769244 7
1.034598 -1.3464454 5.3871603 12.158332
1.4143703 -1.3890617 5.3239923 8.290431
-2.933526 -1.1922727 5.591486 14.5
-2.5585999 -1.0274286 5.3512182 13.729935
-2.2543604 -0.95911473 5.4059577 10.885883
-1.8049341 -1.0922484 5.520061 13.333333
-1.335873 -1.0900596 5.5015202 9.1099548
-0.9930371 -1.1228923 5.4963074 8.8444033
-0.62558293 -1.1229151 5.5077224 8.7436562
0.36992764 -0.90645993 5.3615212 7
0.43909249 -0.92199737 5.5296426 7
1.03941 -0.99735868 5.3867111 14.110044
1.4291066 -1.0166763 5.390202 10.349152
1.7021683 -0.97503328 5.3620114 7.9871793
-2.4893138 -0.6939677 5.4405804 14.341269
-2.2666266 -0.56408978 5.4096508 11.282837
-1.8396217 -0.50314212 5.490438 8.0555553
-1.3692526 -0.54524893 5.480361 8.5232258
-0.97558749 -0.54315746 5.503089 7.9648218
-0.63658082 -0.56273127 5.4910798 7.4825983
-0.23357622 -0.61394399 5.4686332 7
0.27041984 -0.57441247 5.4892349 7
1.1744208 -0.76775497 5.4831743 14.681818
1.4061983 -0.61681366 5.3933706 13.033199
1.7062552 -0.50998271 5.3628645 10.051724
-2.8218286 -0.10826665 5.4760809 9
-2.6044557 -0.24743417 5.3902898 9
-2.3017435 -0.14193748 5.450665 11.646154
-1.8238742 -0.30214465 5.4430017 8
-1.3451945 -0.386796 5.5307851 9.7767506
-0.7075147 -0.36784101 5.5686913 8.0481672
