# .PCD v0.7 - Point Cloud Data file format
VERSION 0.7
FIELDS x y z intensity
SIZE 4 4 4 4
TYPE F F F F
COUNT 1 1 1 1
WIDTH 1389
HEIGHT 1
VIEWPOINT 0 0 0 1 0 0 0
POINTS 1389
DATA ascii
5.0352945 0.13907495 3.3773289 8
3.0662038 0.04536695 1.5560422 8
5.3477049 0.1440618 3.178823 8
5.3576102 0.10113851 -0.81340289 8
5.3585553 0.10316151 -1.178353 8
3.0752399 0.034285277 -0.15447271 8
5.3580613 0.10004622 -0.55600107 8
5.3669753 0.11584844 1.8290297 8
5.3547115 0.098932378 -0.19717306 8
5.3502145 0.12621203 2.3846998 8
3.0652571 0.074102432 1.4168906 9
3.0731251 0.064174838 0.19519567 9
3.0675499 0.097701669 1.8850552 9
4.1741147 0.22588208 -3.1555285 9
4.798615 0.24074531 3.569406 9
3.0801535 0.078781307 -0.24291658 9
3.0641384 0.080736138 1.5571573 9
5.3573389 0.20684883 -1.5725094 9
5.3556747 0.19312197 -1.178128 9
5.3422556 0.21354042 2.5685315 9
5.3676543 0.15855631 0.57661891 9
5.3485832 0.18818812 1.9861996 9
5.3686028 0.16975656 1.3949591 9
5.3535032 0.17421985 -0.55422091 9
5.3546214 0.23489214 2.9843116 9
3.0717375 0.10526232 1.409857 10
3.0695388 0.096503712 0.19225174 10
4.1705818 0.36608917 -3.1546597 10
5.0259695 0.34003139 3.3661056 10
3.0788836 0.1251357 -0.27897847 10
3.0720391 0.13095386 1.7481866 10
5.3546739 0.28722864 -1.2396394 10
5.3506212 0.26201111 -0.81147218 10
5.3444395 0.30189419 2.623795 10
5.3700886 0.21858057 0.40543133 10
5.3468237 0.32928747 2.9758906 10
3.0706091 0.12865531 0.1937955 11
3.0643263 0.13977575 1.4339375 11
3.0687284 0.18661708 1.8789773 11
4.1663775 0.50630987 -3.1478138 11
4.78966 0.44790536 3.5565047 11
5.0220747 0.44100142 3.3620243 11
5.3343992 0.44499499 3.1666145 11
5.3538318 0.42536569 -1.7300366 11
5.3683062 0.27766562 0.97469854 11
5.3433161 0.32882804 1.9834558 11
5.3537784 0.38007534 -1.2420012 11
5.3438053 0.39923459 2.7329135 11
5.3491578 0.28665131 0.071103632 11
5.3476653 0.28072003 1.1864266 11
5.3532434 0.32729554 -0.59851193 11
3.0742168 0.16042618 0.19778013 12
3.060014 0.17333214 1.437045 12
4.1652613 0.65158486 -3.169569 12
3.0689116 0.21747862 1.7790513 12
4.8744068 0.66431987 4.2138453 12
4.7730918 0.54615903 3.5185876 12
3.0740311 0.20017461 -0.15156567 12
3.071063 0.17372753 0.075244069 12
5.3332171 0.43212855 2.2850502 12
5.3430662 0.36756164 -0.19602478 12
5.3412132 0.34665745 1.3336623 12
5.3475499 0.46551818 -1.1781803 12
5.3683424 0.33611381 0.95073295 12
5.3429608 0.46860832 2.5733533 12
5.3645287 0.3341285 0.57499737 12
5.3497939 0.42571336 -0.81580651 12
5.345603 0.32960093 0.76391047 12
5.3630157 0.38521296 1.7958461 12
5.3431778 0.40040535 1.9839095 12
3.0642118 0.20542884 1.4319888 13
3.0715322 0.19361851 0.19571966 13
3.060528 0.22792988 1.5785916 13
4.8711271 0.79388648 4.2116294 13
4.7644529 0.64739871 3.5012813 13
3.0727944 0.20903759 0.077938676 13
3.0755937 0.24173859 -0.14804524 13
5.3461919 0.40931183 1.3352041 13
5.3485861 0.54307908 -1.0697761 13
5.3416905 0.47254837 1.9833864 13
5.339901 0.52600181 2.3799515 13
5.3631725 0.3946377 0.94990146 13
5.3613262 0.45410448 1.7951689 13
5.3592806 0.39895797 0.38074052 13
3.0696878 0.2272037 0.19447565 14
3.057529 0.24081209 1.437326 14
3.0675867 0.30302131 1.7773385 14
3.0617273 0.26477027 1.5758462 14
4.8716736 0.9281736 4.2209787 14
5.3407812 0.76028264 3.1836252 14
3.070857 0.27538568 -0.095696509 14
5.3325677 0.49105918 1.5704663 14
5.3419752 0.7503103 -1.7260236 14
5.344624 0.47474051 0.1248275 14
3.0699465 0.3512128 -0.4947983 14
5.3323355 0.66944522 2.7241459 14
5.3475513 0.47232544 1.3355682 14
5.3572836 0.4530189 0.57463771 14
5.363728 0.52937949 1.8292463 14
5.3377886 0.59354401 2.2911956 14
3.0625887 0.34188151 1.7530079 15
3.0594997 0.27425313 1.4343762 15
3.0675197 0.26154131 0.19293141 15
4.8664632 1.0602925 4.2132125 15
3.064214 0.31973618 -0.10387981 15
5.3351746 0.74162823 2.6206813 15
5.3576498 0.52374834 0.37935969 15
5.3593488 0.51615614 0.97229975 15
5.3427458 0.53996122 0.12443817 15
3.0708151 0.35798001 -0.284958 15
5.3547688 0.54338384 1.3898182 15
5.3445611 0.83122951 -1.5802423 15
5.3460484 0.72702265 -1.0733062 15
5.3438783 0.63948244 -0.59925449 15
5.3448243 0.52316099 1.1849614 15
3.0708864 -0.023429167 1.3832407 6
3.069979 -0.033840243 0.1490351 6
3.0677481 -0.039707143 0.026295662 6
3.0777645 -0.051818509 -0.22325277 6
3.0746708 0.0088813212 1.3787808 7
3.0749209 -0.0013796687 0.15414983 7
5.3650546 0.0051304102 -1.2980802 7
4.8679342 0.028401315 3.5327373 7
5.3721371 0.039371885 2.8734715 7
5.3441434 0.038877085 0.62495774 7
5.3851247 0.04133663 0.90380067 7
5.3505139 0.041657951 2.369215 7
5.3521585 0.03432069 0.23826551 7
5.3536959 0.020652905 -0.56231707 7
5.3754368 0.036307804 0.38204974 7
5.3586478 0.013514657 -0.91210335 7
5.3554702 0.031589068 0.051334381 7
3.0749316 0.0073472783 1.6948954 7
3.0688665 0.040831834 1.3833703 8
3.0727425 0.030450258 0.15244532 8
4.856019 0.13203254 3.5079622 8
3.0836983 0.048016712 1.7097927 8
3.073421 0.032173194 -0.22784901 8
3.0808973 0.031331576 -0.049744189 8
5.3502173 0.09765774 -1.4746428 8
5.3469524 0.097175553 0.85413873 8
5.34339 0.093042761 0.055585682 8
5.3512735 0.094973743 -0.90697283 8
5.36412 0.1398748 3.2075276 8
5.3608456 0.12175474 2.3805044 8
3.0807686 0.10153298 1.9549434 9
3.07532 0.072591409 1.3764092 9
3.0714378 0.062425464 0.15157795 9
4.1532173 0.21428947 -3.1178451 9
4.830102 0.23796387 3.5629315 9
3.0793657 0.088822991 1.714554 9
3.0844593 0.0783666 1.5052577 9
5.3501611 0.1946318 -1.4783189 9
5.3561502 0.22142898 2.7955365 9
5.3831773 0.16919352 1.4837234 9
5.3456554 0.16676238 -0.55954248 9
5.3566227 0.19761424 2.2875674 9
5.3801041 0.15667354 0.90259743 9
5.3563886 0.17568637 -0.86725849 9
3.0688944 0.10516356 1.3815668 10
3.0675614 0.094808385 0.14825553 10
4.1502466 0.35167858 -3.1191051 10
4.8287945 0.34382725 3.5643699 10
3.0577631 0.10628542 -0.052829027 10
3.0748377 0.11836903 -0.25583106 10
3.080426 0.11374603 1.5087739 10
3.0742037 0.12800582 1.6914002 10
5.3575492 0.34522274 3.2024064 10
5.3524585 0.26441714 -1.0128186 10
5.3508835 0.24097954 -0.56581956 10
5.3564591 0.25768986 2.0080335 10
3.0817513 0.19713359 1.9487343 11
3.0788782 0.13593934 1.3713052 11
3.0626044 0.12784579 0.14390653 11
4.1478047 0.49051732 -3.1255467 11
3.08042 0.17025843 1.7098839 11
5.3419533 0.3086113 -0.4846049 11
5.3414412 0.41632324 -1.769592 11
3.0823975 0.1486399 1.5053854 11
3.0732043 0.14365448 -0.057442665 11
5.376935 0.29519221 1.4810884 11
5.356843 0.41198328 2.8606915 11
5.3726087 0.28048506 1.1905134 11
5.3540211 0.37206629 2.4718533 11
5.3527765 0.37384439 -1.2957821 11
3.0677018 0.15968882 0.14916283 12
1.9442202 0.64654815 4.2440505 12
4.1446772 0.62997216 -3.1257915 12
3.0845473 0.19899602 1.6200689 12
3.0668833 0.20298141 -0.23368323 12
5.3415413 0.38157126 -0.48613805 12
5.3454361 0.3458544 1.3603736 12
5.3455663 0.40096357 2.0007782 12
5.354578 0.45664012 2.4736023 12
5.3458147 0.46609589 -1.2902575 12
5.3550215 0.49848869 2.7990882 12
5.3489509 0.42467299 -0.91480249 12
5.349463 0.32990569 1.0158639 12
5.3483953 0.36293074 -0.24916476 12
5.3676281 0.33213475 0.37984663 12
5.3528051 0.32649013 0.85274595 12
1.948648 0.78463912 4.2286158 13
3.0748186 0.24870443 -0.25253767 13
3.0604212 0.21961126 -0.047483563 13
5.341073 0.40710402 1.3587168 13
5.341166 0.4054302 0.05089432 13
5.3426352 0.38763118 1.0144997 13
5.3448191 0.5521524 -1.2325265 13
5.3730927 0.40251103 1.1902665 13
5.3504744 0.64997935 -1.8766353 13
5.346333 0.46548268 -0.56799787 13
5.3492217 0.50319529 -0.8699891 13
5.3472619 0.3952477 0.23421377 13
5.3538322 0.54199088 2.4739885 13
3.0603755 0.22785169 0.14296561 14
1.9420882 0.92895669 4.2344279 14
4.9097233 0.93636703 4.2309141 14
3.068367 0.28953433 -0.22929692 14
5.3560042 0.5474723 1.9733925 14
5.3454442 0.44208506 0.62059832 14
3.078002 0.27947956 1.6259215 14
5.3424668 0.74521053 -1.785243 14
5.3473935 0.62652928 2.4683616 14
5.3436542 0.6464451 -1.2344191 14
5.3508654 0.47281438 1.362291 14
5.3491263 0.50263989 -0.2527222 14
3.0700178 0.25865072 0.15255767 15
1.9369775 1.0753014 4.2372999 15
4.907259 1.0730113 4.2309275 15
3.0671284 0.33436897 -0.23009717 15
5.3478045 0.87545651 3.2000325 15
5.3383369 0.69753557 -1.011313 15
5.3383994 0.8747775 -1.8668568 15
5.3635092 0.62610197 1.9795511 15
5.3486819 0.67839211 2.285553 15
5.3670845 0.52641118 1.1883281 15
3.0772281 -0.052842237 1.3368748 5
3.068759 -0.021521844 1.3441066 6
3.0801649 -0.038213752 1.8842438 6
5.3695893 -0.024791166 0.64563251 6
3.0722055 0.010818552 1.3400085 7
3.0823226 0.0088674277 1.878533 7
5.3538408 -0.0024811439 -1.3368793 7
5.3704305 0.034859031 2.6401196 7
5.3494649 0.0069409553 -0.90614927 7
5.3838558 0.032711059 0.6913082 7
5.3577995 0.036235645 2.1922598 7
5.3541083 0.017851664 -0.35974872 7
5.3560009 0.013748765 -0.57529259 7
5.3737464 0.031338811 0.55100906 7
3.0744224 0.042757876 1.3370876 8
3.0828359 0.055532202 1.8757703 8
4.9023304 0.15130776 4.2559719 8
4.8560786 0.13198069 3.5574558 8
5.0882063 0.13455501 3.4368458 8
5.3648076 0.14056313 3.3909614 8
3.0806808 0.032003902 -0.22873741 8
5.3434634 0.085569136 -0.35403943 8
5.3599424 0.10726821 1.9224765 8
5.3539572 0.090993151 -1.6764538 8
5.3633099 0.12011494 2.5254889 8
5.3743639 0.08810126 0.43116999 8
5.3559475 0.086356081 -0.5769974 8
5.3726687 0.089452922 0.6443038 8
5.3737121 0.096112892 1.2440295 8
3.0817547 0.062079869 0.11792642 9
3.0717578 0.074790247 1.3387946 9
3.0848541 0.10190743 1.8703358 9
4.1393266 0.207827 -3.1079836 9
4.9045877 0.28253159 4.2683764 9
4.8251519 0.24038637 3.6029902 9
5.0869341 0.24079213 3.4369462 9
5.3557644 0.20118114 -1.9221563 9
3.0817852 0.065445364 0.00048571825 9
5.3606229 0.20495403 2.5233312 9
5.3559999 0.14811054 0.00083857775 9
5.3550887 0.18128714 -1.3445234 9
5.3523173 0.15550709 -0.42994702 9
5.3535748 0.15896317 1.394479 9
3.0751283 0.10523171 1.3170056 10
3.0768912 0.094189897 0.11360925 10
4.1356587 0.34244248 -3.0984807 10
3.0776355 0.14643466 1.8430334 10
4.9028826 0.41395298 4.2687707 10
4.8486185 0.34475413 3.5457592 10
5.0841165 0.34714702 3.4339409 10
5.3685422 0.36129442 3.4012246 10
5.3659821 0.24986771 1.9274349 10
5.3765583 0.20461538 0.54874611 10
5.3603697 0.28657335 2.4727845 10
5.37499 0.20487782 0.68980598 10
5.352787 0.23628926 1.715485 10
5.3646812 0.31280407 2.8119802 10
5.3501029 0.21419996 -0.14084095 10
5.3528771 0.20874336 0.055907011 10
3.0719855 0.13734385 1.3190942 11
3.0658984 0.12777074 0.1034773 11
4.1337028 0.47905749 -3.1055863 11
4.9022512 0.54678458 4.2724819 11
4.8195043 0.45684916 3.5957954 11
3.0791326 0.16089958 -0.29091406 11
3.0760608 0.14138687 -0.073009968 11
5.3492918 0.32297862 -0.82360661 11
5.3536744 0.42041764 -1.927413 11
5.3539329 0.35186747 -1.1746267 11
5.3521013 0.27941227 -0.14316005 11
5.3705578 0.26326093 0.4296425 11
5.3714328 0.27720606 1.2426076 11
5.3613372 0.37155086 2.4746089 11
3.0769854 0.16829148 1.3137066 12
4.1314216 0.61682546 -3.1098258 12
3.0757611 0.23938963 1.842674 12
4.8954821 0.67772162 4.2575002 12
3.0815668 0.2034955 -0.28618658 12
3.076159 0.23970574 -0.56614828 12
5.3836074 0.32498014 0.42651418 12
5.3529263 0.49861234 2.7992461 12
5.3480501 0.34423193 1.3917823 12
5.3808465 0.34036982 1.245362 12
5.3511314 0.32577816 0.21166599 12
5.349246 0.36642849 -0.43247283 12
5.3523703 0.33623528 -0.0008237958 12
4.3539858 0.6462341 4.2495861 12
3.0676641 0.19321033 0.10578424 13
3.0700247 0.20464674 1.3371119 13
3.0741677 0.28686783 1.843587 13
4.8970814 0.81475657 4.2681551 13
3.0778518 0.20605299 -0.0021321177 13
3.0708082 0.2408599 -0.23921949 13
3.0725508 0.29325563 -0.57174218 13
5.3801508 0.38201132 0.68796462 13
5.3467312 0.38617218 0.21214831 13
5.3446851 0.48292714 -0.82349086 13
5.348793 0.53029382 -1.1741098 13
5.3513403 0.39639196 0.053379238 13
4.3519502 0.77581322 4.2493277 13
3.0656393 0.2271767 0.10418463 14
4.8964353 0.95280325 4.2720408 14
5.3525319 0.80822259 3.3833318 14
3.0755277 0.2818478 -0.23146111 14
5.3610334 0.47259992 1.3697901 14
5.3554554 0.51327974 -0.44021046 14
5.3423834 0.75453252 -1.9221604 14
3.0684958 0.25625956 -0.080617011 14
5.345654 0.65068305 -1.3478868 14
5.3560038 0.63955855 2.522429 14
3.0751853 0.2578952 0.11355764 15
3.0745156 0.26655015 1.3135101 15
4.8947725 1.09259 4.2729187 15
3.0733132 0.32586631 -0.23386729 15
5.3567839 0.53675371 1.3679371 15
5.3432055 0.81879103 -1.6872318 15
5.3502994 0.75080556 2.6242099 15
5.3436418 0.66488671 -0.91862988 15
5.3497543 0.58022374 1.714057 15
5.3516817 0.66274983 2.1906414 15
3.0830727 -0.058500864 1.2976134 5
3.0719714 -0.066352181 0.068322837 5
3.0731339 -0.027296951 1.3063718 6
3.0781717 -0.033450909 0.074447751 6
3.0790672 -0.073246263 -0.7013706 6
5.3627934 -0.051290132 -0.41278851 6
5.3561792 -0.025029546 0.69080937 6
3.0825059 0.0054128356 1.2966561 7
3.0778008 -0.0016451236 0.074353218 7
5.3586626 -0.0011818539 -1.3363924 7
4.4508357 0.0015515871 4.3040338 7
5.3842263 0.027508192 2.7726314 7
3.0736244 -0.019524274 -0.71132815 7
5.3562899 0.033592299 1.2151132 7
5.3827 0.032563508 0.87865126 7
5.3856907 0.029883118 0.50227815 7
5.350965 0.021924637 -0.12698537 7
3.0798109 0.037254594 1.2984829 8
3.0722342 0.03009649 0.069348276 8
4.8909459 0.14086474 4.3024559 8
4.8623362 0.12456845 3.6168034 8
3.0723627 0.032211222 -0.34098208 8
5.093636 0.12734365 3.4756579 8
3.0893099 0.045921482 1.7291206 8
5.3470306 0.088956594 -1.3245325 8
5.3460684 0.087833963 0.73577058 8
3.0769386 0.030792968 -0.08852154 8
5.3713088 0.11637425 2.5834672 8
5.3594041 0.094494723 1.3206222 8
5.3695908 0.11050341 2.2805843 8
5.3800573 0.12727618 3.1082268 8
4.4532962 0.13133396 4.3279548 8
5.3565779 0.087377645 -0.96640503 8
5.3562822 0.091762818 -1.7360933 8
5.3783565 0.090178639 0.87784982 8
5.3672538 0.10091592 1.7377862 8
5.356338 0.085458897 -0.41108656 8
3.0836284 0.068951666 1.2940944 9
3.0755892 0.061942846 0.072775722 9
3.087446 0.099526159 1.9237593 9
4.1212382 0.20617105 -3.0767841 9
4.8905816 0.27434361 4.308136 9
4.8570547 0.23403275 3.6075013 9
3.0756109 0.073919505 -0.30324262 9
5.0865049 0.23527756 3.4642887 9
3.0883017 0.084638037 1.6336309 9
5.3508511 0.15222253 1.2132013 9
5.3498611 0.14398406 0.68959188 9
5.3502159 0.19060929 -1.6570895 9
5.3724289 0.21871947 2.8880811 9
5.3549585 0.15451325 -0.44554317 9
5.3559585 0.14805105 -0.10282499 9
5.3524547 0.16176336 -0.74397671 9
5.3768716 0.15006799 1.0213003 9
5.3628893 0.15957275 1.4600481 9
5.3673029 0.16557567 1.6415839 9
3.0761132 0.092895485 0.091291308 10
3.0732548 0.10186791 1.3032274 10
4.1204433 0.3402864 -3.0932734 10
4.8837709 0.40667388 4.293458 10
4.8242111 0.34676692 3.6533053 10
5.3659754 0.35707319 3.4180355 10
5.0355234 0.34119624 3.4632087 10
3.0763993 0.14294723 -0.70076609 10
3.0903168 0.1250962 1.6293011 10
3.0878286 0.14200705 1.8380593 10
5.3426466 0.32224026 -2.142417 10
3.0740578 0.11816023 -0.33670759 10
5.3497043 0.20384693 0.16698956 10
5.3554306 0.20158677 0.3623018 10
5.3654547 0.29168507 2.5791926 10
5.3526678 0.21184073 -0.13096315 10
5.3524413 0.29110637 -1.663693 10
5.3503542 0.23532155 -0.70321178 10
5.3614054 0.20224987 0.73553717 10
5.3600211 0.21680298 1.3208964 10
3.0717313 0.12511148 0.087511122 11
3.0841582 0.13260411 1.2920959 11
4.1170592 0.47331947 -3.0842493 11
4.8849187 0.54236078 4.3040152 11
4.816246 0.45639986 3.636286 11
5.3744645 0.47257459 3.4351037 11
3.0761821 0.14743088 -0.18637377 11
5.0342555 0.45004374 3.464046 11
5.3509283 0.28488344 1.4545296 11
5.3564835 0.30423927 1.731797 11
3.0837607 0.17770627 1.7334131 11
5.3455567 0.3610141 -1.3308268 11
5.3511605 0.27857807 -0.18999499 11
5.3497133 0.26377073 0.16620523 11
5.3519168 0.29332435 -0.4461869 11
5.355166 0.2701031 0.006900847 11
5.3517351 0.25781065 0.50393307 11
5.3535624 0.25820062 0.688806 11
3.0806696 0.16544704 1.294657 12
3.0676429 0.15791166 0.084005058 12
4.1138778 0.60711008 -3.0773416 12
3.0786479 0.17743632 1.3937894 12
4.8838782 0.67883486 4.3077207 12
4.8075733 0.56540352 3.6173067 12
5.3413477 0.33020654 0.011784732 12
5.3429856 0.50079298 -1.7302122 12
5.3464723 0.31516674 0.73430651 12
5.3581414 0.41141933 2.0998304 12
5.3512292 0.39103544 -0.74824214 12
5.3801856 0.32386103 0.87692523 12
3.0673347 0.19051175 0.083969176 13
3.0774097 0.19887404 1.2969857 13
3.0792837 0.21242273 1.3921723 13
3.090435 0.28305203 1.8278668 13
4.8784914 0.81419206 4.2976828 13
3.071166 0.22742718 -0.19187772 13
5.0716338 0.67189205 3.4471846 13
5.3463316 0.37288597 0.68796605 13
5.3556952 0.38971311 0.11116016 13
5.3419228 0.54574716 -1.331805 13
5.3627362 0.58767754 2.7545326 13
5.3698225 0.37847579 0.50083381 13
5.3704543 0.38439205 0.28395075 13
3.0685437 0.22309542 0.085326076 14
3.0753143 0.23265672 1.2981946 14
3.0847259 0.35096127 1.9185725 14
3.0743952 0.24957016 1.3965857 14
4.8755889 0.95276111 4.2956314 14
3.0747688 0.24953972 -0.088385642 14
5.3452845 0.43661752 0.36177641 14
5.3423209 0.53983617 -0.70326614 14
5.3610024 0.70853692 2.8814619 14
5.3492956 0.43522519 0.82611513 14
5.3452892 0.79410446 -2.1654654 14
5.3602223 0.59820968 2.2768316 14
5.3737617 0.44927967 1.0196817 14
5.3476391 0.47712642 -0.19148141 14
3.0719438 0.25529882 0.088692784 15
3.0788102 0.26514214 1.2940949 15
3.0751779 0.28557849 1.3947804 15
4.8737407 1.0945245 4.2970629 15
3.0700326 0.30885074 -0.19216746 15
3.0671442 0.334187 -0.31130832 15
5.3499727 0.49444577 0.50195932 15
5.3461103 0.51401973 0.11284238 15
5.3489876 0.58048368 -0.44987154 15
5.362494 0.50661278 0.28446624 15
5.3593402 0.57321894 1.6384659 15
5.3400145 0.913903 -2.1608555 15
5.342979 0.49388167 0.82522357 15
5.3541932 0.64819413 2.0985503 15
5.3561239 0.74329484 2.5748968 15
5.3455162 0.53482831 -0.10396528 15
5.344604 0.73831683 -1.3409212 15
5.3457699 0.66673368 -0.97030318 15
5.3692031 0.86339653 3.107183 15
3.081408 -0.067517787 0.017784536 5
3.0909848 -0.056628212 1.2666272 5
3.079042 -0.064885952 1.4015875 5
3.0783355 -0.035490222 0.015127599 6
3.0806777 -0.025428541 1.2759368 6
3.0814657 -0.028898265 1.3977132 6
3.0837083 -0.044984207 -0.1943239 6
3.0843537 0.0070592538 1.2714827 7
5.3545494 -0.0054340139 -1.4367536 7
3.0905213 0.0042528287 1.8793485 7
4.9097581 0.019474812 3.5679932 7
3.0932786 0.0060072653 1.5867617 7
3.0795982 -0.01547455 -0.55341792 7
3.0763149 0.0061970651 1.4493684 7
5.3688107 0.030612327 0.97777188 7
5.3780112 0.02852934 0.64819622 7
5.3765049 0.019872528 -0.096597552 7
3.0763972 0.029022109 0.013892055 8
3.0772259 0.0392786 1.2776446 8
4.9142761 0.14940551 4.3331118 8
4.8537006 0.1313605 3.68188 8
3.0826557 0.030171681 -0.19451046 8
3.0846505 0.048097521 1.6608293 8
5.351594 0.086483508 0.83231944 8
5.3825908 0.082788631 -0.10036969 8
5.3701921 0.11689866 2.5396252 8
5.3659654 0.088573322 0.97689688 8
5.3518286 0.086539499 -1.4360536 8
5.3684397 0.10509269 1.9834131 8
5.3601599 0.092811316 1.3054729 8
5.3674307 0.09784922 1.599062 8
5.3561378 0.089473248 -1.8593162 8
3.0736589 0.071946837 1.280298 9
4.1099768 0.20199013 -3.0503273 9
4.9117651 0.28503311 4.3312554 9
4.8487668 0.2442051 3.6726341 9
3.0940714 0.086606607 1.5828212 9
5.0686469 0.24165383 3.48769 9
5.3590403 0.1457316 0.95115995 9
5.3476348 0.1991059 -2.0141087 9
5.3762889 0.23970754 3.2180657 9
5.3646069 0.18584636 2.1450076 9
5.3472953 0.17077167 -1.2038523 9
5.3565135 0.14911425 1.1219563 9
5.3691883 0.20192288 2.4852371 9
5.3614979 0.16350755 1.5956571 9
5.3577595 0.1463961 -0.23429555 9
5.3565063 0.15144345 -0.48986387 9
5.3620324 0.15505321 1.3333826 9
3.0688882 0.092493385 0.043643355 10
3.0759945 0.10569455 1.2961311 10
4.1077571 0.33250102 -3.0521402 10
4.9087162 0.42093343 4.3277197 10
4.8399477 0.35569295 3.6527114 10
5.065937 0.3519327 3.4849262 10
3.082056 0.13393015 1.6618333 10
3.0757589 0.13225353 -0.5990988 10
3.0712683 0.11749342 1.4522429 10
5.3693299 0.33944187 3.1292787 10
5.3828344 0.20582865 0.03477329 10
5.359293 0.24967776 1.9381089 10
5.3789234 0.20930447 1.0778815 10
5.3700862 0.28881437 2.4871769 10
5.3490152 0.27496472 -1.5008982 10
5.3517275 0.22033472 -0.48791456 10
5.3563328 0.19771433 0.48471376 10
3.0744133 0.13912988 1.296844 11
4.1040583 0.46212387 -3.0390887 11
4.9064021 0.55783558 4.32654 11
4.8335423 0.46741945 3.6393986 11
3.0910635 0.16807942 1.5844771 11
5.0688081 0.46458587 3.4941916 11
3.0785079 0.14380121 -0.19809812 11
3.071497 0.17882149 -0.56336224 11
5.350565 0.27633974 1.3012486 11
5.3458648 0.29138142 -0.51988375 11
5.3520241 0.25521564 0.66923136 11
5.3701811 0.42876008 2.982657 11
3.0727975 0.15455186 1.449231 11
5.3470554 0.34385222 -1.2084457 11
5.3626246 0.32392466 1.9411573 11
5.355309 0.25502086 0.50749397 11
5.3573108 0.26717401 -0.036839783 11
5.3508263 0.31712413 -0.87467623 11
5.3709879 0.3878375 2.5997562 11
3.0690022 0.15666896 0.044325233 12
3.0799928 0.18429115 1.3932332 12
3.0872414 0.25171268 1.875319 12
4.1014423 0.59357035 -3.0371389 12
4.9034948 0.69559199 4.3235316 12
4.827672 0.57946217 3.6275592 12
5.0563755 0.57268518 3.4705262 12
5.3360834 0.52687931 -2.007113 12
5.3844309 0.3777113 1.7072854 12
5.3668919 0.53020781 2.9795237 12
5.3458781 0.35940367 -0.48664427 12
5.3553276 0.31347138 0.66881859 12
5.3697472 0.47163391 2.5430646 12
5.3745384 0.32389349 0.95321357 12
5.3650765 0.39902759 1.9435043 12
5.3508301 0.46669289 -1.5093144 12
3.0668745 0.18968035 0.042676747 13
3.0776534 0.22116905 1.3948903 13
3.0865414 0.30229875 1.8745513 13
4.898612 0.68839175 3.5626316 13
4.909431 0.84091431 4.3486896 13
3.0715461 0.27750248 -0.56080651 13
5.3572412 0.56741518 2.5853457 13
5.3495359 0.43512392 -0.5255183 13
5.3807893 0.3771514 0.64529508 13
5.350574 0.40404719 1.3281703 13
5.3527527 0.37491599 0.83060598 13
5.3783836 0.39144504 1.0770224 13
3.0722485 0.24342538 -0.3453998 13
5.3625088 0.5017401 2.1453159 13
5.3503261 0.37063405 0.50677049 13
5.3814521 0.4480601 1.7055243 13
5.3692746 0.39098474 0.037067235 13
5.3494558 0.53711021 -1.3276901 13
3.0757196 0.2585921 1.3960583 14
4.8977494 0.97580212 4.3179431 14
3.0696025 0.33669806 -0.60540044 14
5.3777819 0.44619083 0.95320225 14
5.3465877 0.51197588 -0.56044114 14
5.3703499 0.43459743 0.59810847 14
5.3536663 0.55372131 1.9736435 14
5.3361869 0.62578648 -1.3141207 14
5.3611574 0.66228139 2.5911648 14
5.3642092 0.45372096 1.1232154 14
5.3455539 0.47327927 -0.233437 14
5.3486366 0.45565662 -0.036128998 14
5.3674545 0.76958066 3.1338234 14
5.3460708 0.72648883 -1.866083 14
3.0827827 0.40695521 1.877407 15
4.8990135 1.1229386 4.3284788 15
5.3648829 0.50479513 0.9504199 15
5.3815475 0.49879947 0.59726316 15
5.3574581 0.49287623 0.4816395 15
3.0674145 0.33319083 -0.35093564 15
5.3462281 0.58693564 -0.56175625 15
5.3568621 0.51492923 1.1208143 15
5.3621359 0.89761734 3.2076278 15
5.355979 0.66380137 2.140415 15
5.3453927 0.5416252 -0.23455501 15
5.342536 0.76034921 -1.5074614 15
5.3467326 0.63953298 -0.87872458 15
3.0758092 -0.076762162 -0.10598779 5
3.0772328 -0.042060308 -0.10414124 6
3.0714095 -0.0080782268 -0.11017281 7
3.0905519 0.0043639969 1.8372964 7
5.3824897 0.029727194 2.6896863 7
5.3903589 0.024572846 0.49055216 7
5.3860464 0.026064709 0.63179898 7
5.3705206 0.0308847 2.199492 7
5.3545451 0.0053718258 -0.66926146 7
5.3733907 0.031232458 1.8712558 7
5.3556623 -0.0017695557 -1.001214 7
3.0799134 0.026199099 -0.0044699907 8
3.0923886 0.05454741 1.8763999 8
4.1553664 0.061848447 -2.9995604 8
4.8642883 0.13531628 3.6743202 8
5.1114998 0.1374439 3.539237 8
3.0878806 0.044672705 1.4946098 8
5.3465304 0.080553271 -1.8082665 8
3.0725412 0.028763201 -0.6473664 8
5.367692 0.11633465 2.4437509 8
5.3770094 0.13268483 3.0991564 8
5.352766 0.079056323 -1.4172341 8
5.3512564 0.0779377 -1.0934297 8
5.3714314 0.10876916 2.1116428 8
5.3534675 0.077326015 -0.78646803 8
3.0773883 0.057974681 -0.006649375 9
3.0758173 0.070004024 1.2186781 9
4.1035266 0.18882738 -3.0264053 9
4.8610454 0.24968861 3.6694684 9
3.0807161 0.070107602 -0.40734452 9
5.1106787 0.25118867 3.5403533 9
3.0763903 0.078299291 -0.63899088 9
3.0887167 0.090020724 1.6112223 9
5.3683281 0.19060594 2.1982875 9
5.3473539 0.14256637 -0.36040485 9
5.3751287 0.1391816 0.49027246 9
5.3487387 0.16749467 -1.3567173 9
5.3803539 0.24232429 3.1860738 9
5.3775964 0.21536788 2.6854539 9
5.368804 0.17902198 1.9446951 9
5.352572 0.15184814 -0.78753281 9
5.3518581 0.18263386 -1.8198866 9
3.069262 0.090583429 -0.014095068 10
3.0747116 0.10221438 1.2188684 10
4.1006422 0.31641808 -3.0204015 10
4.8570299 0.36397702 3.6624985 10
3.089376 0.13233051 1.6086125 10
5.1120982 0.36608657 3.5463033 10
3.0731459 0.11164238 -0.38655007 10
5.3496675 0.1988803 -0.019628465 10
5.3730998 0.34891611 3.1763206 10
5.3464055 0.25643715 -1.3565969 10
5.3481379 0.23692399 -1.0001363 10
5.3484106 0.27995351 -1.7445856 10
5.355638 0.19577651 0.20667452 10
5.3739486 0.31324491 2.7444735 10
5.3541031 0.19705553 0.72192943 10
5.3685293 0.21579522 -0.50585735 10
3.0800996 0.13193509 1.1950955 11
3.0750802 0.12213693 -0.0084227324 11
4.0980496 0.44462454 -3.0174079 11
3.0847549 0.20773636 1.8848451 11
5.0422969 0.47193831 3.5074949 11
3.0752544 0.15645431 -0.41439891 11
5.3488722 0.26034325 0.95634645 11
5.3642902 0.393601 2.6103597 11
5.3614597 0.34632209 2.1474159 11
5.3616514 0.30055058 1.619704 11
5.3449202 0.38013592 -1.7429665 11
5.3742018 0.2557469 0.62928236 11
3.0786493 0.16405325 1.1955922 12
3.0710771 0.1552238 -0.011984766 12
4.0964785 0.57522494 -3.0249805 12
5.0380754 0.58476138 3.5011001 12
3.0657227 0.17598149 -0.20463371 12
5.3651371 0.55281866 3.0873208 12
5.3668494 0.31619644 0.20220989 12
5.3614388 0.36914387 1.6195769 12
5.3614845 0.4024443 1.939394 12
5.3683491 0.35609189 -0.50876546 12
5.356595 0.32072076 0.95766121 12
3.0795527 0.1960088 1.1939118 13
3.0705831 0.1881673 -0.012244761 13
4.1464438 0.70790237 -3.0231323 13
3.0826104 0.31189039 1.884524 13
4.9222269 0.85459906 4.3520904 13
5.3699913 0.76000291 3.6403532 13
3.0739384 0.27918571 -0.63917446 13
5.3602986 0.39430434 1.1586618 13
3.066081 0.21383601 -0.20378506 13
5.3484116 0.36744949 0.58167154 13
5.3711786 0.38323477 0.074088812 13
5.3622413 0.37123558 0.65112972 13
5.3432798 0.49205104 -1.0965558 13
5.3397756 0.40812567 -0.36124283 13
3.0694733 0.24059847 -0.39005482 13
5.3404713 0.58357024 -1.7435235 13
5.3668709 0.60144722 2.7384758 13
5.3448391 0.45379829 -0.78830624 13
5.3648891 0.46954483 1.8657584 13
5.3690252 0.51037586 2.1555421 13
3.0723939 0.23073345 1.1996295 14
3.0677416 0.22223231 -0.014707446 14
4.9231195 1.0014954 4.3610773 14
3.0647182 0.25266808 -0.20502424 14
5.3578348 0.42891648 0.5809294 14
5.3559227 0.43090692 0.7199471 14
5.364223 0.45840266 1.1597252 14
3.0719182 0.33135518 -0.64183807 14
3.0667303 0.2853193 -0.39348036 14
5.3690467 0.44568413 0.073797345 14
5.3364291 0.74470639 -2.0571127 14
5.3629231 0.58383 2.1061413 14
5.344552 0.57839239 -1.1003023 14
5.3675008 0.64523309 2.4480124 14
5.3429799 0.63121933 -1.4221908 14
3.076263 0.25320512 -0.0064941645 15
3.0731378 0.26382986 1.1980667 15
3.0853257 0.40506363 1.8301412 15
4.9188328 1.1466848 4.3536825 15
5.3666973 1.0155607 3.6394744 15
3.0795963 0.32601249 1.4965459 15
3.0621011 0.29269597 -0.20777994 15
3.0667999 0.32975098 -0.39267915 15
5.3488359 0.48685682 0.58041483 15
5.3636498 0.50013202 0.20035005 15
5.3381553 0.59010845 -0.67001688 15
5.3348999 0.86010957 -2.0589585 15
5.3378639 0.6632579 -1.095614 15
5.3688374 0.49349582 0.65014935 15
5.3554583 0.51402026 -0.027127683 15
5.3702493 0.77572161 2.6216269 15
3.0664759 -0.072440371 -0.057327926 5
3.0805788 -0.061544567 1.1764753 5
3.076791 -0.038885579 -0.047409952 6
3.0770564 -0.029808512 1.1791246 6
3.0653615 -0.0075698923 -0.057976186 7
3.0730073 0.0020830743 1.1822727 7
4.1968441 -0.060124241 -2.9438555 7
3.0746255 -0.011747723 -0.25943476 7
5.3587747 0.025220245 0.80038315 7
3.0761893 -0.017890247 -0.52302098 7
3.0765476 0.0013001543 1.3432395 7
5.3726754 0.0235608 2.3053102 7
5.370254 0.025551818 1.8666269 7
5.3576474 0.005226234 -0.71271873 7
5.3610349 0.023503987 0.54471242 7
3.0685451 0.024774907 -0.054778755 8
3.0788059 0.034135297 1.1760204 8
4.1945453 0.063583747 -2.9430213 8
4.8961959 0.14243405 4.3899031 8
3.0762084 0.025537675 -0.25701982 8
5.3644819 0.082592279 0.80090559 8
3.0882552 0.040444896 1.4812474 8
5.3453064 0.077983059 -1.0804498 8
5.3760667 0.078108884 0.087834477 8
5.3538904 0.079589143 -1.4014832 8
3.0800366 0.037373677 1.3380916 8
3.069787 0.056892507 -0.053411484 9
3.0794072 0.065941423 1.1747329 9
4.1451864 0.18768607 -2.97651 9
4.8959484 0.28296918 4.3956738 9
4.8447943 0.24296193 3.7256415 9
3.074506 0.089448184 -0.994156 9
5.0850801 0.24225007 3.5573838 9
3.088335 0.090207942 1.6754897 9
5.3490353 0.15383868 -0.90766668 9
5.3461256 0.17183705 -1.5131221 9
5.345026 0.19173227 -2.091645 9
5.3672628 0.19276941 2.3519781 9
5.3656125 0.17143169 1.8636941 9
5.3543472 0.16211313 -1.1894981 9
3.0782723 0.088272862 -0.045229316 10
3.0787749 0.097892448 1.1746194 10
4.1430135 0.31280836 -2.9767408 10
4.8955097 0.42445707 4.400857 10
4.8386779 0.35959801 3.7127523 10
3.0699935 0.14981242 -1.0030061 10
5.0871429 0.35875461 3.5653617 10
3.0867214 0.13600264 1.6766697 10
5.3480711 0.20817204 -0.40264362 10
5.3438673 0.28512424 -1.8525004 10
5.3469548 0.2573106 -1.3981422 10
5.3503709 0.22116202 -0.71162128 10
5.3572893 0.2001009 -0.11665565 10
3.0629015 0.12238516 -0.059488475 11
3.0729287 0.13088064 1.1794578 11
4.1398234 0.43760028 -2.9680901 11
4.8938122 0.56668764 4.4019084 11
4.8319616 0.47580928 3.6981292 11
3.0741558 0.1618814 -0.52312434 11
3.0853851 0.18213095 1.6773565 11
3.0835178 0.16085494 1.4843837 11
5.3653021 0.41283944 2.8273475 11
5.3772101 0.25825548 0.085147381 11
5.3525419 0.2550337 0.82178009 11
5.364861 0.33661306 2.0674877 11
5.3621368 0.30087519 1.6466767 11
5.3464375 0.38858458 -1.8598311 11
5.3670902 0.36405152 2.3535738 11
5.3575616 0.25092447 0.54285836 11
5.3486147 0.30784589 -0.91092134 11
3.0738139 0.1531851 -0.049025357 12
4.1372757 0.56365418 -2.9652078 12
4.8914962 0.70994329 4.40096 12
4.8238583 0.59127676 3.6795073 12
3.0885115 0.22734572 1.6703267 12
5.0694437 0.58705395 3.5325866 12
3.0733933 0.18343566 1.3421929 12
5.3438067 0.32255378 -0.11287445 12
3.08409 0.20119576 1.4823346 12
5.3632393 0.51236159 2.8259935 12
5.3373957 0.52027625 -2.0908659 12
5.3576674 0.31577009 0.090065539 12
5.362834 0.44348955 2.2989354 12
3.0727735 0.17576796 -0.25961059 12
5.3753672 0.31234443 0.58894968 12
5.365097 0.39761713 1.903275 12
5.3503261 0.41504025 -1.1918404 12
5.3689713 0.3320308 1.1486804 12
3.0767477 0.2034567 1.2308896 13
3.0678189 0.1970275 -0.13116908 13
3.0709848 0.21770871 1.3212343 13
4.1348591 0.69107831 -2.9636724 13
4.8875847 0.85366869 4.3947515 13
5.3326068 0.59334469 -1.8459044 13
5.3539414 0.37600085 0.090359151 13
5.3753424 0.39627248 1.1508585 13
5.3540845 0.42858115 1.5438218 13
5.3606348 0.53688872 2.3482642 13
5.344532 0.3709881 0.8198548 13
5.3676319 0.60410583 2.7659924 13
5.3494639 0.40369886 1.3033693 13
5.3445807 0.52943242 -1.4030722 13
5.3641682 0.49639708 2.0680475 13
5.3497839 0.41019985 -0.4073723 13
3.0778322 0.23761864 1.2289464 14
3.0721428 0.23099294 -0.12632936 14
3.0725431 0.2583847 1.3412249 14
4.8850594 1.0001837 4.3932633 14
3.0844591 0.32245287 1.6739945 14
5.365829 0.44917575 -0.043253005 14
5.3490772 0.49672711 1.5409181 14
5.3751903 0.43170762 0.58801234 14
5.3581185 0.4513306 1.0925865 14
5.3598185 0.62559164 2.34829 14
5.3387027 0.54216617 -0.90740073 14
5.3647819 0.70408922 2.7635972 14
5.3431778 0.64282328 -1.5234349 14
5.3434763 0.74956489 -2.1091735 14
5.3566937 0.4709495 1.3066932 14
5.3616686 0.55075306 1.9013348 14
3.0798249 0.27182591 1.2260582 15
3.0658658 0.26883259 -0.13264871 15
3.0728328 0.2916095 1.3171592 15
4.8815479 1.1481192 4.3885756 15
5.3484297 0.49908042 0.090349168 15
5.353363 0.51031053 -0.039528668 15
5.3553929 0.51428914 1.0915279 15
5.3597136 0.80450034 2.7582099 15
5.3412519 0.6563623 -1.0910435 15
5.3559432 0.58468825 1.6434368 15
5.3547492 0.53703898 1.3057749 15
5.3652649 0.71848446 2.3552597 15
3.0776379 -0.0066295471 -0.085577726 7
3.0806262 0.0025213044 1.1349399 7
5.34653 0.013706785 -0.096637011 7
3.0767696 0.025078908 -0.086158156 8
3.0766964 0.034335323 1.1379993 8
4.8624582 0.14171441 4.4392862 8
4.867466 0.1249349 3.7453961 8
5.3595657 0.086384252 1.3541133 8
5.12745 0.12723522 3.6080317 8
5.3597779 0.092934459 1.7441738 8
5.3475876 0.077678919 -1.3246975 8
5.3727231 0.11300313 2.7256546 8
5.3791695 0.12333637 3.1861448 8
5.3533087 0.075533353 -0.86824614 8
5.3527584 0.074030623 -0.20824641 8
5.3703437 0.099462926 2.0747907 8
5.3534946 0.074635759 -0.6082812 8
3.0729594 0.066509791 1.1408658 9
4.1358342 0.18756568 -2.9454794 9
4.8558989 0.28343207 4.4226966 9
4.8606901 0.24361928 3.7301817 9
3.0840273 0.072156087 1.2697483 9
5.3368206 0.19775547 -2.2995865 9
3.0864182 0.094993308 1.7175608 9
3.0786877 0.061620742 -0.24513578 9
5.3420138 0.17744592 -1.7441578 9
5.1243258 0.24556823 3.6041102 9
5.3537917 0.13920976 0.95141947 9
5.3736529 0.23702621 3.2665339 9
5.3711767 0.20908117 2.7247779 9
5.3636556 0.15346952 1.4464211 9
5.3497605 0.1499144 -0.86673552 9
5.3726525 0.19198039 2.3703694 9
3.0795996 0.09673892 1.1160263 10
3.0751824 0.088780299 -0.087176681 10
4.1322327 0.30903879 -2.9315524 10
4.8623967 0.42925349 4.4518352 10
4.853014 0.36140379 3.7123623 10
3.0887899 0.1330013 1.5967329 10
5.1203561 0.36389688 3.5983086 10
5.3423834 0.30667603 -2.2208462 10
5.3593602 0.2533116 2.0216098 10
5.3556752 0.21390651 1.352129 10
5.38416 0.19349425 0.19318029 10
5.3596916 0.23137596 1.6732543 10
5.3523378 0.22313653 -0.83069414 10
5.3577037 0.19573374 0.8545571 10
5.3549757 0.18959661 0.34093672 10
5.3696103 0.27847779 2.3677325 10
5.3520942 0.21145698 -0.57572109 10
3.0794692 0.1283454 1.115472 11
4.1313205 0.43300575 -2.9413655 11
4.8510804 0.56945127 4.4185839 11
4.8157177 0.48496622 3.7584066 11
3.0845928 0.14255626 1.2673353 11
5.1107583 0.48070174 3.5799417 11
3.0732148 0.17852211 -0.71981627 11
3.0861435 0.17820305 1.5997117 11
3.0780411 0.13345705 -0.24509215 11
5.3808751 0.25246531 0.19320771 11
5.3439546 0.38781083 -1.8971343 11
5.3559179 0.27840561 1.3522645 11
5.3530707 0.26810318 -0.35530043 11
5.3650718 0.30861968 1.7489901 11
5.3709545 0.33390942 2.0328717 11
3.0671146 0.15649122 -0.11266875 12
3.071692 0.16386184 1.1399572 12
4.1289215 0.5566746 -2.9382076 12
4.8495965 0.7146185 4.4198503 12
4.8105445 0.60502702 3.7473576 12
3.072866 0.17082153 -0.25079936 12
5.3379841 0.350425 -0.60246271 12
5.3369455 0.53169137 -2.2192092 12
5.3562222 0.32211512 -0.15832603 12
5.3415103 0.47327033 -1.752151 12
5.3494601 0.31042394 0.077184141 12
5.3521338 0.33364883 -0.35583466 12
5.3702831 0.47633713 2.5391605 12
5.3469262 0.42453882 -1.3327186 12
5.3656697 0.39821154 1.9031787 12
5.3553753 0.3173137 0.95120847 12
3.0746379 0.19353136 1.1185603 13
3.0624299 0.19105689 -0.11693263 13
4.1262689 0.68102944 -2.932946 13
4.8505249 0.86341667 4.4296923 13
5.3621483 0.67454982 3.167671 13
5.3526058 0.38482764 -0.1576879 13
5.3354678 0.66119289 -2.3133733 13
5.3567371 0.51673245 2.2034831 13
5.3465815 0.49903408 -1.2303786 13
5.3515897 0.37136585 0.07588017 13
5.3636141 0.4751007 1.9018278 13
3.069231 0.22794354 1.1228406 14
4.8483758 1.0123465 4.4288082 14
3.0779548 0.24327546 -0.24395782 14
3.0822186 0.34037095 1.7167437 14
3.0767 0.26608387 1.3440714 14
3.071955 0.30048963 1.5177658 14
5.3599534 0.44888434 -0.13452363 14
5.3575625 0.80498123 3.2494452 14
3.0683019 0.33289763 -0.7256586 14
5.3614144 0.45621812 -0.21772563 14
5.360209 0.42481667 0.57095885 14
5.3605919 0.42536092 0.33812034 14
5.3514638 0.51603705 1.6682775 14
5.3436403 0.43046257 0.85059786 14
5.3642578 0.69984871 2.7216249 14
5.3406048 0.70282775 -1.9018071 14
5.3557811 0.47627354 1.3522258 14
5.3687143 0.60703677 2.2166615 14
5.3464499 0.49132454 -0.57692784 14
3.075788 0.26250824 1.1339006 15
4.8468819 1.1644275 4.4303465 15
3.0766077 0.30539486 1.343148 15
3.0751853 0.34345058 1.5115322 15
5.3605709 0.51442975 -0.13567352 15
5.3579311 0.48559597 0.33785671 15
5.3339396 0.77736485 -1.7503924 15
5.3451905 0.49349105 0.076199055 15
5.3576913 0.52171373 -0.21698916 15
5.3611684 0.48572439 0.57055658 15
5.348599 0.5542413 1.4382224 15
5.3599133 0.759045 2.5294232 15
5.3411517 0.6733079 -1.2287211 15
5.3549805 0.66204691 2.0639069 15
5.3441734 0.60295337 -0.83162743 15
3.0741146 -0.063588023 1.1029269 5
3.0797541 -0.071147136 -0.12233618 5
3.0710588 -0.040175922 -0.13031825 6
3.0795627 -0.030868156 1.0969666 6
3.0923269 -0.051328145 1.7156237 6
5.362536 -0.041575931 0.22967149 6
3.0870218 -0.041255184 1.4352279 6
3.0861006 -0.033798397 1.2085097 6
3.0747142 -0.0079581924 -0.12668493 7
3.0795021 0.00098614022 1.0962996 7
3.0858054 -0.00073120184 1.4664387 7
3.0760345 -0.011246348 -0.28697047 7
5.3804274 0.011047139 -0.1520451 7
5.3582692 0.020306978 0.8137942 7
5.3543916 0.017286327 0.37043044 7
5.3608479 0.021399625 1.3129848 7
5.3547096 0.015891524 0.23029339 7
3.0724962 0.032879226 1.1022819 8
3.0718224 0.023834586 -0.12920704 8
4.8890495 0.14482178 4.477242 8
4.8552046 0.12759911 3.8131001 8
3.0857954 0.040861309 1.4651482 8
5.3518934 0.084794186 1.3083563 8
5.3836222 0.07302656 0.0030434728 8
5.3483596 0.071763583 -0.64773428 8
5.3694239 0.10826711 2.4905314 8
5.3487949 0.075850897 -1.600536 8
5.3599167 0.082503647 1.1438879 8
5.353569 0.074709013 0.48535934 8
3.082871 0.035178926 1.210427 8
5.3747334 0.072385922 -0.15069214 8
3.0817614 0.064378664 1.0926951 9
3.0763998 0.055528022 -0.12471053 9
4.1234527 0.18045461 -2.9083376 9
4.8854041 0.29012451 4.4709888 9
4.8509536 0.25021681 3.8049176 9
3.0804489 0.067182444 -0.49130234 9
3.0883055 0.080611214 1.4295806 9
5.3454976 0.13136223 0.55375373 9
5.3405242 0.17409977 -1.7877215 9
5.1055617 0.24907069 3.6348557 9
5.3637104 0.18788978 2.2648101 9
3.0821142 0.096708253 1.7298034 9
5.3808646 0.13424736 -0.15392491 9
5.3494205 0.15447891 -1.1718547 9
5.3771124 0.2199984 2.899605 9
3.0803003 0.073225506 1.280601 9
5.3515124 0.13533397 -0.36541584 9
5.355608 0.14655086 -0.87541449 9
3.0689559 0.087115765 -0.11366048 10
4.122087 0.3007265 -2.9131119 10
4.8839436 0.43638262 4.4723625 10
4.8417125 0.37117687 3.78179 10
3.0891733 0.14506872 1.7143698 10
3.0743222 0.10946324 -0.49988869 10
5.0975885 0.36840624 3.6196375 10
5.3679733 0.32135725 2.8875339 10
5.3478999 0.20988417 -0.64997983 10
5.3804636 0.20096712 0.96719289 10
5.3681202 0.29013151 2.490813 10
5.371604 0.18949015 0.24969058 10
5.3645482 0.25925332 2.0726483 10
5.3556814 0.18831003 0.4844487 10
5.3504276 0.19664069 -0.27948985 10
5.345737 0.27277708 -1.7979947 10
5.3738189 0.19230422 0.0044151843 10
3.0626006 0.11988518 -0.11927614 11
3.0754457 0.12900564 1.0972719 11
4.1187558 0.41996977 -2.9005291 11
4.8793979 0.58221936 4.4630103 11
4.8286729 0.48961109 3.7472358 11
5.0913968 0.48799869 3.6085343 11
3.0699787 0.17306714 -0.72017837 11
5.3468833 0.2592988 -0.27876595 11
5.3414836 0.31625339 -1.1674944 11
3.0807669 0.1395493 1.2101634 11
3.0724809 0.13281961 -0.28976557 11
3.0639355 0.15201816 -0.11787233 12
4.1175923 0.54225135 -2.9073513 12
4.8807535 0.73239017 4.4743323 12
4.826045 0.61221874 3.7438974 12
3.0816872 0.24666341 1.7250223 12
5.0859551 0.60817611 3.5991735 12
5.3788867 0.30822334 0.24744767 12
5.3649578 0.49034223 2.6111541 12
5.3823986 0.32333896 0.96731949 12
5.3561983 0.32968941 1.1418757 12
5.3456163 0.39957279 -1.1736921 12
5.3578362 0.36175576 1.5284165 12
5.3483901 0.44886136 -1.6102484 12
5.3676581 0.44632894 2.2713084 12
3.0751629 0.19169109 1.0781841 13
3.0704224 0.18309759 -0.11176917 13
4.1159906 0.66560739 -2.9104893 13
4.8786373 0.88255841 4.4736018 13
3.0688033 0.22439702 1.2907834 13
3.0808561 0.26340151 1.5313448 13
5.3438139 0.3935383 -0.36548737 13
5.3484449 0.36976871 0.81001604 13
5.3462448 0.4455522 -0.87372208 13
5.3599887 0.36319062 0.50624955 13
5.3700614 0.5895108 2.6189747 13
5.3588314 0.43197611 1.5291729 13
5.3502235 0.47835833 -1.133428 13
5.3689609 0.53466207 2.2734787 13
3.073519 0.2248884 1.0789721 14
3.0672646 0.23434949 -0.22923669 14
4.8695278 1.0286267 4.4484167 14
5.3418679 0.41902342 0.55145329 14
5.3342857 0.67128527 -1.7934324 14
5.3587918 0.58623552 2.0691574 14
5.3666101 0.43471128 0.028688252 14
5.3513985 0.42039874 0.36695504 14
5.3719611 0.47306153 1.2601593 14
5.3406596 0.55904967 -1.1257383 14
5.3642225 0.43418664 0.81293803 14
5.3595247 0.49888676 1.4970219 14
3.0745564 0.25777563 1.0772722 15
3.070657 0.24893495 -0.11117664 15
3.0678091 0.27045205 -0.22834614 15
3.0733898 0.2999396 1.2830523 15
4.8708167 1.1860048 4.4598246 15
3.0714436 0.37164205 -0.71366608 15
3.0810449 0.35449055 1.5280392 15
5.3393731 0.59904951 -0.8711189 15
5.3623323 0.48410016 0.50533998 15
5.3562012 0.49483937 0.030826002 15
5.3544407 0.49341127 0.8106277 15
5.3702006 0.54027313 1.2592533 15
5.3618011 0.57133597 1.4985447 15
3.0721955 -0.073349036 -0.16719368 5
3.0823619 -0.063654512 1.0722663 5
3.0752993 -0.040988222 -0.16411355 6
3.0847082 -0.031208145 1.0692934 6
5.3719254 -0.044523805 1.0556668 6
3.0800924 0.00064749829 1.0731871 7
5.3794632 0.012190415 2.5237057 7
3.0820732 -0.00087262131 1.3702714 7
3.0896704 -0.0031443276 1.7217751 7
3.0703268 -0.022494646 -0.75895238 7
5.3472748 0.006714371 -0.20656767 7
5.3583508 0.014370076 0.51510745 7
5.3503423 -0.0030456614 -0.79588795 7
5.3636131 0.015817225 1.7400676 7
5.3601537 0.016541455 1.0510436 7
5.3751736 0.014866516 1.9973543 7
3.0762596 0.032861553 1.0763034 8
3.065299 0.022404093 -0.15524837 8
3.0692821 0.022965053 -0.28749606 8
4.8695459 0.12448154 3.819211 8
5.2154799 0.12877961 3.7181666 8
3.0718801 0.024817832 -0.60611653 8
5.3533969 0.071954444 0.63057363 8
5.3681474 0.10309759 2.4501851 8
5.3760314 0.11396009 2.9342983 8
5.3443413 0.073855355 -1.9781709 8
5.34793 0.068630517 -0.98971891 8
5.3652678 0.087289311 1.6669014 8
3.0654261 0.054127283 -0.1549798 9
3.0750647 0.065269113 1.0768175 9
4.1140766 0.17506061 -2.8908935 9
4.8600545 0.24768463 3.794651 9
3.080821 0.079269536 1.3699712 9
3.0731645 0.072436467 -0.71214676 9
5.2092772 0.25395596 3.7069998 9
5.3370347 0.19811723 -2.5920765 9
5.3758516 0.23173475 3.1857991 9
5.3428874 0.17557152 -1.9789157 9
5.3647337 0.16166145 1.7413186 9
5.3577046 0.14147623 1.1857944 9
5.3741732 0.19167146 2.4002421 9
5.3468456 0.13096572 -0.40394035 9
5.3466244 0.14405285 -0.99008715 9
5.3456979 0.15821454 -1.4663391 9
3.0639672 0.086078025 -0.1561183 10
3.0693927 0.098398834 1.0817671 10
4.1121216 0.29288206 -2.8899498 10
4.8493872 0.36913586 3.7661934 10
3.0866122 0.11855372 1.3606651 10
3.0840187 0.14925487 1.7280823 10
3.0699136 0.1226254 -0.7570709 10
5.3681116 0.32877183 3.003968 10
5.3662028 0.28469172 2.4491224 10
5.3780904 0.18950883 -0.088775665 10
5.340189 0.28784895 -2.1355882 10
5.3558683 0.18639195 0.63006634 10
5.3634596 0.2302144 1.6657228 10
3.0594871 0.11874089 -0.16004595 11
3.0758815 0.13021515 1.0747284 11
4.108943 0.40986833 -2.8772383 11
5.071692 0.49153763 3.6491151 11
3.0828907 0.20069365 1.7286198 11
5.347147 0.24087201 0.51285166 11
5.3601031 0.32999545 1.9842982 11
5.3764439 0.45810735 3.1897118 11
3.0785923 0.17419128 1.4969929 11
5.3567266 0.26727843 1.185034 11
5.3725939 0.3976382 2.6454184 11
5.3465271 0.28249347 -0.79834259 11
3.0763998 0.16292411 1.0735506 12
3.0706749 0.1490555 -0.149699 12
4.1058331 0.52699178 -2.8651495 12
3.0699902 0.1767194 1.1809398 12
3.0702233 0.16315675 -0.28532651 12
3.0742331 0.19997515 -0.59976315 12
5.0662904 0.61395454 3.6389768 12
5.3328152 0.56254977 -2.5967741 12
5.3507128 0.29832438 0.44333234 12
5.3840332 0.30795261 0.65648955 12
3.083631 0.19965251 1.3628311 12
5.3743753 0.58556002 3.279788 12
5.3711629 0.49564317 2.6444209 12
5.3751311 0.31173509 -0.089344233 12
5.3542509 0.31867912 -0.29591075 12
3.0738802 0.18052268 -0.14662483 13
3.067723 0.1983618 1.0813709 13
3.068773 0.21312663 1.1815099 13
4.1039209 0.64654565 -2.8639245 13
4.894762 0.88938469 4.4881387 13
3.0710459 0.26270297 -0.71261418 13
3.0713623 0.19852282 -0.28378621 13
5.3395391 0.35438886 0.4428536 13
5.3550854 0.44695568 1.6598027 13
5.3818521 0.38076356 0.92696649 13
5.3754182 0.36625111 0.65498352 13
5.3664083 0.56317115 2.4516149 13
5.3738613 0.65832597 3.0170908 13
5.3667536 0.38580322 -0.30255857 13
3.0755961 0.25339633 1.4335316 13
4.8948817 1.0454459 4.4943018 14
3.0698595 0.3118248 -0.71388125 14
5.3494945 0.41551635 0.41931042 14
5.3676963 0.4215093 0.53582585 14
3.0803561 0.30825683 1.4902699 14
5.3689661 0.42547542 0.1110985 14
5.353621 0.50558382 -0.80795443 14
5.3628616 0.66848111 2.5080729 14
5.344655 0.43886238 -0.21143541 14
5.3737764 0.44169709 0.92431593 14
5.3720722 0.7537998 2.9356346 14
4.8923292 1.2018944 4.4911971 15
5.3538303 0.47696951 0.41875044 15
5.3781652 0.4854885 0.53598273 15
5.3726959 0.48871809 0.10966623 15
5.3323164 0.83640975 -2.1395137 15
5.3612142 0.74066979 2.3887579 15
5.3685088 0.94530392 3.2748313 15
5.3433819 0.52405548 -0.40817305 15
5.3725324 0.50511545 0.92368317 15
5.3495212 0.50512189 -0.21430209 15
3.0716941 0.34323066 1.4370469 15
5.3610826 0.65825713 1.9866748 15
5.3435373 0.69938439 -1.4770848 15
3.0801482 -0.075159416 1.2485784 5
3.0718253 -0.043077771 -0.20553711 6
3.0756221 -0.037621874 1.2533844 6
3.0761352 0.00054970942 1.015112 7
3.070519 -0.011294905 -0.20667228 7
5.3532219 -0.029036183 -1.7516285 7
3.0839043 0.00065288879 1.1922668 7
5.3404326 -0.0088767558 -0.86605251 7
5.3601055 0.018581484 1.4861053 7
5.3645391 0.018865477 1.9962499 7
5.3485966 -0.020724159 -1.3996089 7
5.3516345 -0.0022226572 -0.53543031 7
5.3709679 0.018876303 1.7481366 7
5.3509245 -0.014306892 -1.1168364 7
3.071847 0.032346636 1.0183976 8
3.0690327 0.020534562 -0.20797613 8
4.8596144 0.15710752 4.5370917 8
3.0855548 0.036660336 1.1891606 8
3.0665598 0.021778742 -0.58672798 8
3.0794513 0.042703114 1.4194465 8
5.3452711 0.06498298 -1.7436694 8
5.3575482 0.089049712 1.5880011 8
5.3647604 0.10212278 2.1399608 8
5.3750501 0.11426806 2.6115475 8
3.075531 0.06399262 1.014064 9
3.0657723 0.052593365 -0.21094504 9
4.1034575 0.16300774 -2.8481359 9
4.8581381 0.30736437 4.5374713 9
4.8417668 0.26586756 3.8778963 9
3.0678334 0.063756309 -0.58439088 9
3.0686305 0.079822719 -1.0344931 9
5.1089926 0.26352674 3.7035005 9
5.3763256 0.13001116 0.61738563 9
5.3525567 0.14626707 1.2604676 9
5.3391452 0.1605909 -1.8033208 9
5.3556414 0.15502922 1.4828198 9
5.371541 0.24031185 3.1452971 9
5.3503189 0.14737801 -1.3545227 9
5.3508525 0.13992131 -1.0772473 9
3.0683732 0.095346868 1.0020782 10
3.0702393 0.083418384 -0.1889399 10
4.099824 0.27653536 -2.8306215 10
4.8574877 0.45865467 4.5409222 10
4.8326521 0.39171919 3.8532484 10
5.1032391 0.38825163 3.6923308 10
3.0701442 0.11182031 -0.67970085 10
5.3520961 0.21071142 1.2599648 10
5.3700609 0.33109337 2.8933942 10
3.0702577 0.11506554 -0.18884316 11
3.0670609 0.12743291 1.0024866 11
4.0993891 0.39270952 -2.8415332 11
4.8533998 0.60944581 4.5317287 11
3.0831089 0.14531496 1.1889914 11
3.081641 0.16318354 1.3495306 11
3.0694411 0.15699972 -0.68031299 11
5.3488388 0.30016556 1.5813342 11
5.3478112 0.26393816 1.0871215 11
5.3399596 0.24227476 -0.11778948 11
5.3697243 0.4369317 2.8938639 11
5.3689895 0.38378444 2.4176223 11
5.3461537 0.29391825 -1.0764481 11
5.34307 0.31470355 -1.350818 11
5.3633356 0.33973086 1.9956964 11
5.3494797 0.2461054 0.70752287 11
3.0619309 0.148546 -0.19635448 12
3.0705128 0.1588617 0.99848509 12
4.0988426 0.51045305 -2.8516693 12
4.849257 0.76096714 4.5223594 12
5.088459 0.63660437 3.6621087 12
3.0755267 0.21514262 1.4197706 12
5.3690457 0.58055568 3.1449733 12
5.3411393 0.4516874 -1.8144323 12
5.3612304 0.47472617 2.4085338 12
5.3389535 0.37477332 -1.1145402 12
5.3483686 0.30470699 0.70681477 12
5.3609171 0.42661348 2.0398974 12
5.3521171 0.32180363 1.0079925 12
5.3449025 0.35330883 -0.87725723 12
5.3597431 0.3905825 1.7388334 12
3.0720408 0.19077152 0.99625957 13
3.066788 0.17997636 -0.19184467 13
4.0964084 0.62701148 -2.8450701 13
4.8518753 0.91908073 4.5380816 13
5.3495359 0.35749131 0.51833385 13
5.3683128 0.35902143 0.37928477 13
5.3681927 0.35948294 0.19125712 13
5.3595414 0.64837766 2.880306 13
5.3346195 0.54866278 -1.8082544 13
5.3560052 0.52371395 2.131928 13
5.3521647 0.43238881 1.4798846 13
3.0745437 0.2226236 0.99312901 14
3.0641654 0.21349885 -0.19415209 14
