# .PCD v0.7 - Point Cloud Data file format
VERSION 0.7
FIELDS x y z intensity
SIZE 4 4 4 4
TYPE F F F F
COUNT 1 1 1 1
WIDTH 1336
HEIGHT 1
VIEWPOINT 0 0 0 1 0 0 0
POINTS 1336
DATA ascii
-1.5953877 1.9973731 7.4573889 14.5
-1.2108821 2.0609522 7.6061926 14.5
-0.96269715 2.1038775 7.6994691 14.5
0.5631938 0.39074165 -4.9328542 8.6754999
0.54717398 0.69916749 -4.9302325 10.1755
-1.3066831 0.37887943 1.2279394 13.948001
-4.1299601 0.22520894 4.2375822 8.5819998
-3.7760794 0.24053843 4.3793559 8.5845003
-3.4850867 0.25386307 4.496314 8.5865002
3.0721955 -0.073349036 -0.16719368 5
3.0823619 -0.063654512 1.0722663 5
3.0752993 -0.040988222 -0.16411355 6
3.0847082 -0.031208145 1.0692934 6
5.3719254 -0.044523805 1.0556668 6
3.0800924 0.00064749829 1.0731871 7
5.3794632 0.012190415 2.5237057 7
3.0820732 -0.00087262131 1.3702714 7
3.0896704 -0.0031443276 1.7217751 7
3.0703268 -0.022494646 -0.75895238 7
5.3472748 0.006714371 -0.20656767 7
5.3583508 0.014370076 0.51510745 7
5.3503423 -0.0030456614 -0.79588795 7
5.3636131 0.015817225 1.7400676 7
5.3601537 0.016541455 1.0510436 7
5.3751736 0.014866516 1.9973543 7
3.0762596 0.032861553 1.0763034 8
3.065299 0.022404093 -0.15524837 8
3.0692821 0.022965053 -0.28749606 8
4.8695459 0.12448154 3.819211 8
5.2154799 0.12877961 3.7181666 8
3.0718801 0.024817832 -0.60611653 8
5.3533969 0.071954444 0.63057363 8
5.3681474 0.10309759 2.4501851 8
5.3760314 0.11396009 2.9342983 8
5.3443413 0.073855355 -1.9781709 8
5.34793 0.068630517 -0.98971891 8
5.3652678 0.087289311 1.6669014 8
3.0654261 0.054127283 -0.1549798 9
3.0750647 0.065269113 1.0768175 9
4.1140766 0.17506061 -2.8908935 9
4.8600545 0.24768463 3.794651 9
3.080821 0.079269536 1.3699712 9
3.0731645 0.072436467 -0.71214676 9
5.2092772 0.25395596 3.7069998 9
5.3370347 0.19811723 -2.5920765 9
5.3758516 0.23173475 3.1857991 9
5.3428874 0.17557152 -1.9789157 9
5.3647337 0.16166145 1.7413186 9
5.3577046 0.14147623 1.1857944 9
5.3741732 0.19167146 2.4002421 9
5.3468456 0.13096572 -0.40394035 9
5.3466244 0.14405285 -0.99008715 9
5.3456979 0.15821454 -1.4663391 9
3.0639672 0.086078025 -0.1561183 10
3.0693927 0.098398834 1.0817671 10
4.1121216 0.29288206 -2.8899498 10
4.8493872 0.36913586 3.7661934 10
3.0866122 0.11855372 1.3606651 10
3.0840187 0.14925487 1.7280823 10
3.0699136 0.1226254 -0.7570709 10
5.3681116 0.32877183 3.003968 10
5.3662028 0.28469172 2.4491224 10
5.3780904 0.18950883 -0.088775665 10
5.340189 0.28784895 -2.1355882 10
5.3558683 0.18639195 0.63006634 10
5.3634596 0.2302144 1.6657228 10
3.0594871 0.11874089 -0.16004595 11
3.0758815 0.13021515 1.0747284 11
4.108943 0.40986833 -2.8772383 11
5.071692 0.49153763 3.6491151 11
3.0828907 0.20069365 1.7286198 11
5.347147 0.24087201 0.51285166 11
5.3601031 0.32999545 1.9842982 11
5.3764439 0.45810735 3.1897118 11
3.0785923 0.17419128 1.4969929 11
5.3567266 0.26727843 1.185034 11
5.3725939 0.3976382 2.6454184 11
5.3465271 0.28249347 -0.79834259 11
3.0763998 0.16292411 1.0735506 12
3.0706749 0.1490555 -0.149699 12
4.1058331 0.52699178 -2.8651495 12
3.0699902 0.1767194 1.1809398 12
3.0702233 0.16315675 -0.28532651 12
3.0742331 0.19997515 -0.59976315 12
5.0662904 0.61395454 3.6389768 12
5.3328152 0.56254977 -2.5967741 12
5.3507128 0.29832438 0.44333234 12
5.3840332 0.30795261 0.65648955 12
3.083631 0.19965251 1.3628311 12
5.3743753 0.58556002 3.279788 12
5.3711629 0.49564317 2.6444209 12
5.3751311 0.31173509 -0.089344233 12
5.3542509 0.31867912 -0.29591075 12
3.0738802 0.18052268 -0.14662483 13
3.067723 0.1983618 1.0813709 13
3.068773 0.21312663 1.1815099 13
4.1039209 0.64654565 -2.8639245 13
4.894762 0.88938469 4.4881387 13
3.0710459 0.26270297 -0.71261418 13
3.0713623 0.19852282 -0.28378621 13
5.3395391 0.35438886 0.4428536 13
5.3550854 0.44695568 1.6598027 13
5.3818521 0.38076356 0.92696649 13
5.3754182 0.36625111 0.65498352 13
5.3664083 0.56317115 2.4516149 13
5.3738613 0.65832597 3.0170908 13
5.3667536 0.38580322 -0.30255857 13
3.0755961 0.25339633 1.4335316 13
4.8948817 1.0454459 4.4943018 14
3.0698595 0.3118248 -0.71388125 14
5.3494945 0.41551635 0.41931042 14
5.3676963 0.4215093 0.53582585 14
3.0803561 0.30825683 1.4902699 14
5.3689661 0.42547542 0.1110985 14
5.353621 0.50558382 -0.80795443 14
5.3628616 0.66848111 2.5080729 14
5.344655 0.43886238 -0.21143541 14
5.3737764 0.44169709 0.92431593 14
5.3720722 0.7537998 2.9356346 14
4.8923292 1.2018944 4.4911971 15
5.3538303 0.47696951 0.41875044 15
5.3781652 0.4854885 0.53598273 15
5.3726959 0.48871809 0.10966623 15
5.3323164 0.83640975 -2.1395137 15
5.3612142 0.74066979 2.3887579 15
5.3685088 0.94530392 3.2748313 15
5.3433819 0.52405548 -0.40817305 15
5.3725324 0.50511545 0.92368317 15
5.3495212 0.50512189 -0.21430209 15
3.0716941 0.34323066 1.4370469 15
5.3610826 0.65825713 1.9866748 15
5.3435373 0.69938439 -1.4770848 15
4.7809229 -0.0067738052 4.4937139 7
4.7498512 0.28628549 4.5031214 9
4.3707337 0.27755958 4.5051608 9
4.0501556 0.27152267 4.5065866 9
3.1695294 0.26193267 4.5109973 9
2.7805257 0.26076287 4.513103 9
2.3854289 0.26151472 4.5150623 9
4.7454033 0.65632963 4.5013289 11.5
4.3389239 0.68444645 4.5030646 11.8
4.0542207 0.70493835 4.500823 12
3.1807179 0.66877514 4.5051966 11.8
2.7737048 0.6303761 4.5086856 11.5
2.3781281 0.64082789 4.5117898 11.5
4.7243414 1.034583 4.4960947 14
4.3815889 1.0451236 4.497746 14.2
4.0490365 1.0747452 4.4921713 14.5
3.1408665 0.99751908 4.5020094 14
2.7654395 1.010854 4.5097413 14
2.369252 1.0312855 4.5123191 14
5.1452999 0.0028765853 3.6830978 7
4.8696623 -0.00013778731 3.8157492 7
5.3837881 0.26381505 3.7713008 9
5.0880499 0.27993098 3.6813169 9.25
4.877419 0.24891314 3.8100071 9
5.3806782 0.65955973 3.7720797 12
5.1136007 0.55844212 3.66168 11.5
4.8823376 0.55078429 3.7139099 11.5
5.3755341 1.0212437 3.7680941 14.666667
5.38346 0.0049422625 3.5927379 7
5.3807735 0.24543796 3.4361787 9
5.3752317 0.66989583 3.4318378 12.5
5.3686328 0.95430303 3.4929428 14.666667
5.3765073 0.0090704765 3.0133722 7
5.3809609 0.27629283 3.0118444 9.5
5.3754339 0.68762642 3.0011673 13.285714
5.3734589 0.89567107 3.0633345 15
5.3833551 0.011784529 2.5929573 7
4.7411656 -0.072115496 2.5411501 6
4.4029126 -0.076151453 2.6844897 6
5.378335 0.25189018 2.6346209 9.5
5.3735104 0.64597255 2.6125166 13.555555
5.3809071 0.013812416 2.2219172 7
5.1893415 -0.068528831 2.2635806 6
3.0854614 -0.0062392596 2.1045187 7
5.3753953 0.26875985 2.2156336 10
3.0827448 0.21852762 2.1397939 10.5
5.3708854 0.59361851 2.2371993 13.714286
3.0802758 0.48147327 2.1353416 14.5
5.3743539 -0.02279493 1.8437334 6.5
4.3107791 -0.084403701 1.7066759 5
4.0869236 -0.08710663 1.792356 5
3.0902131 -0.04065498 1.7705539 6.25
5.3720455 0.25991085 1.8025447 10.272727
3.0804138 0.22556952 1.8218915 11.25
5.3677406 0.54783177 1.8129131 14
3.0773323 0.4437274 1.8529868 15
5.3722858 -0.017434491 1.4492278 6.5
4.7200212 -0.082040727 1.4326705 5
4.4918442 -0.083330467 1.6217732 5
3.1022477 -0.050992221 1.3941619 5.7142859
5.3708429 0.25179887 1.4209496 10.5
3.0777812 0.19035374 1.4287745 11.529411
5.3650513 0.52560407 1.4126545 14.5
5.3704576 -0.013927182 1.0247415 6.5
5.0228925 -0.081214413 0.99912143 5
4.292769 -0.11590226 0.89505827 3
4.0469799 -0.11382315 1.0203328 3
3.0843005 -0.050849304 1.1525874 5.5
5.3675346 0.24622057 1.0131333 10.769231
3.0788929 0.15368794 1.1361046 11.5
5.3625426 0.49294654 1.0480694 14.666667
5.3723612 -0.013849074 0.63237429 6.5
5.1273761 -0.08244554 0.62177205 5
4.584619 -0.1198377 0.58302146 3
4.4488468 -0.11885314 0.77590108 3
3.7739873 -0.099188581 0.47683489 29
3.7022109 -0.10010483 0.47744328 29
5.3619709 0.24614879 0.62667882 11
5.3585329 0.48386711 0.63154423 15
5.3695297 -0.017167361 0.22121584 6.5
5.1215439 -0.08547321 0.23721449 5
4.7114644 -0.11047545 0.23638232 3.4000001
3.7732103 -0.099947453 0.3840304 21
3.7014341 -0.1008637 0.38463879 21
5.3623171 0.24362272 0.23269522 11
5.3586798 0.48211375 0.21039122 15
5.3607736 -0.023385903 -0.17652974 6.5
5.0058117 -0.090345159 -0.15919003 5
4.7622337 -0.093585528 -0.18425414 4.5
4.4426703 -0.098182417 -0.25625721 4
3.076035 -0.063301809 -0.27299628 5.5
5.3610463 0.23739192 -0.15874758 10.769231
3.0680728 0.15012366 -0.24664959 11.7
5.3614063 0.47504991 -0.2022405 14.5
5.3601918 -0.031867787 -0.55137086 6.5
4.7255812 -0.096479118 -0.53933823 5
4.3662181 -0.10134497 -0.5669086 4.5
3.9514534 -0.10700352 -0.51906669 4
3.5104301 -0.11186185 -0.50388062 4
3.0918174 -0.067660592 -0.51710725 5.7142859
5.3569431 0.2368155 -0.57297766 10.5
3.0659878 0.17362486 -0.53519881 11.529411
5.3549695 0.51353759 -0.57860565 14.5
5.3586693 -0.043186501 -0.95048559 6.5
4.3508162 -0.10369796 -0.80780244 5
3.9455822 -0.11015476 -0.9286797 5
3.5637014 -0.11544682 -0.93391883 5
3.0916028 -0.066309877 -0.90300441 6.1999998
5.3540282 0.23899621 -0.95756543 10.272727
3.0631361 0.20303005 -0.9358747 11.25
5.3499384 0.54381412 -0.99730217 14.142858
3.0607679 0.42121696 -0.9707998 15
5.3471751 -0.03536319 -1.3882761 6.75
5.1136832 -0.098572336 -1.4443113 6
3.063561 -0.057686552 -1.3082455 6.6666665
5.3534822 0.24045724 -1.3556242 10
3.0608089 0.19928178 -1.3433622 10.5
5.3496013 0.58929181 -1.3633974 14
3.0559831 0.46461859 -1.4007127 14.2
4.7587309 -0.10464055 -1.645292 6
4.2653427 -0.11288679 -1.8232503 6
3.9024024 -0.11832055 -1.8767319 6
3.5350337 -0.12358332 -1.8758638 6
3.1174927 -0.087398432 -1.7791002 6.5
5.3493686 0.21604678 -1.751631 9.5
3.0561378 0.19541483 -1.7483184 10
5.3460937 0.60536593 -1.7489309 13.5
3.0541458 0.53424734 -1.7376969 14.142858
5.3560085 -0.028051479 -1.9928253 7
3.0587461 -0.054008245 -2.0383582 7
5.3483629 0.23699284 -2.1765943 9.5
3.0558658 0.20199877 -2.130882 9.7777777
5.341671 0.64740533 -2.1529293 13.285714
3.0501201 0.56695771 -2.1513605 13.555555
5.3388853 0.86850828 -2.279958 15
5.3517275 -0.037649095 -2.4105449 7
5.3460135 0.19772539 -2.5693836 9
3.0531611 0.20249276 -2.5509925 9.5
5.3401842 0.59368819 -2.5630357 12.285714
3.0468445 0.61497742 -2.542268 13.285714
5.3362203 0.87934726 -2.6169672 14.5
3.0427692 0.83868861 -2.6622281 15
5.3445292 -0.053330064 -3.0721812 7
4.2401733 -0.058476925 -2.8914683 7
3.0553856 -0.075322494 -2.8836291 7
5.3419266 0.21365374 -2.9815514 9
4.3614278 0.1814336 -2.9107642 9
4.0265665 0.17631274 -2.9567304 9
3.0513327 0.14171988 -2.995199 8.8000002
5.3373041 0.61575419 -2.9870358 12
4.3589063 0.5441637 -2.9130614 12
4.0139966 0.54001302 -2.9689076 12
3.044868 0.57693231 -3.0074799 12.285714
5.3313646 0.96902019 -2.9685998 14.6
3.0386176 0.93345731 -3.0354664 15
5.3384724 0.2302499 -3.395997 9
3.0464849 0.2175658 -3.4028084 9.25
5.3337083 0.63588417 -3.3639209 11.8
3.0406468 0.61201304 -3.4839256 12
5.3269391 0.97539318 -3.4116435 14
3.0368624 0.92687023 -3.3808334 14.333333
5.3417301 -0.072360203 -3.8565588 7
5.3370242 0.21212254 -3.7480984 8.8000002
3.0437403 0.20498309 -3.8587022 9
5.3322711 0.59604704 -3.7892742 11.2
3.0393701 0.58879334 -3.8550153 11.5
5.3243499 1.0117286 -3.750658 13.8
3.0320752 0.98564178 -3.8691063 14
5.3225932 1.238487 -3.8648705 15
5.3339248 -0.076681629 -4.0304003 7
5.335207 0.17559549 -4.1519146 8.5
3.0421762 0.14030202 -4.3093781 8.5
5.3276277 0.60370451 -4.1508641 11
3.0373273 0.5624935 -4.3045363 11
5.3224363 1.040545 -4.1570668 13.5
3.0294991 0.99599266 -4.3201742 13.5
5.3167939 1.3083191 -4.1534333 15
3.0261471 1.2617172 -4.3198185 15
5.3294287 0.18660708 -4.5966234 8.5
5.3259611 0.55864912 -4.6055145 10.5
5.3218422 0.93668711 -4.6120939 12.5
5.3171992 1.3241459 -4.6174145 14.5
3.0414491 -0.12603055 -4.8717532 7
5.3293514 0.19666585 -4.9979601 8.5
3.038846 0.15507412 -4.8638754 8.5
5.3202538 0.59393978 -4.9895077 10.5
3.0339763 0.53089672 -4.8627367 10.5
5.3191261 0.99979794 -5.0081425 12.5
3.0276239 0.91382086 -4.8734598 12.5
5.3125949 1.4139584 -5.0087857 14.5
3.0237439 1.3024206 -4.8647432 14.5
5.3317542 -0.10797432 -5.292727 7
5.3267937 0.20429295 -5.292985 8.5
3.0359116 0.067718491 -5.5625958 8
5.3205285 0.62238139 -5.2953382 10.5
5.3159823 1.0475942 -5.3036356 12.5
3.0246065 0.92001075 -5.5626941 12
5.3090825 1.4820614 -5.3039846 14.5
5.3258405 0.21267802 -5.6262155 8.5
3.1363678 0.21395729 -5.7158513 8.666667
5.3174486 0.62541169 -5.7447672 10.333333
3.1047664 0.61009818 -5.6830192 10.5
5.3117857 0.89466274 -5.8016615 11.5
3.0985022 1.0476817 -5.6891809 12.5
5.3110933 1.329407 -5.6387992 13.5
3.1211574 1.315917 -5.7224259 13.666667
5.3072476 1.677846 -5.6453781 15
3.090734 1.6137378 -5.6926188 15
5.3246689 0.2223991 -5.9971366 8.5
5.3111501 1.0405159 -5.9957809 12
5.308157 1.4018793 -6.0068841 13.5
5.3014936 1.7673756 -6.0033803 15
3.9307425 -0.15647569 -6.5748215 7
3.426784 -0.1640684 -6.5935912 7
5.3199725 0.23261066 -6.3985219 8.5
5.3115554 0.60077047 -6.3881421 10
5.3091817 0.9748686 -6.4033279 11.5
5.3021851 1.3513445 -6.3987184 13
5.2994256 1.7405447 -6.41326 14.5
3.3201153 0.10233198 -8.9177771 8
3.3825705 0.43104231 -8.9241505 9
3.1804643 0.42901975 -8.9309883 9
3.3753874 0.92545593 -8.9262686 10.5
3.1737337 0.92384571 -8.9271755 10.5
3.3681633 1.4257634 -8.9371567 12
3.1663203 1.4246445 -8.9384146 12
3.3634906 1.76333 -8.9389524 13
3.1617014 1.7624656 -8.9394913 13
3.3589349 2.1046631 -8.9372721 14
3.157578 2.1027782 -8.9315567 14
5.0866246 1.0621642 4.4931822 14.009
5.3778911 1.0327313 4.2389688 14.0115
3.075475 0.28877595 1.1987934 15.1595
5.3679996 0.36014673 0.50338584 13.0435
5.3621073 0.47911471 0.5022279 15.0435
5.3670983 0.42263132 0.12475148 14.05
5.3733268 0.4863255 0.12292844 15.05
3.0728278 0.15960513 -0.19170055 12.4465
3.0617552 0.28597131 -0.44024071 14.775333
3.9570904 0.099125348 -7.6933413 8.0889997
3.9515119 0.52540916 -7.6928415 9.5889997
5.2868757 1.9518635 -8.013751 14.0845
5.2848272 2.2727876 -8.02742 15.0845
3.9781411 1.0977976 -8.9413414 11.089
3.9741836 1.4331633 -8.9567261 12.089
3.9696453 1.7692455 -8.9512014 13.089
4.7752399 2.1371026 -8.9648104 14.0865
3.965414 2.1126153 -8.9604034 14.089
2.1532583 -0.10653475 -0.13704789 6
2.1313419 -0.020990508 1.6521428 7
-0.97714174 0.044764441 -1.8787906 8
2.1083226 0.035917189 1.6497169 8
4.8881741 0.12154581 3.2094386 8
5.413569 0.13853155 3.8406448 8
-1.0248705 0.089915529 -4.0116515 8
-1.7385973 0.040422034 -1.8807912 8
2.135438 0.04325993 0.81705153 8
2.1093469 0.03799874 1.2747283 8
0.23143494 0.011679634 3.937501 8
2.1415372 0.054855999 -0.079460144 8
-1.7565066 0.0026177466 0.35280228 8
2.1429806 0.060348008 -0.38675523 8
3.4198861 0.080658942 3.8943372 8
-1.7608002 0.016503017 -0.57466984 8
-1.7588204 0.0081012435 -0.042806506 8
-0.98531079 0.17521563 -1.8924568 9
2.1221414 0.09378089 1.65183 9
0.61218095 0.17323653 -1.7484038 9
4.8834233 0.28675702 3.2093687 9
5.4281244 0.33081296 3.8500566 9
-1.7393659 0.18276045 -1.8782001 9
-1.7493287 0.07526736 1.0814947 9
-1.7485031 0.091229185 0.357939 9
2.1054447 0.094664365 1.2753636 9
-1.7664045 0.15097034 -1.1913424 9
2.1432393 0.13682924 -0.12912893 9
0.23082167 0.098009303 3.9323237 9
2.0746598 0.14675595 3.8927853 9
-1.7584773 0.080469042 0.80559748 9
-0.98088884 0.3045536 -1.8776309 10
-0.35044193 0.050767098 1.7887193 10
2.1244636 0.15171818 1.6525286 10
0.61071789 0.28861079 -1.7542386 10
0.057142317 0.054803003 2.2820866 10
4.8690209 0.45136717 3.2054429 10
5.4054403 0.52108437 3.8414013 10
-1.7411724 0.32561782 -1.8771553 10
2.1051559 0.17557767 0.54383218 10
2.1368961 0.24833402 -0.55861044 10
-1.7577177 0.15652855 1.0805637 10
3.6842809 0.36931899 3.8950012 10
-1.7859672 0.16822892 0.72580904 10
1.3762758 0.21077433 3.8949075 10
2.0740435 0.24846104 3.8946133 10
-0.98739851 0.43687525 -1.8874676 11
0.56290185 0.41234252 -1.822679 11
2.114862 0.20859297 1.6517531 11
0.83574796 0.39740524 -1.6596637 11
4.8340077 0.61309725 3.1932578 11
-1.7794203 0.46599022 -1.8264453 11
2.1317592 0.22859277 0.81844473 11
-1.761928 0.39849001 -1.1806502 11
4.3246012 0.58524537 3.8961744 11
2.1365767 0.38616088 -0.98130226 11
-1.7895724 0.24341944 1.0073175 11
2.1014977 0.21443334 1.0600616 11
-1.7688764 0.35318142 -0.69879675 11
3.5027819 0.49120823 3.8982036 11
2.1454444 0.26138052 0.3252598 11
2.1421962 0.28382739 0.051720023 11
0.19305784 0.2717354 3.9315426 11
2.1430321 0.32529876 -0.39001775 11
2.6857061 0.40604585 3.8975744 11
-0.98204541 0.56653869 -1.8705201 12
0.56105375 0.52916878 -1.8080599 12
2.1153896 0.26709646 1.6522355 12
0.051877946 0.1211561 2.2901416 12
0.83501625 0.51282859 -1.6682398 12
5.4119611 0.8703413 3.1061749 12
-1.7830051 0.61063647 -1.8279562 12
0.19099075 0.3607758 3.9383667 12
4.3221536 0.74698305 3.8969517 12
2.1274567 0.29413444 0.76522011 12
3.4958673 0.62807024 3.8949237 12
2.1399488 0.36165971 0.053140283 12
-1.7674888 0.45169085 -0.57296324 12
-0.98687077 0.70122647 -1.8764503 13
0.55942976 0.65064973 -1.8151865 13
-0.34496599 0.14675778 1.7868501 13
2.1117785 0.32547972 1.6522079 13
0.054342896 0.1534089 2.2850804 13
0.8339138 0.62946427 -1.6732597 13
5.4189272 1.1100889 3.8551669 13
5.4032416 1.0560994 3.105145 13
-1.7573158 0.76437098 -1.8898695 13
1.7929579 0.52779686 3.9043996 13
2.131887 0.46396768 -0.12066078 13
3.6745486 0.79750764 3.8945308 13
2.1325951 0.53041774 -0.55687571 13
2.6818199 0.64043492 3.898226 13
-1.7854835 0.42679742 0.72851187 13
-1.779653 0.39661938 1.5379958 13
-1.0007234 0.84333569 -1.9025648 14
2.1211751 0.38768137 1.6538076 14
-0.77490926 0.58838224 3.9178891 14
-1.7766849 0.48633596 1.9322977 14
-1.0451142 1.3174373 -4.015604 14
5.397738 1.3053999 3.8472981 14
5.4011183 1.2456503 3.1063561 14
-1.7905463 0.90583277 -1.8313677 14
2.0920594 0.43832746 0.5504356 14
4.3193159 1.0768702 3.8999054 14
2.1287236 0.70747286 -0.97463679 14
2.1042173 0.39509955 1.0597677 14
2.9391899 0.80415511 3.8921683 14
-1.7709097 0.48934188 1.0806696 14
2.1336327 0.54125166 -0.076135755 14
1.3716047 0.58112913 3.898582 14
-1.7613887 0.50388086 0.80867386 14
2.1385908 0.62967539 -0.56600642 14
-0.99466336 0.97674727 -1.8838747 15
2.1210728 0.44892395 1.6542318 15
-0.7838062 0.69431305 3.9325621 15
-1.7701994 0.570476 1.9312567 15
-1.0461808 1.5287526 -4.0076332 15
5.3915257 1.5071131 3.8467641 15
5.4066601 1.4406101 3.1101856 15
-1.7611557 1.0651071 -1.8877261 15
1.7901198 0.73099333 3.9056003 15
-1.7634205 0.80992192 -0.68495703 15
-1.7833859 0.5821054 1.0113829 15
2.1281862 0.48986575 0.76481897 15
-1.779044 0.91422117 -1.1896713 15
0.18766153 0.63139272 3.9354587 15
2.9444675 0.93486083 3.8999329 15
3.408824 1.0345434 3.9015632 15
-1.7892979 0.56670469 1.5389764 15
2.1352181 0.60134554 0.055504084 15
2.1367517 0.55324036 0.33005595 15
-1.769792 0.69804478 -0.040155649 15
-2.9024897 0.59332347 -9.4770012 9
-2.9088092 0.99740398 -9.4768667 10
-2.9139047 1.4035753 -9.472681 11
-2.9205651 1.8138896 -9.4733238 12
-2.9234395 2.2264562 -9.4616652 13
-2.7265811 0.5923599 -9.4627104 9
-2.7379961 0.99577963 -9.4799814 10
-2.7361922 1.3973224 -9.4525414 11
-2.7489247 1.8085532 -9.4738617 12
-2.7543912 2.2210455 -9.4704838 13
-0.75572526 0.21370672 -9.4939098 8
-0.84043753 0.60029727 -9.4865456 9
-0.52078664 0.60235965 -9.475009 9
-0.84595048 0.98930585 -9.483839 10
-0.52769744 0.9912287 -9.488246 10
-0.85165989 1.3808925 -9.4830894 11
-0.53166592 1.3795296 -9.4698257 11
-0.85631049 1.7745137 -9.4736042 12
-0.53754652 1.7731359 -9.4706039 12
-0.86227453 2.1738496 -9.4734926 13
-0.54298127 2.1705506 -9.4675407 13
0.34729159 0.61295915 -9.4890079 9
0.34193575 0.99855042 -9.4789228 10
0.33641922 1.3869337 -9.4766998 11
0.33065856 1.7804689 -9.4856796 12
0.32488739 2.1784506 -9.4911423 13
-0.93964946 0.54450125 -8.5176764 9
0.50484717 0.61448038 -9.4777822 9
-0.94619644 0.90126061 -8.526103 10
0.49938738 0.99933493 -9.4644089 10
-0.94886386 1.2575353 -8.5078068 11
0.49381554 1.3899069 -9.4836321 11
-0.95740187 1.8019195 -8.5106554 12.5
0.48830283 1.7788895 -9.4634457 12
-0.96509898 2.3541951 -8.5068798 14
0.48260701 2.1782701 -9.4801302 13
0.082994819 0.20134135 -8.4597454 8
-0.93861902 0.49220261 -7.5952206 9
2.4135518 0.65053308 -9.4869556 9
2.5798354 0.65553242 -9.5065298 9
-0.9440521 0.97780573 -7.5836182 10.5
2.4078169 1.0424645 -9.4841051 10
2.5711141 1.0476456 -9.4877949 10
-0.9521693 1.4700898 -7.5882225 12
2.4044213 1.4385639 -9.4951344 11
2.5674014 1.4445561 -9.4961691 11
-0.95501077 1.7999682 -7.5750227 13
2.3986206 1.836681 -9.4923782 12
2.5623798 1.8444787 -9.4977694 12
-0.95990908 2.1364377 -7.57409 14
2.3902702 2.2361655 -9.4749355 13
2.5542665 2.2457323 -9.4829435 13
-0.93854511 0.59667933 -6.8165245 9.5
-0.94307506 1.0424596 -6.8039637 11
-0.94723022 1.3432459 -6.801796 12
-0.95558798 1.8038747 -6.8099194 13.5
-0.96244895 2.272398 -6.8087702 15
-0.93039715 0.13785659 -6.1583486 8
-0.93801701 0.54868752 -6.1657429 9.5
-0.94371092 0.9618243 -6.1627684 11
-0.94746077 1.378908 -6.149189 12.5
-0.9527427 1.8034798 -6.1431184 14
-0.96210825 2.100389 -6.1688776 15
-0.92984056 0.25224018 -5.5875888 8.5
-0.93518555 0.63322222 -5.5853701 10
-0.9434011 1.0200827 -5.5967946 11.5
-0.95246947 1.4144779 -5.6118355 13
-0.95276511 1.8086132 -5.5838666 14.5
-0.92869008 0.23309818 -5.0982804 8.5
-0.93694162 0.59028786 -5.1110306 10
-0.94160795 0.95037913 -5.1071939 11.5
-0.94885695 1.4395357 -5.1061392 13.5
-0.95610583 1.8174334 -5.1128588 15
0.21710551 -0.10830139 -5.5042572 7
-0.9302249 0.21688399 -4.6803565 8.5
2.1151986 0.18581314 -6.3626432 8
-0.93661571 0.66370589 -4.6783247 10.5
2.1066709 0.60711592 -6.3480167 9.5
-0.93800521 1.0002022 -4.6621571 12
2.0988235 1.0304132 -6.3368917 11
-0.94710577 1.3485581 -4.6781855 13.5
2.092978 1.4607286 -6.3361416 12.5
-0.95180595 1.7005928 -4.6751537 15
2.085381 1.8962946 -6.3270645 14
2.0837321 2.1972735 -6.3386221 15
-0.92870438 0.20187449 -4.2982411 8.5
-0.9349128 0.62281615 -4.2970743 10.5
-0.94064295 1.0496055 -4.2936201 12.5
-0.94320023 1.3741566 -4.2837639 14
-0.94761562 1.5974574 -4.2876511 15
1.9160358 -0.084923357 -5.3583899 7
-0.97379482 0.22461988 -4.0243659 8.666667
2.1125937 0.30516076 -5.8142619 8.5
-0.99074292 0.59315187 -4.0135927 10.5
2.1067343 0.69960386 -5.8111839 10
-0.99573886 1.0011404 -4.0084877 12.5
2.1020918 1.0988976 -5.814003 11.5
-0.9601779 1.4185483 -4.0102572 14.5
2.095758 1.5026331 -5.8093014 13
2.0937548 1.7788466 -5.8168278 14
2.0850086 2.0513475 -5.7930288 15
2.115943 0.27878061 -5.1402092 8.5
2.1115761 0.63935548 -5.1413527 10
2.1052876 1.0028615 -5.1352072 11.5
2.1006021 1.4400483 -5.069057 13.333333
2.0947976 1.8081344 -5.2054524 14.666667
-0.93020022 0.14899118 -2.9250736 8.5
2.1172867 0.36661017 -4.5635242 9
2.1256328 0.14709498 -4.584518 8
-0.93265808 0.55869389 -2.9127417 11
2.1131802 0.69889718 -4.5642586 10.5
-0.93848026 0.97685796 -2.9103079 13.5
2.1124854 1.0368912 -4.5782948 12
-0.94411671 1.2364187 -2.9149933 15
2.1040616 1.376374 -4.5629177 13.5
2.0982232 1.7237951 -4.5578008 15
-1.7232286 0.18145457 -1.8539679 9
-0.92513287 0.20364822 -2.4250998 9
-0.9253794 0.21836311 -2.7013969 9
2.1223269 0.24408466 -4.2388062 8.5
-1.7195784 0.61247289 -1.8719165 12
-0.92909455 0.57308787 -2.4198062 11.5
-0.93484485 0.61324245 -2.7107058 11.5
2.1167626 0.66442364 -4.2382455 10.5
-1.72425 0.9790048 -1.8604386 14.5
-0.93713796 0.95432156 -2.4250274 14
-0.93669927 1.0150365 -2.6974564 14
2.110918 1.0908486 -4.2369518 12.5
2.1086278 1.4189893 -4.2439165 14
2.1056776 1.6414603 -4.2436018 15
2.1247478 -0.065598845 -3.928741 7
-1.7737192 0.16730943 -1.5392203 9
-1.7761909 0.17643307 -1.7289147 9
-0.92442214 0.18342406 -2.0494092 9
2.1297436 0.22289544 -3.6807194 8.5
2.1229706 0.23246841 -3.9356966 8.5
-1.780986 0.57164288 -1.5314937 12
-1.7822863 0.59742272 -1.726985 12
-0.93185735 0.58637917 -2.0190229 12
2.1195948 0.60359335 -3.6635175 10.5
2.1190758 0.63285762 -3.9398861 10.5
-1.783902 0.92689043 -1.5079861 14.6
-1.7854558 0.9575851 -1.7224431 14.5
-0.93535137 0.95336473 -2.0392084 14.6
2.1154783 0.99169147 -3.6661711 12.5
2.1135025 1.0390133 -3.9385948 12.5
2.107574 1.3866271 -3.6568317 14.5
2.1054461 1.4530632 -3.9291759 14.5
-1.7694494 -0.094003618 -0.90596437 7
-1.7758662 0.13896188 -0.90808177 9
-1.7730502 0.1458489 -1.0772207 9
2.1281905 0.20855457 -3.3064952 8.5
-1.7772225 0.4916791 -0.90247059 12
-1.7776631 0.54821205 -1.0783467 12.285714
2.1221085 0.61650896 -3.28057 10.8
-1.7819067 0.85529655 -0.90015221 15
-1.7864057 0.86094028 -1.1374924 14.666667
2.1147265 1.0609074 -3.3213873 13.2
2.1121211 1.3960086 -3.3034396 15
-1.7763542 -0.091844052 -0.59083676 7
2.1368139 -0.052260648 -2.7960048 7
-1.7738625 0.18042041 -0.58982801 9.5
0.57406187 0.17749164 -1.8225696 9
2.1304808 0.18799245 -2.7414231 8.5
2.127727 0.19618161 -2.9762187 8.5
-1.7768258 0.53316355 -0.62142253 12.666667
0.60754883 0.52260154 -1.7587852 12
2.1248269 0.59017479 -2.7548571 11
2.1217589 0.61642814 -2.9741964 11
-1.7768856 0.78503317 -0.53754902 15
2.1201701 0.99762177 -2.7406511 13.5
2.1155431 1.0455455 -2.9717922 13.5
2.1163809 1.2625887 -2.7849526 15
2.1131122 1.3109125 -2.9742689 15
-1.7627517 -0.0892497 -0.24519503 7
0.83001673 -0.051935181 -1.6950579 7
-1.7728485 0.15265529 -0.032635927 9.5
-1.7705144 0.16068849 -0.20750189 9.5
0.81912601 0.23002934 -1.6808224 9.5
1.0204998 0.15850738 -1.7539294 8.8000002
2.1294861 0.26925674 -2.4187946 9.125
-1.7766098 0.54465365 -0.017838478 13.5
-1.7771147 0.5785048 -0.21811247 13.571428
0.77627683 0.56451964 -1.6889777 12.428572
1.0099397 0.53244966 -1.7491865 12
2.1275578 0.64088023 -2.4125972 11.6
2.1221976 1.0132326 -2.4231434 14
-1.7637786 -0.086815342 0.28829217 7
-1.3407871 -0.15758733 0.077724218 6
-1.1487827 -0.15362027 -0.13119125 6
0.42301983 -0.12804791 -0.81648254 6
2.1413698 -0.041973189 -1.8799858 7
-1.770676 0.15608126 0.30835915 9.6923075
2.1329954 0.22275053 -1.9033813 9
2.1351581 0.23529714 -2.1425362 9
-1.7741841 0.50926405 0.29171073 13.5
2.1287243 0.62528181 -1.9044456 12
2.1269627 0.65959942 -2.1355531 12
2.1229348 0.98246646 -1.8958607 14.6
2.1241856 0.95013326 -2.1372278 14
-1.7564417 -0.12648539 0.87384337 6.5
-1.666191 -0.14457008 0.58577174 6.25
0.84088361 -0.12238216 -0.79284048 6
1.1850954 -0.11782306 -0.71905708 6
2.1377978 -0.036101401 -1.3238177 7
-1.7705287 0.15038373 0.82913142 9.833333
-1.7705997 0.17200784 0.60406673 10
2.1450634 0.18934388 -1.2473507 9
2.1400199 0.20130074 -1.4856765 9
-1.7713827 0.50393188 0.84814179 14
-1.7751554 0.52414048 0.6033504 14
2.130856 0.62426376 -1.4770477 12.5
2.1272831 0.90577918 -1.5301003 14.666667
-1.7682053 -0.11876261 1.1792427 6.5999999
-0.64077747 -0.15129012 0.71601689 5
-0.45425475 -0.14806992 0.48030996 5
0.4640072 -0.13235174 0.1164968 5
1.4360654 -0.1146329 -0.62305307 6
2.1403527 -0.031175993 -0.8280952 7
-1.7672049 0.15610042 1.1693153 10
2.1420579 0.24250212 -1.0152102 9.6153851
-1.7729882 0.48728785 1.1626707 14
2.1353331 0.63585365 -1.0077558 13.285714
2.1310215 0.83442754 -1.0422266 15
-1.7716588 -0.12904514 1.6902353 6.5
-1.7653836 -0.12722732 1.4623154 6.5
-0.81973541 -0.15506592 1.107803 5
0.57423896 -0.13198419 0.31850243 4.5
0.88970518 -0.12672356 0.17604351 5
1.9154292 -0.089479268 -0.40104568 6.25
2.1443186 -0.028735867 -0.56446528 7
-1.7676007 0.152008 1.6753831 10
-1.7703143 0.15244371 1.4692223 10
2.1454046 0.23672244 -0.38688099 10
2.145205 0.20454171 -0.58839679 9.5
-1.7719806 0.47985324 1.6736791 14
-1.7699176 0.47872868 1.4628414 14
2.1416869 0.55300492 -0.39887142 13.5
2.1376114 0.58599192 -0.5893178 13.5
-0.88403857 -0.15875271 1.6292704 5
-0.88120556 -0.15710405 1.4607651 5
0.72829938 -0.12995972 0.55424505 4
1.0254583 -0.12750801 0.65850145 4
1.3599005 -0.1211797 0.40477788 5
2.1472378 -0.064094834 -0.05444181 6.5
-1.7671796 0.18832412 1.9131044 10.428572
-0.88416815 0.10191265 1.7924244 10.272727
2.1487298 0.21527514 -0.073589206 10
-1.7784182 0.48614171 1.8991451 14
2.1417346 0.55321282 -0.063579798 14.142858
0.46938521 -0.13596743 1.4920406 29
0.531829 -0.13490471 1.4566474 29
1.3189073 -0.12393282 0.91488695 4
1.6636552 -0.11779761 0.70692253 5
2.1408381 -0.053042673 0.5378471 6.5
2.1527233 -0.058263335 0.26560533 6.5
-0.75435913 0.10245195 1.7922765 10.5
-0.45350021 0.1167938 1.7891496 11.652174
2.1383893 0.24023876 0.49749088 10.857142
2.1508908 0.23095019 0.25873506 10.5
2.1447892 0.51360226 0.4404757 14.666667
2.1457791 0.49335018 0.24195862 14
0.053366572 -0.15480496 1.9540174 3
0.51514691 -0.13571374 1.5727849 21
0.5775907 -0.13465104 1.5373918 21
1.4431432 -0.12168966 1.1576332 4
1.7986618 -0.11508745 0.96703553 5
2.1237159 -0.048545834 0.87686741 6.5
2.1176109 0.21346508 0.87263232 10.809524
2.117712 0.4589186 0.77329814 14.571428
-0.0325948 -0.15557067 2.4800646 3
0.23180899 -0.14565094 2.4269197 4
1.4636338 -0.12574014 1.7154168 4
1.6992998 -0.12084278 1.4878771 4.5
2.0569725 -0.063382886 1.3121395 6.1428571
0.049489021 0.056048106 2.2957358 10
2.1172037 0.2114072 1.3263454 11
2.1179423 0.45002693 1.3172197 15
0.14329445 -0.14928 2.822257 5
0.46058112 -0.1448005 2.7391605 4.6666665
0.78305417 -0.13784535 2.4146528 4
1.1649394 -0.13152632 2.1946254 4
1.6014405 -0.12480468 2.0764689 4.6666665
1.8475968 -0.12019208 1.8191658 5
2.1179128 -0.048761338 1.5675764 6.5
2.119966 0.20990768 1.5693763 11
2.1187024 0.44677201 1.5707741 15
-0.23872632 -0.15967466 3.6954088 6
0.68396616 -0.14287324 2.8674889 5
1.0217501 -0.13676298 2.7626038 5
1.3406281 -0.13167082 2.5839517 5
1.5906736 -0.12615883 2.3329358 5
2.7956338 -0.10671388 1.8857462 6
-0.61940825 0.15754755 3.9224615 9.636364
-0.63253498 0.5198471 3.9254081 13.4
-0.43232387 -0.086571634 3.9182429 7
-0.1697405 -0.081399739 3.915864 7
0.21259719 -0.11396356 3.8509755 6.5
0.48189569 -0.14965308 3.806427 6
1.1405604 -0.12245421 3.4000845 6
2.5028558 -0.1145923 2.6504045 6
2.6525788 -0.11081682 2.3329041 6
-0.16522408 0.17721798 3.9180331 9.916667
0.1676082 0.17133242 3.9179511 9.8571424
-0.48247445 0.56655496 3.9230466 14
-0.21019793 0.54084408 3.921824 13.9
0.18498749 0.5370512 3.9197855 14
0.39247918 -0.07188157 3.916966 7
0.72919399 -0.086905822 3.8828902 6.75
0.99537235 -0.099833429 3.7748952 6.5
1.4415009 -0.12873846 3.4844422 6
1.7974739 -0.1285599 3.398066 6
2.0868669 -0.12347798 3.1722338 6
2.3197794 -0.11869949 2.9169109 6
0.36937982 0.18491139 3.9152291 10
0.69921863 0.19024917 3.9142499 10
1.0562621 0.19999707 3.9113045 10
0.37811458 0.53529489 3.9161386 14
0.69614482 0.5415343 3.9144995 14
1.070145 0.56024832 3.9137716 14
1.7663379 -0.057766981 3.9196317 7
1.2810946 0.16311395 3.9111278 9.5
1.5943487 0.16306897 3.9078178 9.363636
1.9597957 0.19222397 3.9032118 9.5
1.2531557 0.50045639 3.9139016 13.2
1.564916 0.55621588 3.912045 13.5
1.9750376 0.65194744 3.9016683 14
2.1464841 -0.055674512 3.9137459 7
2.5760636 -0.053848397 3.9033108 7
5.4123011 -0.03554 2.2719097 7
2.1877007 0.20477672 3.9064941 9.5
2.5859742 0.21129267 3.9033532 9.363636
5.4129643 0.22599526 2.2017365 8.5
2.1342831 0.59216201 3.906261 13.222222
2.576437 0.60562092 3.9062862 12.818182
5.4043736 0.61375654 2.2706766 10.714286
2.2763872 0.80787992 3.9038703 15
2.5769124 0.86405587 3.9086041 15
5.3955703 1.0796312 2.21755 13.333333
5.3930435 1.3880635 2.2799573 15
2.9574633 -0.052767955 3.8935688 7
3.3826957 -0.05222581 3.8960261 7
5.0016646 -0.042647708 3.1048286 7
5.4115849 -0.038086001 2.5644808 7
3.0201702 0.19261196 3.9030218 9
3.4602356 0.19699785 3.9017763 8.8571424
4.9725022 0.20720175 3.0967927 8.5
5.420073 0.22749352 2.869976 8.5
5.4167275 0.22642121 2.5562205 8.5
3.0025082 0.59164321 3.9084461 12.222222
3.3791747 0.64112294 3.9040923 12.2
4.9322715 0.53767234 3.0855565 10.5
5.4082279 0.58668506 2.869976 10.5
5.4079456 0.66993648 2.5703578 11
3.0341263 0.90212959 3.9073851 14.6
3.3763161 0.99348235 3.9058375 14.75
5.4031477 1.1376961 2.873734 13.5
5.4040146 1.055585 2.5820544 13.125
5.3952117 1.4200751 2.8741293 15
5.3920703 1.4042033 2.6287391 15
3.8967042 -0.052017502 3.8993487 7
4.8982787 -0.043678589 3.2116435 7
5.4150991 -0.042621087 3.0199533 7
3.9319487 0.24303597 3.9019413 9
4.2903519 0.26359338 3.899987 9
5.4124126 0.22805931 3.0413928 8.5
3.6275263 0.64735258 3.9037304 12
3.9092002 0.65650755 3.9026139 11.8
4.2157173 0.65227056 3.9036639 11.5
5.4109368 0.59145117 3.0446153 10.5
3.5956678 0.93025005 3.9065833 14
3.9674258 1.0055355 3.9058824 14
4.2435451 1.0209442 3.9078007 13.75
5.4008412 1.0499918 2.9875772 13
5.4164996 0.86152679 2.8749537 12
4.3209853 1.2467885 3.9034131 15
5.4013896 1.4301354 2.9915352 15
4.590095 -0.052156817 3.8938696 7
4.5658984 0.19607721 3.9023528 8.5
4.8384967 0.20857282 3.8985105 8.5
5.1914892 0.22456235 3.9027243 8.5
4.5230389 0.60940909 3.901948 11
4.8215499 0.64539534 3.9019074 11
5.2493615 0.63377303 3.8648396 10.666667
4.5220356 1.0342522 3.9072676 13.5
4.8685546 1.0470964 3.9057593 13.2
5.1731224 0.97216058 3.9027257 12.5
4.5105948 1.2929978 3.9039884 15
4.8179669 1.3687457 3.9025202 15
5.1610961 1.3563402 3.9013801 14.5
5.3556919 -0.052969877 3.8968108 7
5.3808799 0.23252219 3.825968 8.5
5.3778334 0.51812011 3.8279667 10
5.3731298 1.0030454 3.8533669 12.5
5.3606157 1.3965756 3.8304572 14.5
0.02997601 0.99499595 -9.4795656 10.1665
0.024247766 1.384058 -9.4820862 11.1665
0.018443704 1.7768689 -9.4851246 12.1665
0.012575269 2.1743839 -9.4880657 13.1665
0.081491351 0.54966277 -8.4386482 9.1665001
-1.762314 0.53100729 2.0216715 14.5365
0.70529485 0.6327855 3.9626477 15.0775
5.4442515 0.98112768 3.4634428 12.6095
5.4322171 1.3667487 3.4627614 14.6095
3.1686862 -0.17203286 2.131428 5
3.1628642 -0.18687508 0.88597518 5
3.1661589 -0.1405104 2.1329153 6
3.1651382 -0.15486912 0.88827884 6
5.4280629 -0.18141395 0.23276079 6
3.1532378 -0.16542432 0.69168907 6
5.4477272 -0.14560094 1.3696854 6
3.1620834 -0.10896345 2.1358829 7
3.1541595 -0.12396385 0.8781361 7
5.4293408 -0.13125154 -0.64196301 7
3.17098 -0.10905361 2.4128752 7
3.1527898 -0.12863033 0.69152558 7
5.4279704 -0.10375027 0.5067023 7
5.42523 -0.11870424 -0.14386535 7
5.4361315 -0.097367488 0.82509279 7
3.1673152 -0.07727728 2.1299417 8
3.1426816 -0.092103146 0.86752957 8
4.4908876 -0.058733847 -1.3913183 8
4.9865866 0.069230601 6.0500517 8
3.1757324 -0.070287868 2.4047794 8
3.172401 -0.074507661 2.2412741 8
3.1545823 -0.091581881 0.53545725 8
5.435308 -0.036182176 0.82423443 8
5.4496264 -0.01259423 2.5281439 8
5.439333 -0.025375657 1.861809 8
5.4624977 0.010113187 3.4746072 8
5.4299784 -0.038217187 -0.15122771 8
5.4269919 -0.037971962 -0.4604423 8
5.4370556 -0.037203487 0.56258565 8
3.1488287 -0.091925316 0.6870898 8
5.4569674 -0.0068732202 2.7778101 8
3.1622729 -0.045441691 2.1338258 9
3.1458406 -0.059778336 0.87066567 9
4.1081133 0.035929799 -1.4192691 9
4.9838171 0.23332007 6.049058 9
3.1533337 -0.034266155 0.053342581 9
3.1698225 -0.040130824 2.2430763 9
5.4169083 0.041543648 -0.140257 9
5.4406176 0.044950977 2.2797751 9
3.1439474 -0.056665368 0.74989235 9
5.445713 0.054446459 2.5256605 9
5.4727592 0.15549092 4.4695663 9
3.1517851 -0.05040139 0.53199685 9
5.4576364 0.10899876 3.6508694 9
5.4168301 0.068884447 -1.0655117 9
5.4302945 0.033806995 0.22528255 9
5.4577575 0.065824702 2.778595 9
5.4257736 0.056102514 -0.64404011 9
5.4341121 0.02807606 0.56281984 9
3.1601593 -0.013392255 2.1349018 10
3.1597004 -0.028660052 0.88384008 10
4.1062365 0.13892432 -1.4206686 10
4.4842997 0.14836796 -1.3817978 10
4.976871 0.39633626 6.0317669 10
3.1509199 0.021918058 0.049663663 10
5.4232049 0.12298428 -0.14924049 10
3.1471777 0.0017269999 0.35871315 10
5.4183602 0.18644141 -1.2450459 10
5.4389873 0.09098053 1.8608147 10
3.1444793 -0.021284662 0.7507866 10
5.4287367 0.090420499 0.65500426 10
5.4322042 0.085893378 0.85019279 10
5.4624958 0.19032405 3.4764235 10
3.1642437 0.0197597 2.1481805 11
3.1526237 0.0041603819 0.87737024 11
4.1044679 0.24270095 -1.4233055 11
4.9763913 0.56288433 6.0398226 11
3.1576779 0.023929037 0.62484992 11
3.1719909 0.046484932 2.4056118 11
3.1744115 0.10306191 2.8838742 11
5.4195948 0.15347393 0.65844834 11
5.4184332 0.22860365 -0.45916021 11
5.4489307 0.21086018 2.7720759 11
3.1534257 0.012912236 0.76105165 11
3.1585124 0.035461433 0.88306338 12
3.1639643 0.052332267 2.1474769 12
4.1019621 0.3463605 -1.4184954 12
4.9710016 0.72813714 6.0287123 12
3.1530647 0.063910708 0.61921906 12
3.1471837 0.11049084 0.239748 12
3.171777 0.085799575 2.4044311 12
5.4653521 0.51521093 4.4638548 12
5.4280739 0.19595511 1.3899486 12
3.169487 0.15873337 2.8915966 12
3.1535418 0.048205182 0.7614814 12
5.4240689 0.22492047 0.56420511 12
5.4125805 0.41131359 -1.244916 12
5.4596162 0.36514759 3.4182489 12
5.4437313 0.25846827 2.5243344 12
5.4513483 0.29395092 2.8511133 12
5.4266491 0.25185114 0.22238815 12
4.1014004 0.4545272 -1.434165 13
3.1621134 0.088431224 2.1669245 13
4.9679756 0.8966139 6.0269814 13
3.1546786 0.10682501 0.59519911 13
3.1459792 0.14300162 0.35940301 13
5.4090214 0.4744426 -0.91312766 13
5.4518294 0.45410556 3.410027 13
5.4380393 0.28202552 2.0601602 13
5.446969 0.37496263 2.8875446 13
5.4165916 0.37479186 -0.19816256 13
5.4276733 0.2856043 0.65134317 13
5.4340997 0.25864226 1.1758684 13
5.4345064 0.273323 0.84563023 13
3.1579351 0.1235522 2.170084 14
4.0997043 0.56265247 -1.4383941 14
4.4816422 0.57779527 -1.4095228 14
4.9686785 1.0712225 6.0401182 14
3.1471205 0.21316929 0.24195528 14
3.1520019 0.14844698 0.59208411 14
5.4250607 0.31290019 1.3886107 14
5.4489527 0.40024018 2.5275552 14
5.4496603 0.55646574 3.4647398 14
5.440773 0.36756271 2.2788327 14
5.4461842 0.45340705 2.887166 14
5.4127064 0.58234531 -0.92296481 14
5.4561787 0.50141281 3.1589084 14
4.9635458 1.2430605 6.0303993 15
3.1410267 0.24190067 0.35287857 15
5.4400201 0.52379751 2.8425148 15
5.4278636 0.43934745 0.49407566 15
5.4336176 0.40774125 2.0579319 15
5.423625 0.37777805 1.1761053 15
5.446815 0.58488435 3.1500182 15
5.4043818 0.7205978 -1.0725541 15
5.4515581 0.69359571 3.6500025 15
5.414927 0.54718632 -0.20181513 15
5.4399242 0.37759525 1.3632809 15
5.054985 -0.093602538 6.036458 7
4.6444573 -0.099539086 6.0298996 7
4.8453732 0.14705943 6.0394163 8.5
4.5424948 0.13963234 6.0400734 8.5
4.2220984 0.2121395 6.0410748 9
3.3306689 0.1646996 6.0521278 8.8000002
2.8967285 0.11127926 6.0575819 8.5
2.6209142 0.10859415 6.0632639 8.5
4.8387094 0.55668855 6.03862 11
4.5358839 0.54434508 6.0399389 11
4.2498827 0.53523827 6.0466022 11
3.2850821 0.5195114 6.0526428 11
2.8890359 0.52018112 6.0538692 11
2.6136227 0.52306348 6.0570936 11
4.8301497 0.9734903 6.0296183 13.5
4.527061 0.95526963 6.0270891 13.5
4.2474136 0.9447003 6.0380278 13.5
3.2835455 0.92984921 6.0429087 13.5
2.8808508 0.93768877 6.0512934 13.5
2.6073089 0.94450349 6.0466499 13.5
4.8237233 1.2286549 6.0192232 15
4.5230384 1.2105983 6.0285416 15
4.2265978 1.1968054 6.03584 15
3.2784743 1.1845137 6.0446672 15
2.8758488 1.1951389 6.0489798 15
2.6017189 1.2057674 6.0467634 15
5.3042011 -0.086617604 5.208118 7
5.4578705 0.2020518 5.267427 9
5.4464736 0.58346885 5.2282 11.666667
5.471406 0.97210008 5.2734222 14.2
5.4825954 0.17795359 4.8460755 9
5.4742184 0.57577747 4.8499866 12
5.4687147 0.91770095 4.8530045 14.5
5.4847965 -0.082153112 4.5889764 7
5.4812884 0.14845446 4.3404589 9
5.4771147 0.19184752 4.4326248 9.333333
5.4709158 0.57235581 4.434515 12.5
5.4652195 0.84839606 4.4740782 14.666667
5.4795341 -0.080494925 4.0333414 7
5.478117 0.14616945 4.012435 9.166667
5.4713516 0.20899852 4.0448484 9.7142859
5.4688778 0.59024692 4.0211329 13.285714
5.4630408 0.63830322 4.0491447 13.666667
5.4618125 0.79597491 4.0818224 15
5.4758606 -0.079472266 3.5494871 7
5.4623556 -0.079759002 3.6547558 7
4.8549685 -0.1666631 3.5954134 6
4.5152526 -0.17140067 3.7342279 6
3.1824546 -0.11303482 3.5219126 7
5.4698348 0.15730816 3.6506574 9.5
3.1782231 0.12232961 3.6551654 10
5.4646616 0.54343605 3.6361835 13.5
5.456449 0.59970295 3.6916823 14
3.1723018 0.44585234 3.6600971 14
5.4683638 -0.079192676 3.2693741 7
5.2810292 -0.16244963 3.3332882 6
3.1798615 -0.11203414 3.2894564 7
5.4652519 0.17368619 3.2600679 10
5.4582701 0.033957265 3.2767024 8.333333
3.1740122 0.12270749 3.2999136 10.5
5.463222 0.51938218 3.246103 14
3.1711593 0.3819257 3.330442 14.2
5.4681206 -0.11721134 2.8957143 6.5
4.4120774 -0.18453744 2.7676046 5
4.1901522 -0.18803918 2.8582623 5
3.1854467 -0.14740632 2.8582921 6.25
5.461535 0.16416912 2.8492179 10.272727
3.170511 0.12085612 2.9128423 11.25
5.4568563 0.45319158 2.8684049 14
3.1656995 0.34122199 2.9466116 15
5.4631577 -0.11367296 2.5027344 6.5
4.8316336 -0.1804146 2.4553914 5
4.4550076 -0.18926051 2.4479558 3.6666667
4.1493797 -0.19698714 2.4741292 3
3.1969154 -0.166673 2.4814367 5.5
5.4580789 0.15409739 2.4679706 10.5
3.1673789 0.084067017 2.5207376 11.529411
5.4546118 0.42831486 2.459178 14.5
5.4594069 -0.11213759 2.0783224 6.5
5.1188369 -0.18058932 2.0162446 5
4.8573174 -0.18570727 2.1084173 4
4.5468178 -0.19295309 2.2171426 3
3.1716764 -0.15951559 2.2231092 5.5
5.4541054 0.14751531 2.0567226 10.769231
3.1669097 0.05164884 2.2278585 11.666667
5.4525995 0.39582497 2.0978208 14.666667
5.4543352 -0.11384316 1.6693301 6.5
5.2019391 -0.18285 1.6939597 5
4.7938013 -0.19356456 1.6951888 3
3.858984 -0.2072129 1.5504609 29
3.7872298 -0.2085132 1.5520959 29
5.4498301 0.14641528 1.6587244 11
5.4457188 0.38499409 1.6697038 15
5.4481606 -0.11874564 1.2740812 6.5
5.2097335 -0.18804252 1.3093926 5
4.7937922 -0.1944606 1.3360195 4
3.8568907 -0.20835875 1.4576808 21
3.7851365 -0.20965904 1.4593158 21
5.4464717 0.14237833 1.275259 11
5.4415402 0.38105643 1.2619601 15
5.4466605 -0.12798986 0.83742857 6.5
5.0801201 -0.19567409 0.88421255 5
4.8264256 -0.19924012 0.86836571 4.5
4.5140328 -0.20635489 0.79476255 4
3.1610286 -0.17607564 0.80747598 5.5
5.4438634 0.13496403 0.86793458 10.769231
3.1526933 0.038916111 0.81623256 11.888889
5.4375949 0.3716833 0.83877772 14.5
5.4476137 -0.13766187 0.48849881 6.5
4.7997627 -0.20534036 0.50258422 5
4.4418902 -0.21263564 0.47176778 4.5
4.0208683 -0.21880263 0.53483176 4
3.6287234 -0.22606239 0.53406644 4
3.1742079 -0.18314534 0.53254402 5.7142859
5.4405184 0.13237178 0.46718287 10.5
3.146996 0.056830779 0.52621883 11.529411
5.4351926 0.40929407 0.46954012 14.5
5.4407382 -0.15100524 0.080465794 6.5
4.4057164 -0.21529934 0.23652279 5
4.0695934 -0.22289269 0.12972856 5
3.6077313 -0.23193692 0.11995065 5
3.1725836 -0.18298341 0.15930533 6.1999998
5.4356513 0.13171935 0.07817018 10.25
3.1430368 0.084771812 0.12676919 11.25
5.4284682 0.43729371 0.05393064 14.142858
3.1366453 0.30396187 0.078056693 15
5.4336901 -0.12364148 -0.3445102 7
5.2391443 -0.20694506 -0.34772885 6
3.1447127 -0.17592214 -0.25343966 6.6666665
5.4317932 0.13370317 -0.33825314 10
3.1403794 0.078789294 -0.2810837 10.5
5.4254117 0.46295869 -0.36916542 13.714286
3.1344023 0.33938169 -0.32221925 14.2
5.4323549 -0.13416734 -0.75364256 7
4.8069267 -0.21810846 -0.60993099 6
4.4183292 -0.22754358 -0.76520157 6
4.0543666 -0.23461626 -0.82441473 6
3.5859621 -0.2431888 -0.82174468 6
3.1853828 -0.20686415 -0.69767857 6.5
5.42627 0.10824466 -0.74951863 9.5
3.1352239 0.072059542 -0.66051292 10
5.4190459 0.50341141 -0.75358033 13.5
3.1290574 0.41139919 -0.67398524 14.142858
5.43332 -0.14070284 -1.0025682 7
3.1360765 -0.17452262 -0.94275165 7
5.4227004 0.12483354 -1.1214285 9.5
3.1326983 0.053775981 -1.0532818 9.5
5.4147477 0.53833687 -1.1209767 13.285714
3.1252332 0.44282746 -1.0880587 13.555555
5.4087934 0.7509234 -1.2089956 15
5.425787 -0.15527844 -1.538497 7
4.1116586 -0.16909358 -1.4145682 7
3.1306486 -0.19503446 -1.6476769 7
5.4193277 0.085164398 -1.5467188 9
4.3646245 0.091879129 -1.362869 9.5
4.0711346 0.092102811 -1.5095601 9.5
3.1256464 0.081602663 -1.5495858 9.5
5.4115596 0.50826615 -1.5289621 12.5
4.3571672 0.4551 -1.3667047 13
4.0641522 0.46822369 -1.5138869 13
3.1185536 0.47102529 -1.5541677 13
5.4087877 0.7831921 -1.5512638 14.666667
3.1164465 0.69823527 -1.5476182 15
5.4139972 -0.16611597 -1.9261413 7
5.4133425 0.098694846 -1.9352012 9
3.12219 0.040342286 -1.901355 9
5.4060636 0.49951923 -1.9287205 12
3.1169567 0.46959859 -1.893501 12.5
5.3990059 0.84469312 -1.9428043 14.5
3.1084528 0.7888028 -1.9102225 15
5.4081583 0.11325485 -2.345082 9
3.1199558 0.051324889 -2.179173 9
5.401494 0.52113885 -2.3215318 11.8
3.1113071 0.44969684 -2.1909397 12
5.3947058 0.89021659 -2.3718669 14.2
3.1071486 0.78804314 -2.1841233 14.5
5.4063635 0.12541617 -2.6762822 9
3.1162462 0.064316377 -2.5106709 9
5.3998561 0.5194639 -2.682946 11.5
3.1099167 0.4950496 -2.5067446 12
5.3897495 0.88480669 -2.6603625 13.8
3.1022899 0.865565 -2.5158546 14.5
5.3847466 1.1072761 -2.7684233 15
5.4087286 -0.19786465 -3.051626 7
5.4019871 0.054738984 -3.0484178 8.5
3.1135304 0.079739481 -2.8949344 9
5.3967681 0.47930014 -3.0610693 11
3.1044891 0.47342879 -2.9109271 11.5
5.3869524 0.91130072 -3.0608451 13.5
3.0988262 0.87494183 -2.9050076 14
5.3823996 1.1781574 -3.0648701 15
3.1127734 -0.24594519 -3.3802783 7
5.4008865 0.064349383 -3.5033944 8.5
3.1094065 0.012271658 -3.3738868 8.5
5.3906536 0.4316836 -3.4969976 10.5
3.1007652 0.44630778 -3.3836462 11
5.3854332 0.85830528 -3.4854281 12.8
3.0949371 0.88563216 -3.3734562 13.5
5.3757267 1.2281189 -3.5467327 14.666667
3.0871286 1.1623886 -3.395488 15
5.3960981 0.072341487 -3.8856871 8.5
3.1018825 0.025827721 -3.9733522 8.5
5.3873391 0.46582556 -3.8851836 10.5
3.0952935 0.41322339 -3.9739282 10.5
5.3790398 0.86471516 -3.8866556 12.5
3.0890784 0.80488235 -3.9710977 12.5
5.3722515 1.2748132 -3.8941195 14.5
3.0803266 1.209703 -3.9859664 14.5
5.3968925 -0.23946972 -4.4969244 7
5.3901291 0.08173646 -4.3312864 8.5
3.3132992 0.035987683 -4.275198 8.5
3.189023 0.03385821 -4.26653 8.5
5.3833094 0.50629407 -4.3398924 10.5
3.3066664 0.44187301 -4.2705832 10.5
3.1814983 0.44105822 -4.2716284 10.5
5.3778896 0.89194614 -4.2954493 12.333333
3.2986054 0.85520017 -4.2808428 12.5
3.1741266 0.85427535 -4.274478 12.5
5.3669949 1.2622174 -4.3399744 14
3.290343 1.2796929 -4.2911959 14.5
3.1654668 1.2795334 -4.2872648 14.5
5.3617849 1.5285736 -4.5081234 15
3.2978082 -0.04872144 -7.403266 8
3.3852444 0.42062032 -7.4043293 9.5
3.1615248 0.41739601 -7.4044218 9.5
3.3767247 0.89113277 -7.406951 11
3.1531849 0.88845938 -7.4056997 11
3.3709154 1.2082813 -7.4110718 12
3.1462774 1.2080328 -7.4236956 12
3.364737 1.5299537 -7.4206057 13
3.1411519 1.5277216 -7.4172373 13
3.3590961 1.853631 -7.4173689 14
3.1338081 1.8571488 -7.4388456 14
5.0491576 0.15197621 6.0289135 8.507
5.3922501 0.75354022 6.0179386 12.009
5.0433989 0.56535673 6.0307484 11.007
5.3895617 1.0149766 6.0208578 13.509
5.0334826 0.98487598 6.0176697 13.507
5.3889818 1.2840633 6.0300903 15.009
5.0336227 1.2498156 6.0328999 15.007
5.1143284 0.18515207 5.2033949 9.0089998
5.1053219 0.45936203 5.1888351 11.009
4.8649826 0.4697181 5.3708596 11.007
3.1650655 0.099198475 2.4335177 12.343683
5.4651599 0.45148861 2.6054978 14.5275
3.1612201 0.12678508 2.2915616 13.6595
5.4381008 0.023953624 1.1794469 9.0500002
3.1425033 0.13939209 0.55227029 13.678499
3.9187765 -0.044279456 -6.1604719 8.0889997
3.9112885 0.35760677 -6.1579037 9.5889997
3.9175887 0.90136284 -7.4179564 11.089
3.9116988 1.2177564 -7.4163198 12.089
3.9057217 1.5367306 -7.4116592 13.089
3.8997755 1.8619162 -7.4182463 14.089
-1.2916498 0.026042309 1.684471 5
-1.2885554 0.060860176 1.6836114 6
-2.381742 -0.061008744 0.13895273 6
-2.6869385 -0.033405595 0.75229192 6
-2.8720174 -0.053572476 0.6622411 6
-3.0493116 -0.072936781 0.58384478 6
-1.3852057 0.052532904 1.4178897 6
-2.6047564 -0.041772984 0.56365681 6
-2.4989469 -0.048810601 0.38422894 6
-1.3632371 0.058080968 1.5773423 6
-0.84279323 0.14386484 3.9250817 7
-2.6902318 0.0018399023 0.74793077 7
-3.4250743 -0.056349471 0.39004135 7
-2.8742919 -0.012392133 0.66089916 7
-1.3971956 0.085527316 1.4339974 7
-2.6273909 -0.00030016154 0.60835588 7
-3.8224626 -0.055371188 1.1765585 7
-2.5165789 -0.0026739985 0.40470803 7
-0.57984567 0.14785381 3.335834 7
-3.5429869 -0.05789078 0.54913628 7
-3.8934071 -0.056475937 1.3024671 7
-1.2863476 0.13094544 1.6818893 8
-1.5110743 0.25408947 5.275754 8
-1.7688329 0.070024289 -1.1841744 8
-6.0349665 0.064928673 5.6276965 8
-2.6921914 0.03739249 0.74668479 8
-3.4632359 0.0024263673 0.38657677 8
-2.6256428 0.039325543 0.61918902 8
-1.3624922 0.12327284 1.5752788 8
-2.5322456 0.042247385 0.43217897 8
-3.881176 0.0012709871 1.2804822 8
-4.773407 0.021096386 3.0760455 8
0.0021953583 0.23069337 2.1434195 8
-4.6044531 0.015867732 2.731534 8
-1.2521728 0.24587363 4.7304063 8
-0.081713438 0.2303125 2.3283262 8
-0.8734901 0.23654258 3.9533429 8
-1.8126614 0.17002645 -1.2080845 9
