# .PCD v0.7 - Point Cloud Data file format
VERSION 0.7
FIELDS x y z intensity
SIZE 4 4 4 4
TYPE F F F F
COUNT 1 1 1 1
WIDTH 1212
HEIGHT 1
VIEWPOINT 0 0 0 1 0 0 0
POINTS 1212
DATA ascii
-6.0294766 -0.5611704 -8.4842815 7
-5.8481216 -0.5013988 -8.4529467 7.5
-5.8358097 -0.21327065 -8.4434013 9
-6.1589031 0.27514881 -8.4185085 11
-5.8571095 0.16365728 -8.4461269 11.025
0.082994819 0.20134135 -8.4597454 8
-6.1735353 0.59591317 -8.4245558 12.5
-5.8734784 0.55756503 -8.4505405 13.114285
-0.90316272 0.59863371 -8.7135239 9.375
-0.063190527 0.4569656 -8.518259 9.0591669
0.044998541 0.49681586 -8.4564886 9.08325
-6.1930208 1.0392923 -8.4570847 14.5
-5.9045887 0.95125043 -8.4562807 14.75
-0.90458393 1.0368787 -8.713603 10.75
-0.90469009 1.3603094 -8.7034159 11.75
-0.90751827 1.7354277 -8.7110538 12.875
-0.90967691 2.1152201 -8.7124863 14
-6.2189293 -0.50802809 -8.0370817 7.3333335
-5.7864866 -0.46314198 -8.1390953 7.25
-5.4469233 -0.5189001 -8.2214251 7
-4.9801698 -0.51316535 -8.1258125 7
-4.7309098 -0.52414006 -8.0499582 7
-6.149241 -0.20942377 -8.1532202 9.7380962
-5.8523583 -0.20361757 -8.1581726 9.9155264
-5.4596133 -0.1986507 -8.1661053 8.9444447
-5.0008755 -0.23010704 -8.1315002 8.625
-4.6043415 -0.19564508 -8.020319 8.6333332
-6.1172171 0.15856543 -8.1787395 12.357858
-5.8262367 0.17360616 -8.1898909 12.697369
-5.4338636 0.20033085 -8.1849184 11.577778
-5.0206971 0.18293296 -8.1364708 11
-4.6241341 0.18191744 -8.0262547 10.666666
-6.1367598 0.588153 -8.2016201 13.983335
-5.8209686 0.53369737 -8.2070866 14.333333
-5.4316673 0.60969526 -8.231883 13.5
-5.0407915 0.58691585 -8.1428671 13.25
-4.6405115 0.61035007 -8.0359001 12.916666
-1.0881698 0.57311118 -8.090683 9
-6.2147012 0.95445204 -8.219142 14.833333
-5.7325468 0.93081725 -8.1675472 14.75
-5.5190887 0.96456945 -8.2280035 14.8
-5.0513744 0.98572874 -8.1709757 14.633334
-4.6834683 0.97472179 -8.0459032 14.75
-1.0894108 0.94103944 -8.0775566 10
-1.0930269 1.3118675 -8.0754833 11
-1.092099 1.6821185 -8.0505276 12
5.2868757 1.9518635 -8.013751 14.0845
-1.1274807 2.0319526 -8.0656538 13
5.2848272 2.2727876 -8.02742 15.0845
-6.164865 -0.52513295 -7.7981176 6.7833338
-5.8237524 -0.48547351 -7.8549089 7.0625
-5.4322715 -0.45612904 -7.8810754 6.9523811
-5.0076761 -0.43677503 -7.7209716 6.6607141
-4.5278459 -0.45502678 -7.8405776 7
-4.3071485 -0.47824001 -7.8487415 7
-3.929369 -0.45625201 -7.6998606 7
-6.1262798 -0.20363091 -7.8246336 10.795784
-5.8810787 -0.23382486 -7.9296732 10.724638
-5.413332 -0.17800823 -7.8503885 10.729762
-4.9828801 -0.17118801 -7.7503695 10.166835
-4.6582847 -0.15644476 -7.709713 9.7821541
-4.2786746 -0.20944905 -7.8607941 8.6111107
-3.8892989 -0.19608168 -7.6841936 8.6999998
3.432169 -0.031015277 -7.6436567 8
-6.4394574 0.38048235 -7.6141987 12
-6.2011371 0.11312361 -7.8155856 13.093796
-5.8538308 0.057954293 -7.9165649 14.458333
-5.4008842 0.11256512 -7.8826613 13.770833
-4.9929919 0.18367165 -7.7816219 13.719048
-4.6572495 0.18519996 -7.7296133 13.215302
-4.2874761 0.2348247 -7.7396889 11.175926
-3.9065347 0.23797339 -7.6936283 11.5
3.8889427 0.09872102 -7.7748733 8.0593338
4.1633272 0.27195734 -7.9297447 8
-6.4583783 0.59090674 -7.6537962 14.5
-6.2362967 0.47829062 -7.8366151 13.9
-5.3901138 0.55361253 -7.9829369 14.15
-5.0204067 0.62810808 -7.8712859 14.366666
-4.5610771 0.60033983 -7.7696238 14.425
-4.2992935 0.65981472 -7.8112841 13.791667
-3.917222 0.6287446 -7.6938114 13.95
-0.89567107 0.5436669 -7.7289009 9.5
3.1683793 0.43335873 -7.6487322 9.5
3.4612744 0.45618665 -7.7870588 9.2989998
3.8539646 0.52971131 -7.8041229 9.4306669
-6.4507656 0.90028077 -7.695076 14.75
-6.3963799 0.93909013 -7.8659163 15
-5.1003571 0.97069854 -7.9556637 15
-4.3728218 0.99437124 -7.9395275 14.75
-3.9849284 0.93720853 -7.7846422 15
-0.89596111 0.95461088 -7.7313714 11
3.1600499 0.90527093 -7.6563225 11
3.453464 0.85929263 -7.7992573 10.549
3.9276886 0.91525841 -7.6442051 11.089
-0.89586669 1.3710808 -7.7307591 12.5
3.1519315 1.3834338 -7.6594591 12.5
3.3756251 1.3853638 -7.6611729 12.5
3.9194379 1.3929825 -7.651989 12.589
-0.89575863 1.7944199 -7.7299352 14
3.1436377 1.8694381 -7.6632442 14
3.3680973 1.8675766 -7.6499176 14
3.9108403 1.874856 -7.6421795 14.089
-1.0557836 2.078985 -7.991715 13
5.3282194 2.4495394 -7.6116476 14.1095
-6.4542756 -0.47644049 -7.3365755 7.5
-6.2730117 -0.52333069 -7.3985128 6.79321
-5.7679267 -0.54024762 -7.4804258 5.75
-5.416801 -0.5088132 -7.5025272 5.75
-4.8745985 -0.47617054 -7.4434152 5.5999999
-4.5699773 -0.43498015 -7.434679 6.0666671
-3.9396257 -0.41826624 -7.230391 7
-3.3897431 -0.40154287 -7.4371328 7
-2.1386378 -0.46706572 -7.2393875 7
-6.4482131 -0.17889985 -7.3994513 11.733333
-6.2774315 -0.19263968 -7.4151573 11.382454
-4.4971333 -0.17300306 -7.5592008 10.08661
-4.2152147 -0.19900474 -7.4691477 8.9499035
-3.7877738 -0.16484252 -7.3175492 8.8197479
-3.511797 -0.20233808 -7.2460747 7.8813777
-2.1837642 -0.14174733 -7.2493143 8.5
2.3100424 -0.18691388 -7.2074575 3
3.2978082 -0.04872144 -7.403266 8
-6.5026536 0.1382629 -7.3717294 11.145238
-6.2798076 0.11975988 -7.4606133 13.232143
-4.5665097 0.10849079 -7.5649886 14.4375
-4.1525512 0.12996076 -7.4499521 13.451117
-3.8138518 0.15792629 -7.3410649 13.56265
-3.5334873 0.17032382 -7.2662392 12.79985
-2.1347687 0.30600923 -7.2384639 10.5
-6.52806 0.56162101 -7.4038148 13.75
-6.3153787 0.43092644 -7.4327793 14.833333
-4.3041615 0.51041818 -7.5363579 15
-3.8909583 0.56080884 -7.4596472 13.766667
-3.5287938 0.57110721 -7.3321357 14.185715
-3.1345613 0.57876217 -7.4569654 9
-2.2446845 0.60889667 -7.2441344 10.75
-1.0275426 0.51688391 -7.4122219 9
3.1615248 0.41739601 -7.4044218 9.5
3.3852444 0.42062032 -7.4043293 9.5
5.539495 0.5176174 -7.4903998 9
-6.5603023 0.88768351 -7.3620777 15
-3.1291153 0.9651528 -7.4412661 10
-2.4145586 1.0162964 -7.2686048 11
-2.2186821 0.98887283 -7.2468953 12.666667
-1.0299813 0.96271682 -7.39712 10.333333
3.1531849 0.88845938 -7.4056997 11
3.3767247 0.89113277 -7.406951 11
3.9175887 0.90136284 -7.4179564 11.089
5.5315323 1.0096363 -7.5065799 10.5
-3.1296494 1.3543824 -7.4378834 11
-2.4312754 1.3136126 -7.2930722 12
-2.2397449 1.3156477 -7.2538886 14
-1.0331278 1.4700505 -7.383059 11.833333
3.1437147 1.3678772 -7.4204664 12.5
3.3678262 1.3691175 -7.4158387 12.5
3.9087102 1.3772435 -7.4139895 12.589
5.5328426 1.5147616 -7.5697455 12
-3.1389987 1.7498937 -7.4526129 12
-2.4542499 1.7605388 -7.2850289 13.5
-2.3340847 1.7582735 -7.2470813 13.5
-1.0364617 1.8715466 -7.3751941 13
3.1338081 1.8571488 -7.4388456 14
3.3590961 1.853631 -7.4173689 14
3.8997755 1.8619162 -7.4182463 14.089
5.4270039 1.8703997 -7.5819759 12.80475
-3.1350205 2.1450865 -7.4398451 13
-2.4782283 2.2173901 -7.2870708 15
-2.3580976 2.2133996 -7.2511077 15
-1.0546386 2.2089229 -7.3752737 13.8592
5.5160675 2.1916854 -7.5634379 14
-6.5031028 -0.51961648 -6.9207535 6.7842855
-6.2911558 -0.54349363 -7.050004 5.833333
-5.787261 -0.54991424 -6.9763527 5
-5.4346099 -0.50940955 -7.0253358 4.8333335
-4.999053 -0.47861552 -6.9391394 4.375
-4.528614 -0.45366254 -7.1080513 5
-4.2634621 -0.43522823 -6.8911815 5.666667
-3.9530571 -0.42361894 -6.9783525 6
-2.0032988 -0.44392985 -7.191144 7
-1.7026265 -0.4308843 -7.0792418 7
-1.5006039 -0.40285838 -7.0050812 7
-6.5081968 -0.21142219 -6.9545856 12.148129
-6.3686461 -0.19738513 -7.1634674 11.596463
-4.4431047 -0.39584279 -6.9853115 5
-4.0644274 -0.28503296 -7.0051484 7.2464581
-3.8879645 -0.22171429 -7.0461035 7.772222
-3.335845 -0.1711266 -7.1155648 8.0293407
-3.0096607 -0.14417057 -7.0216813 8.1075153
-2.5901349 -0.13651508 -6.8962727 7.3613319
-2.2487392 -0.11710051 -6.8971033 7.6374998
-1.7882304 -0.0744766 -7.1072106 8.5
-1.38464 -0.14780112 -6.9582667 8.0571432
-1.0307069 -0.15882976 -6.8231139 8
2.6349893 -0.16987367 -6.8673906 3
3.3505454 -0.21852517 -7.0805826 7
3.8532979 -0.212024 -7.102447 7
-6.526823 0.12713888 -6.9889412 12.81111
-6.3776588 0.066004694 -7.1708198 13.857143
-3.3564165 0.19135073 -7.1465712 13.660714
-3.0064142 0.15684931 -7.0401196 11.889314
-2.5968373 0.17081988 -6.883975 12.164878
-2.2943983 0.13273875 -6.9473333 9.6444445
-1.8134273 0.18943536 -6.98528 9.375
-1.411872 0.33280054 -6.9643598 10.444444
-0.99381584 0.2313824 -6.8748899 9.0380955
-6.6403337 0.5716061 -6.9829001 14.186666
-3.2156422 0.56011784 -7.0868464 15
-2.9922612 0.55968761 -7.045558 13.558974
-2.5560739 0.50624841 -6.9587121 13.05463
-2.2215841 0.55760425 -6.9177728 12.638571
-1.8112767 0.58922619 -6.9955444 11.348484
-1.456628 0.63231504 -7.0194068 11.083333
-1.0068964 0.59453386 -6.8627658 10.2
-6.6890101 0.92599976 -7.1101313 15
-2.99755 0.97609031 -7.0230117 10
-2.5067506 0.89205664 -7.0916443 13.966667
-2.1855466 0.87997216 -6.989656 13.666666
-1.8045721 0.98713458 -7.0034518 13.270833
-1.416903 1.003108 -6.9940772 12.783333
-1.0089828 1.0292839 -6.8531199 12.240741
5.5146122 1.0950913 -6.8196273 11
-3.0027037 1.3612643 -7.0312319 11
-2.4923291 1.3766942 -7.1323528 14.25
-2.1788311 1.3321246 -7.0716672 14.5
-1.8326895 1.3781689 -6.9990735 14.75926
-1.4420216 1.357321 -7.0034113 14.142858
-1.0084788 1.3631561 -6.8443933 13.65
5.5132747 1.4064996 -6.846252 12
-2.9995031 1.7476399 -7.0239902 12
-1.6038804 1.6056659 -7.1803751 13
-1.273356 1.6007473 -7.0114403 13
-0.95936775 1.701514 -6.8573861 13.7
5.5120459 1.7233354 -6.8739457 13
-2.9999766 2.1391525 -7.0228853 13
-1.6048522 2.0380921 -7.1864405 14.333333
-1.2971008 2.0812526 -7.0275326 14.5
-1.056206 2.2631581 -6.8105149 14.5
5.5018482 2.2018652 -6.8775973 14.5
5.6748757 2.3099663 -6.8199301 14
-6.6084847 -0.49611667 -6.5592446 7.1041665
-6.0981531 -0.5653283 -6.6502275 4.5
-5.7539001 -0.55462974 -6.7182655 5
-5.3152075 -0.52304012 -6.5754952 5
-4.9180231 -0.50114906 -6.5989866 5.5
-4.5962286 -0.42665061 -6.5969615 4.5
-4.0486236 -0.40751967 -6.5149517 5
-3.7236421 -0.40261313 -6.6272078 6
-6.8277073 -0.23387256 -6.4766564 8.75
-6.6160274 -0.24146169 -6.5688205 12.059004
-4.4821854 -0.39443821 -6.6520004 4.5
-4.2110014 -0.37322652 -6.6657753 4
-3.7618623 -0.34205538 -6.5571022 5.5
-3.3404913 -0.3296932 -6.623579 5
-2.9720349 -0.27022374 -6.6481133 5
-2.4484441 -0.088081859 -6.7604814 7.75
-2.2399175 -0.100536 -6.6974688 7.2054319
-1.8349122 -0.097552225 -6.5792866 6.5653591
-1.4591732 -0.077946432 -6.4782157 6.7901235
-0.94819719 -0.15633015 -6.6553779 7.5
2.7474918 -0.16186197 -6.5912037 3
3.426784 -0.1640684 -6.5935912 7
3.9307425 -0.15647569 -6.5748215 7
-6.8601747 0.17641565 -6.4954438 11.25
-6.6289463 0.18922728 -6.6501355 13.625
-2.4289286 0.11359081 -6.7669144 13.2
-2.1789296 0.15729226 -6.7000532 12.187825
-1.8047339 0.14051355 -6.5829544 10.989285
-1.4337556 0.16362897 -6.4699435 10.529129
-0.98795784 0.21115069 -6.5893927 9.1904755
-0.12175643 0.013406962 -6.4828711 8.5
0.0090491772 0.023991175 -6.4379048 8.5
-6.8724284 0.54703909 -6.4734063 13.828571
-6.7535896 0.52993464 -6.6213579 14.25
-2.876802 0.61452496 -6.6590157 9
-2.4092653 0.7773236 -6.7964878 14.2
-2.1566935 0.55983096 -6.7368135 13.288645
-1.7696025 0.55030811 -6.5908861 13.639999
-1.3808244 0.50309175 -6.502552 12.424603
-1.0011836 0.60592639 -6.6223693 11.125
-0.091401756 0.43461144 -6.4696321 10.5
5.5189919 0.63698727 -6.7914977 9.5
5.6658878 0.59671301 -6.7331438 9
-6.8677559 0.93544769 -6.6400843 15
-2.878962 0.99326122 -6.6637392 10
-2.0308022 0.84481627 -6.6872826 14.5
-1.7160898 0.85690469 -6.6523037 14.65
-1.3563647 1.0152054 -6.531939 13.7
-1.0137961 0.99568373 -6.6288686 12.757577
-0.73738229 1.158673 -6.7189345 14.0365
-0.1205065 0.85727608 -6.480546 12.5
5.3091817 0.9748686 -6.4033279 11.5
5.6747179 1.1023946 -6.7822447 10.5
-2.8737454 1.372889 -6.6557817 11
-1.3268718 1.4502618 -6.6861506 14.583334
-1.0034554 1.3951758 -6.6710448 14.067312
-0.54884899 1.3673751 -6.595932 14.7643
-0.14784247 1.3000675 -6.4886928 14.5
-2.8735847 1.7567436 -6.6565285 12
-1.0617764 1.7766705 -6.6093569 13
5.2994256 1.7405447 -6.41326 14.5
5.6729879 1.7838926 -6.7965903 12.5
-2.8799567 2.1474676 -6.6685257 13
-1.0603809 2.1028497 -6.5878849 14
-6.8696809 -0.5139032 -6.0854516 7.3333335
-6.715425 -0.50649661 -6.1769133 6.8244448
-6.141511 -0.56815898 -6.2894926 4
-5.7536349 -0.53953999 -6.2336187 4
-5.2934937 -0.48672661 -6.1223602 20.933334
-4.9636064 -0.46044394 -6.2708321 5
-4.6066113 -0.44480467 -6.164031 15.138587
-4.2027631 -0.4191885 -6.2502275 5
-6.8654513 -0.23506665 -6.0819039 10.333333
-6.7283716 -0.2707648 -6.2098608 12.206061
-3.8354466 -0.35418698 -6.1756973 4.6666665
-3.4175544 -0.3009091 -6.1605392 11.142858
-2.9998598 -0.27766758 -6.2723942 5.5
-2.5814703 -0.23548576 -6.1096344 4
-2.2447743 -0.22330432 -6.1804404 5.5
-1.687727 -0.12907653 -6.1570625 4
-1.2921454 -0.058458529 -6.3042817 6.4722223
-1.0094625 -0.085470073 -6.1903319 6.6000004
0.34252313 -0.19380778 -6.2431717 7.4666667
0.56774873 -0.16810237 -6.1657114 7.5615387
0.89246511 -0.1132075 -6.0905914 7.7511506
2.7610054 -0.15725584 -6.3274765 3
3.9217515 -0.037385497 -6.2748537 8.0889997
5.3311157 -0.16918489 -6.0624619 7
-6.8730974 0.12248679 -6.1518903 12.734234
-6.7620683 0.069632545 -6.1990309 14.360001
-1.311098 0.18148126 -6.3503375 10.625856
-0.9877851 0.21024442 -6.2519708 10.017159
-0.62938422 0.15902483 -6.1711755 8.5976191
-0.14012532 0.25521585 -6.150219 9.0809526
0.29287186 0.26107073 -6.204906 9.166667
0.56255597 0.15652874 -6.185266 9.8113327
0.87750685 0.20436831 -6.098186 9.7857141
2.1151986 0.18581314 -6.3626432 8
3.3630447 0.17710926 -6.050581 8
3.9145141 0.36457273 -6.2754455 9.5889997
5.4143209 0.20532538 -6.2816601 8.25
-7.0213728 0.65907681 -6.1881733 14
-2.8793554 0.60130185 -6.3634109 9
-1.3693985 0.55639011 -6.3427749 14
-0.95913082 0.57474381 -6.2360988 12.235234
-0.60187447 0.56099659 -6.1374736 13.288095
-0.14106917 0.61849618 -6.1794815 11.202381
0.31919128 0.61410379 -6.2765541 11.633333
0.57500017 0.56943172 -6.1828408 12.495193
0.87670797 0.59896111 -6.1003442 12.270116
2.1066709 0.60711592 -6.3480167 9.5
3.4001877 0.60233563 -6.0546527 9.5
5.4082079 0.6001724 -6.2891464 9.75
5.6478491 0.7233656 -6.1710768 9.5
-2.8782339 0.97057825 -6.3625011 10
-1.3412955 0.86065602 -6.3840199 15
-0.95085567 0.9758507 -6.2485547 12.857142
-0.51882809 0.97998339 -6.1606412 13.333333
-0.15202594 0.98720342 -6.1848145 13.305556
0.30111828 0.96753341 -6.1959033 13.538888
0.65718782 0.94434577 -6.1815591 13.707143
0.93709826 0.93834871 -6.0752273 14.367545
2.0988235 1.0304132 -6.3368917 11
3.3939881 1.0285537 -6.0457478 11
5.5037818 1.0277017 -6.2278523 11
5.6495757 1.1976279 -6.19098 11
-2.8776312 1.3421683 -6.3624563 11
-0.96342123 1.3529483 -6.2186699 13.095238
-0.57932544 1.2958646 -6.2270498 14.75
-0.15533265 1.3922033 -6.2476506 14.52
0.1766669 1.4836642 -6.1156006 13.5
0.67169976 1.2666765 -6.1765079 14.666667
0.89172947 1.3804295 -6.0962548 15
2.092978 1.4607286 -6.3361416 12.5
3.3884373 1.3848563 -6.045114 12.25
5.3534527 1.4537923 -6.1807041 13.5
5.6460714 1.5158393 -6.1875753 12
-2.8698158 1.7147269 -6.3504124 12
-1.0384426 1.8232421 -6.1761136 13.5
0.19211268 1.8233838 -6.1029339 15
0.53940749 1.7453877 -6.0103416 14.25
2.085381 1.8962946 -6.3270645 14
3.3819337 1.82447 -6.0484238 13.75
5.3968191 1.8366426 -6.1340971 14.5
5.6432924 1.8379661 -6.1868906 13
-2.8749862 2.0953684 -6.3600025 13
-1.0491604 2.1931441 -6.1742158 14.666667
0.60412621 2.03652 -6.0386395 15
1.981588 2.2935722 -6.0116849 15
2.0837321 2.1972735 -6.3386221 15
3.376606 2.2008352 -6.0458074 15
5.4911757 2.2124548 -6.2909684 15
5.6496277 2.172616 -6.2193289 14
-6.8768878 -0.49366876 -5.8117909 7.3580241
-6.7346954 -0.54503393 -5.9003606 6.2666669
-6.1936359 -0.57785434 -5.8239431 5.5
-5.8585763 -0.53200984 -5.7930512 15.034722
-5.3671741 -0.51365501 -5.7876844 4.5
-4.8854127 -0.41848648 -5.7485175 5.685185
-4.4962854 -0.44099036 -5.9112186 5
-6.8879423 -0.26054594 -5.8343153 12.252773
-4.8948684 -0.19613951 -5.7220378 9.9131441
-4.6716938 -0.20302521 -5.6669517 8.5206347
-4.1769638 -0.35157734 -5.8512745 5.25
-3.8665264 -0.34953865 -5.8523469 4.6666665
-3.4784284 -0.33281881 -5.8145223 13.321739
-3.1085851 -0.25910559 -5.9307685 5.3333335
-2.5435729 -0.18684389 -5.7837195 14.909722
-2.1961048 -0.17013302 -5.8483477 5.4000001
-1.2820362 -0.095658034 -5.7295151 6
-1.0026802 -0.16416201 -5.8040309 7.1833329
-0.6526767 -0.15772583 -5.7659373 7.8000002
-0.35643125 -0.22390203 -5.7221317 7
0.31643388 -0.15702488 -5.6817732 7.5333328
0.61370885 -0.16231515 -5.9382544 7
0.97132099 -0.12981208 -5.8025913 7.1960001
1.4514862 -0.087173149 -5.6997433 7.25
1.7157423 -0.15572514 -5.7257214 7.125
2.0962408 -0.17332162 -5.6325464 7
3.4150901 -0.28809595 -5.7517481 7
3.9178081 -0.27945113 -5.7596655 7
-6.9702506 0.12195657 -5.8028235 13.366816
-4.9222836 0.23389895 -5.8097954 13.516666
-4.6492538 0.21731421 -5.6605783 13.292857
-1.0342497 0.19777638 -5.7834296 9.7373991
-0.68994069 0.16916493 -5.8428617 9.2999992
-0.16581471 0.24983065 -5.8316736 9.1199999
0.30064809 0.11410284 -5.7571707 10.196969
0.71445358 0.22101207 -5.9213877 8.7309999
0.99020433 0.12242889 -5.7954597 9.8005381
1.4608555 0.21546513 -5.7166505 10.449501
1.7675966 0.13262607 -5.7456732 8.7503891
2.0843866 0.19030111 -5.6786594 8.7321424
3.1304984 0.16363595 -5.7743082 8.583334
3.248955 0.11460566 -5.840003 8.5
5.3677502 0.18973044 -5.7894754 8.375
5.6247301 0.24345765 -5.6300621 8
-7.202045 0.75034225 -5.8018146 15
-7.0665865 0.52726543 -5.8873038 14.517857
-5.0032625 0.55395544 -5.81986 14.75
-0.97394776 0.5798952 -5.7749944 12.062003
-0.72092855 0.67341059 -5.7774553 12.679818
-0.19212459 0.64391077 -5.8014345 12.427273
0.27500415 0.56252187 -5.7843857 13.6875
0.67869675 0.55558288 -5.9330077 10.540816
1.0092509 0.46634865 -5.7982874 14.550589
1.51332 0.56728637 -5.7498751 11.6509
1.7481947 0.56155515 -5.7452474 11.753532
2.0653708 0.61338049 -5.8111634 10
3.1115003 0.56555235 -5.7634106 10.5
3.243314 0.52154708 -5.8439226 10.5
5.377336 0.5895254 -5.773047 10.111111
5.6243382 0.68535376 -5.6407633 9.5
-0.98184246 0.94414234 -5.7707057 13.49434
-0.63648528 0.90955889 -5.8009157 14.360001
-0.2148184 1.0001626 -5.8614073 14
0.63276041 0.90267515 -5.9274282 10.75
1.0534427 1.0690746 -5.8816123 11.505
1.4296963 0.9468661 -5.8210092 12.651383
1.7715676 0.9471938 -5.7542686 13.794445
2.0994017 1.0216892 -5.7600346 11.875
3.1058426 0.99058509 -5.7652926 12.5
3.2374129 0.93476456 -5.8499565 12.5
5.3573408 0.96570945 -5.8364429 11.708333
5.6336451 1.1358023 -5.6847315 11
-0.97317821 1.3911917 -5.7338691 13.428572
-0.18466866 1.3126864 -5.909183 14.75
0.60262418 1.2847922 -5.9369345 12.5
1.0837448 1.3902386 -5.8736954 13.324668
1.4193922 1.4078655 -5.7730317 13.383334
1.753847 1.3847756 -5.7412534 13.416667
2.0658152 1.4006302 -5.7702646 13.476191
3.1139493 1.3371093 -5.7863503 14.083334
3.2319593 1.3568326 -5.8493104 14.5
5.3698368 1.3462876 -5.7569299 13.333333
5.6258688 1.4339576 -5.6663675 12
-1.0944494 1.7467225 -5.9180441 13.25
0.64531112 1.6985587 -5.9130816 14.333333
0.97540015 1.8699617 -5.8732677 14.3
1.3332076 1.9540241 -5.7462835 14.375
1.7817688 1.941269 -5.7755089 14.25
2.0508549 1.8019261 -5.9069605 13.75
3.090734 1.6137378 -5.6926188 15
5.392705 1.7322371 -5.6835375 14.5
5.6245623 1.8940947 -5.674449 13.5
-1.0981638 2.2198224 -5.9183726 14.75
1.0700891 2.2387595 -5.9055843 15
1.5317202 2.2799642 -5.7351451 15
1.7742176 2.2585702 -5.7773085 15
2.0850086 2.0513475 -5.7930288 15
5.47824 2.0738051 -5.7487984 15
5.6245408 2.3653932 -5.6872072 15
-7.0350494 -0.49557179 -5.3844099 7.3127975
-6.5587482 -0.56365311 -5.3553729 4.6666665
-6.1246629 -0.54760945 -5.3826852 20.655556
-5.7010708 -0.50079006 -5.3151932 3.75
-5.4680576 -0.50235277 -5.4634128 4.1666665
-5.0356455 -0.43367603 -5.3871346 5.9184027
-7.0404134 -0.25134322 -5.4219084 11.940436
-5.0372181 -0.21917643 -5.3917327 10.695328
-4.4633975 -0.15689309 -5.5671554 10.268155
-4.27563 -0.19904998 -5.5016856 8.3510265
-3.8019595 -0.14652088 -5.3076992 8.8060904
-3.2760255 -0.21703942 -5.5345879 3.6666667
-2.9769948 -0.27883005 -5.4143829 5
-2.568182 -0.22458407 -5.2934465 4.5
-2.3138366 -0.14222881 -5.4060407 7.5999999
-1.8910421 -0.1118617 -5.260982 20.75
-1.3883901 -0.12162918 -5.3852572 5.5500002
-1.0214186 -0.093213901 -5.3017659 6.25
-0.43146038 -0.13939461 -5.2547889 7
-0.21815205 -0.050109204 -5.3558197 8
0.19027138 -0.14025067 -5.3871551 7.3863635
0.65185797 -0.11783912 -5.2777877 6.9199996
0.99581629 -0.17691487 -5.3302445 6.25
1.5291607 -0.21924186 -5.3434558 6
1.8134502 -0.11526874 -5.4637833 6.7678571
2.2598839 -0.068405643 -5.3708739 6.8083334
2.5576015 -0.12414642 -5.3957262 6.9166665
3.0502868 -0.11656898 -5.2585716 7
3.329248 -0.14597706 -5.3247766 7
3.8118954 -0.14881396 -5.3271775 7
5.3645592 -0.097011939 -5.2944002 7
-7.096838 0.13208073 -5.3929591 13.948611
-5.0622678 0.13271785 -5.4089551 13.904762
-4.4267869 0.10348209 -5.5382013 12.5037
-4.2178106 0.15978456 -5.4692483 13.574445
-3.8173187 0.12377166 -5.3158102 12.8668
-3.5947094 0.02684734 -5.2009606 11.529411
-2.4881172 0.16859752 -5.2819109 9
-2.332916 0.22288156 -5.3891129 10
-1.0267727 0.21039717 -5.4725814 10.429783
-0.60367918 0.20973803 -5.3709111 9.25
-0.28939158 0.22386342 -5.376554 9.2098227
0.21367045 0.19931562 -5.3822541 11.029581
0.61067283 0.18020235 -5.2384925 9.6904755
1.0369769 0.15748371 -5.203691 9.666667
1.3629609 0.26931751 -5.3883901 9.2333336
1.8485961 0.21923886 -5.4538574 10.431618
2.2191362 0.21506551 -5.4042497 10.869181
2.5297091 0.21117498 -5.27879 10.604197
3.0610678 0.15632713 -5.330936 8.5714283
3.289259 0.16344216 -5.2813387 8.5
3.7486589 0.1063234 -5.3255129 8.5
5.3781881 0.20425978 -5.3128066 8.5
5.6045227 0.19298822 -5.2582364 8.5
-7.0630174 0.42941332 -5.4093318 14.5
-5.1924815 0.41863972 -5.2071619 15
-2.4608707 0.61808014 -5.313622 11.875
-2.3496718 0.61176002 -5.3859558 13.388889
-1.00934 0.5515129 -5.4489231 12.455651
-0.56902021 0.53724313 -5.3747792 13.257046
-0.2758334 0.57130826 -5.3715315 12.679112
0.16546318 0.557329 -5.3712173 13.134921
0.66192961 0.55001283 -5.2389932 13.06
1.0526575 0.46108499 -5.2192807 14.142858
1.4815804 0.68873447 -5.5792837 9.5
1.8250554 0.55235803 -5.4761353 10.91
2.2491002 0.53806078 -5.4219174 11.097917
2.5560653 0.5175696 -5.3591719 10.166667
3.0504487 0.5789817 -5.3012085 10.972221
3.2771008 0.56054646 -5.2771645 10.5
3.7309718 0.53749514 -5.3286543 11
5.4146318 0.58303607 -5.3090067 10.4
-2.5058949 1.0057328 -5.3573585 13.625
-2.3474545 0.86631697 -5.4008794 14.5
-0.97917324 0.98380291 -5.4148483 12.277777
-0.44137859 0.94645613 -5.3399363 14.375
-0.26660642 0.99051738 -5.3366923 13.753
0.12923956 0.93594837 -5.2449188 13.666667
0.64616716 0.98785925 -5.2073655 14.5
0.81708384 0.96203542 -5.2065926 14.5
1.811711 0.97395802 -5.4619551 10.75
2.2476563 0.96621883 -5.4408159 12.141026
2.6116352 0.97443545 -5.3827972 11.486667
3.0222399 0.95793092 -5.346457 12.964286
3.3248341 0.96669334 -5.3389058 13.5
3.712986 0.97694695 -5.3334117 13.5
5.4071598 1.0081774 -5.3222446 12.5
-2.4389226 1.3935007 -5.4401913 13.5
-0.96982336 1.3481051 -5.3704596 13.642858
-0.40088773 1.2611332 -5.282218 15
-0.30472493 1.3785985 -5.3881273 14.72875
1.5498455 1.5508944 -5.5409317 13.333333
1.8421447 1.3332957 -5.4657793 12.2
2.2485442 1.3331428 -5.4053001 12.416666
2.5941539 1.358555 -5.400969 13.261112
3.0342019 1.3924658 -5.3176265 14.571428
3.3145919 1.2376239 -5.3364658 15
3.6844199 1.2462554 -5.3338552 15
4.1042795 1.2761234 -5.3750024 15.089
4.5268984 1.2990836 -5.3504825 15.0865
4.8886251 1.3322537 -5.3534098 15.0845
5.398581 1.4042326 -5.3253398 14.4
5.612154 1.3634989 -5.2150187 12
-2.458971 1.7538464 -5.4607315 15
-1.0325081 1.8269478 -5.5070572 14
1.5004184 1.9309595 -5.556366 15
1.839452 1.7699673 -5.4741588 13.990909
2.2334268 1.7578979 -5.3480396 13.740741
2.6471431 1.6624869 -5.3327851 13.666667
3.0049291 1.6989039 -5.2949672 15
5.469883 1.8210391 -5.2728157 14.5
5.6072392 1.7970223 -5.2102728 13.5
-1.0705657 2.1871884 -5.4826469 15
1.9306927 2.1623263 -5.4281254 14.8
2.2455225 2.1464038 -5.3566933 14.666667
2.6034975 2.068697 -5.2968011 14.5
2.8070414 2.0795331 -5.2167888 15
5.6088514 2.2445645 -5.2270126 15
2.6609864 2.4113343 -5.292026 15
-7.2292566 -0.50270402 -4.8965535 7.0500002
-7.1658688 -0.49849156 -5.036581 7.2651043
-6.6242647 -0.55957901 -4.9558058 6
-6.2125731 -0.53615665 -4.8554668 5
-5.8481083 -0.51830918 -4.9781094 3
-5.5330486 -0.48501694 -5.0040455 3.25
-5.1741271 -0.42340088 -4.9974189 6.2380958
-7.2360377 -0.22612999 -4.9328952 11.957375
-7.1614895 -0.23740597 -5.0652366 11.313726
-5.2413273 -0.17864029 -4.8472772 11.5
-5.1605749 -0.23544361 -5.049696 10.469658
-3.6822596 -0.17668982 -4.9359598 3
-3.2884769 -0.14162903 -5.1094151 7.841526
-2.9873123 -0.11082706 -4.9936061 7.4676762
-2.5303762 -0.12026075 -4.9320073 7.0448713
-2.3294015 -0.11049238 -5.0493283 7.0303035
-1.9326348 -0.11280389 -5.0218401 12.75
-1.4373975 -0.105241 -5.0483236 5.5
-1.0095556 -0.025408253 -5.1251569 4.3333335
-0.54488647 -0.11096469 -5.0314345 6
-0.13673724 -0.11165426 -4.8989239 7.6666665
0.077540688 -0.187958 -5.0512257 7.0462961
0.64291358 -0.16499707 -5.0392146 7.0031252
0.98092145 -0.11591926 -4.9733009 7.421875
1.3169293 -0.096568152 -4.9706311 7.1729164
1.7483683 -0.11408866 -5.0241699 5.75
2.1769691 -0.082031608 -5.0271487 6.2113633
2.6495895 -0.039142556 -5.094872 6.6500001
3.0001249 -0.051234901 -5.0329337 6.625
3.4188271 -0.047335166 -5.0081949 6.5
3.7594879 -0.026496053 -5.0150638 6.7199998
4.1507492 -0.054589652 -4.8448658 7
5.4878526 -0.078159124 -5.1732802 7
5.6137319 -0.063304245 -4.8522363 7
-7.2581291 0.11721714 -4.9502759 14.004762
-7.1654906 0.12517673 -5.030365 13.166667
-5.2577496 0.055344135 -4.8373356 14.5
-5.1626244 0.093602151 -5.0954671 14.166667
-3.3502531 0.11631536 -5.1315069 13.225674
-2.9812927 0.12850814 -4.9857244 12.963845
-2.5349195 0.17779692 -4.9541492 11.395826
-2.3833032 0.21682355 -5.1662164 11.166667
-0.98576212 0.20755118 -5.0906978 8.416667
-0.50941014 0.19623247 -4.9995561 8.7270508
-0.2120726 0.20946752 -5.0042768 10.389228
0.064892486 0.15158179 -5.079463 11.15003
0.72103328 0.23764306 -5.0772939 10.399333
0.99932152 0.18378165 -4.9686365 10.645865
1.2636771 0.16649243 -4.9598103 11.553008
1.8000679 0.19447958 -5.1247969 10.089962
2.1753824 0.21722488 -5.1140809 10.828996
2.6479046 0.22481313 -5.1061296 11.039652
2.9964659 0.20276482 -5.0631762 10.436407
3.4350641 0.19992723 -4.9927139 9.3877478
3.8141322 0.22913325 -4.9794884 9.3713379
4.1268654 0.19744574 -4.986165 9.0602942
5.3956475 0.20670255 -5.0215235 8.666667
5.6256475 0.18509206 -4.9483867 8.125
-7.179965 0.41614732 -4.8800564 14.833334
-2.8004451 0.45945033 -4.9964933 13.5
-2.5136607 0.56663191 -5.0129585 13.547501
-2.3886962 0.45741513 -5.1941624 15
-0.96827728 0.59058094 -5.0596185 10.25
-0.50884867 0.54868942 -4.9836411 13.354743
-0.2175221 0.54633349 -5.0079684 13.283838
0.29592791 0.55709797 -5.1643524 11.061999
0.63887608 0.54606068 -5.0205359 10.914301
1.0280178 0.49819055 -5.0682502 12.568131
1.3814191 0.53522962 -5.1109753 13.186962
1.7917398 0.54235834 -5.1024303 12.777778
2.1252923 0.62209886 -5.1109681 11.822222
2.6679771 0.57132256 -5.1110578 12.97775
3.040555 0.55588305 -5.0481539 11.661174
3.421062 0.54448515 -4.9944887 12.728552
3.8031185 0.57531023 -4.9747524 12.007893
4.1361427 0.58742237 -4.948482 12.142858
5.4483504 0.61845827 -4.9632444 10.866667
5.6049442 0.65249372 -5.1733856 9.5
-2.5554326 0.92987615 -5.0168238 13.757143
-0.97613919 0.98309362 -5.0545645 12
-0.54027778 1.0017992 -5.0411787 13.941201
-0.34629411 0.87650263 -4.9912877 14.5
0.25533533 0.88675451 -5.1892047 14.5
0.47466898 0.86645228 -5.1860666 14.666667
1.0758475 0.86495078 -5.1700864 14.8
1.4265308 0.8681702 -5.1592188 14.5
1.8301225 0.97388089 -5.0760884 14.625
2.1058586 0.97958374 -5.1129966 13.125
2.6528792 1.0403786 -5.0936575 11.625
3.0651863 0.93130994 -5.0421066 12.225001
3.4268882 0.9511196 -5.0159001 12.266666
3.8202264 0.98687977 -4.9143405 12.092593
4.149662 1.0273643 -4.8494091 11.333333
5.4429917 1.0047269 -4.9663258 12.960001
5.6077423 1.0755446 -5.1933308 11
-2.6209104 1.4069744 -4.9449377 14.222222
-0.98071325 1.3858207 -5.0433874 13.666666
-0.53726625 1.3360764 -5.0666828 14.652375
2.0646987 1.4719436 -5.1099005 13.166666
2.7496891 1.3492408 -5.0744119 11.666667
3.0517905 1.2984581 -4.9992628 12.229167
3.4258835 1.335436 -5.0453396 13.363636
3.8454165 1.4067485 -4.8901329 12.95238
4.1402612 1.4896774 -4.8558989 13.041667
5.4125385 1.3762422 -4.9854279 14.416667
-2.5681038 1.6733599 -5.1583734 15
-1.0262567 1.8288621 -5.0686555 14.375
-0.50941515 1.7905546 -4.996531 15
2.0263681 1.7791936 -5.1500487 14
2.7285554 1.7905668 -5.0820475 13.333333
3.0819843 1.803 -5.0613317 13.544445
3.4256597 1.7270104 -4.9965582 13.785714
3.8584588 1.7992272 -4.9059463 13.833333
4.2352662 1.8570309 -4.8192677 14.5
5.4620209 1.8508185 -4.8711219 15
-1.0667088 2.1267896 -5.0877905 15
2.0039778 2.0629032 -5.1628742 15
2.7591655 2.1039233 -5.0838041 14.75
3.0487123 2.1477201 -5.039619 14.625
3.4231486 2.1713283 -4.9289293 14.375
3.7866509 2.1613677 -4.8722844 14.166667
4.2491794 2.1757343 -4.8189473 15
5.5937085 2.1352942 -4.8095927 15
2.6529832 2.4050279 -5.0937915 15
3.0291796 2.4584789 -5.0288191 15
3.3897405 2.5217555 -5.0089569 15
3.7733941 2.5872493 -4.8599963 15
-7.3194199 -0.51162666 -4.6247563 6.9785719
-6.9186101 -0.58723551 -4.6489935 4.875
-6.5144644 -0.5604673 -4.632401 5.1999998
-6.2137351 -0.53719485 -4.5521817 15.201087
-5.7755823 -0.53059977 -4.7072091 5
-5.3560958 -0.43883124 -4.6123838 5.8371429
-7.3563914 -0.22611415 -4.6160283 12.054144
-5.3244905 -0.19798896 -4.6236434 11.530422
-3.0506947 -0.23946761 -4.6605973 3
-2.5840559 -0.11680537 -4.6312394 7.442235
-2.2588546 -0.11431415 -4.5960021 4
-1.7476735 -0.091849744 -4.6042914 18.379629
-1.1412061 -0.035967901 -4.6320009 4.5
-0.58188659 -0.12070153 -4.6203418 7.2857141
-0.14519413 -0.17812039 -4.5823793 7.2999997
0.3423177 -0.26356331 -4.4350543 5
0.6177457 -0.12296781 -4.5119648 6.5
1.0519488 -0.13831958 -4.6943731 6.4875002
1.4317529 -0.14829314 -4.6286302 5.625
1.9620557 -0.093631715 -4.6296735 7
2.1540625 -0.11569456 -4.6567888 4
2.6163919 -0.1087154 -4.6176758 5.5
2.9887931 -0.088079639 -4.7098236 4.6666665
3.3183177 -0.074970469 -4.5310607 4.5
3.8162143 -0.034946702 -4.5628772 6.3125
4.2462358 -0.021083385 -4.5672579 7
4.6534982 -0.038808659 -4.6327915 7
5.3765659 -0.20027168 -4.6121821 7
5.6111012 -0.057210267 -4.668365 7
-7.3648787 0.14967784 -4.610487 13.91923
-5.3576708 0.085433677 -4.5959768 14.522299
-2.8069797 0.26051927 -4.4038181 10
-2.6186013 0.18227361 -4.5956254 11.05344
-0.96210885 0.2085036 -4.6565957 8.5437498
-0.61771107 0.19670515 -4.5840845 9.1362181
-0.17792727 0.20107135 -4.6150765 12.46488
0.60778576 0.19784364 -4.4864526 10.250632
1.0599949 0.12516043 -4.7495542 12.414201
1.2036018 0.05135785 -4.7537956 10
1.9863441 0.26958022 -4.6913414 8.5
2.0973299 0.26184368 -4.5232968 8.5
3.0426967 0.12227935 -4.5735364 8.166667
3.3242445 0.14505078 -4.6418171 7.75
3.8735795 0.20861377 -4.6753945 8.9637365
4.1224799 0.20593426 -4.6324492 8.9060764
4.6038218 0.2588273 -4.5205026 8.4354982
4.8246942 0.29959306 -4.470861 8.5
5.4549346 0.205217 -4.6192865 8.5
-2.6540775 0.57388312 -4.665144 13.220983
-0.97711551 0.61734676 -4.6268196 10.499999
-0.62264341 0.55515951 -4.606648 13.167635
-0.16484302 0.51824117 -4.6425653 14.666667
0.58672464 0.48315766 -4.4926558 12.700464
1.980742 0.62984329 -4.6770153 10
2.0804305 0.66504478 -4.4991102 10.25
3.1092319 0.50139433 -4.4984484 11
3.3642437 0.6186595 -4.6669726 9.5
3.8615954 0.60398442 -4.6798778 12.396153
4.1654654 0.58618546 -4.6598048 11.936767
4.5913768 0.61549544 -4.5367661 10.529631
4.8515296 0.70191586 -4.4511518 10.5
5.4460602 0.60909456 -4.6061893 10.616667
5.6255879 0.67888528 -4.5984144 12.15
-2.8534222 0.88123465 -4.4146514 14.8
-2.74226 0.99737477 -4.6234035 13.166667
-0.97765011 0.99377853 -4.5991287 12.314816
-0.61323982 0.98961204 -4.5798888 14.214266
1.9807588 0.99822944 -4.6986413 11.5
2.0786982 1.01561 -4.5072012 11.75
3.1033885 0.90936363 -4.4973941 13.25
3.326098 0.91550112 -4.6373043 11.25
3.7970452 0.92241031 -4.6305394 10.733334
4.2156997 0.97897059 -4.6474004 11.764707
4.5720892 1.0016602 -4.555397 12.3
4.8431315 1.1058078 -4.4861341 12.166667
5.4401736 0.98770016 -4.5984206 12.522222
5.6132679 0.98794973 -4.5563297 14.583334
-2.8263764 1.423299 -4.4598565 14.666667
-2.7646494 1.3508556 -4.5465002 14.5
-0.9801085 1.3287592 -4.5992894 13.833333
-0.61439085 1.2785338 -4.6710896 15.037167
1.9770513 1.4959711 -4.7043142 13.5
2.0724299 1.4316409 -4.4996538 13.5
3.1664176 1.2928066 -4.5254202 14.5
3.3531668 1.3564482 -4.6886029 12.25
3.7624428 1.3843749 -4.6034064 11.4
4.2610874 1.4100457 -4.6854844 12.722222
4.5939803 1.4203179 -4.5926614 13.355556
4.8783255 1.4039037 -4.4833264 13.543875
5.4159203 1.3741233 -4.6248798 14.3125
-1.0312811 1.7845237 -4.6137643 14.5
1.9729466 1.877297 -4.7006731 15
2.0595903 1.7977784 -4.5080771 15
3.5687273 1.8682737 -4.6682873 13.5
3.8501949 1.8317198 -4.5638108 12.875
4.1483564 1.7374103 -4.598567 12.4
4.5488253 1.7930206 -4.6286149 13.95
4.8928995 1.8736706 -4.5716791 13.754499
5.5816679 1.8720291 -4.6000452 14.25
-1.0866029 2.0776067 -4.7221861 15
3.3645182 2.0558259 -4.7535839 14
3.837183 2.2687356 -4.5966454 14.4
4.1623049 2.1614621 -4.647296 13.875
4.5694094 2.169822 -4.6373653 14.5
3.3531528 2.4980564 -4.7536755 15
4.1893616 2.487823 -4.6573687 15
4.4478178 2.5109718 -4.4392052 15
-7.4802413 -0.50541657 -4.2045641 7.3289475
-6.9026923 -0.58188736 -4.2661982 4.5
-6.6412721 -0.52362502 -4.1560917 6
-6.0058146 -0.54127532 -4.3493671 4
-5.7870069 -0.49860704 -4.3981605 5
-5.507925 -0.43757698 -4.1519346 6.0416665
-7.4997292 -0.21768183 -4.2126708 11.717427
-5.488903 -0.18728691 -4.2040324 10.99333
-2.8136821 -0.066901483 -4.0997033 8.1999998
-2.7058079 -0.088916227 -4.2419543 6.6525974
-2.1116326 -0.091893673 -4.3095245 4
-1.8458412 -0.061154108 -4.0284739 4.6666665
-1.4505676 -0.037185803 -4.2224655 4.5
-1.0270278 -0.064665042 -4.1386633 5.9000001
-0.49130747 -0.14777571 -4.1296191 7.3611107
-0.30320904 -0.17128636 -4.1843004 7.4124999
0.29641622 -0.19199425 -4.2759161 5.75
0.59002489 -0.15021776 -4.2538309 6.3333335
1.0012839 -0.15964261 -4.0622578 5.5
1.3237141 -0.1590796 -4.2440047 5
1.7588701 -0.12568092 -4.3352599 4
2.2303078 -0.110608 -4.242734 6
2.6527452 -0.097601548 -4.3024459 5
3.0204906 -0.10862947 -4.1734514 5.333333
3.5015109 -0.065806434 -4.2593551 4.5
3.9497809 -0.021314776 -4.2362113 5.8999996
4.0816979 -0.09413451 -4.0789948 7
4.6098814 -0.039603431 -4.2268457 7
5.4337006 -0.036728043 -4.1076694 6.6666665
-7.5002289 0.18784255 -4.225678 13.406485
-5.5211592 0.081217185 -4.1547151 14.562499
-2.8264508 0.18888023 -4.1073055 11.519464
-2.7364523 0.17085204 -4.2660284 11.632252
-0.89732444 0.20952518 -4.1220589 9.187254
-0.69396251 0.17532296 -4.2333107 9.257865
-0.32367134 0.17255707 -4.2389975 12.380626
0.50672036 0.21538489 -4.2330151 10.2
1.9998548 0.25010791 -4.1978836 8.5
2.0980136 0.218381 -4.2087255 8.5
3.1283491 0.12852077 -4.2532086 8.583333
3.3233123 0.11202988 -4.2970071 7.75
3.9678035 0.22846201 -4.1710443 10.73223
4.029727 0.13906069 -4.1597929 8.7214289
4.5937657 0.22873947 -4.1588974 8.398715
4.9117279 0.25293359 -4.2027636 8.75
5.4380836 0.18707223 -4.2321715 8.666667
5.6697006 0.20414057 -4.1825886 8.395834
-7.5900936 0.46007651 -4.214417 14.2
-2.8665068 0.53552842 -4.146493 13.0321
-2.7359281 0.54081118 -4.343401 14.5625
-0.894324 0.54600352 -4.1645532 12.589441
-0.67468035 0.60628557 -4.257575 13.26431
-0.27848697 0.42941636 -4.2185564 14
0.584553 0.47058865 -4.2877378 13.030303
1.9959037 0.69912469 -4.1988487 10.5
2.0951436 0.62347335 -4.2130542 10.666667
3.1223783 0.54168272 -4.2423148 10.833333
3.3066664 0.44187301 -4.2705832 10.5
3.953959 0.50361764 -4.090507 13.52381
4.1841526 0.59143364 -4.2160673 11.307143
4.570837 0.63569123 -4.1493678 11.670996
4.8743429 0.67340052 -4.2118649 12
5.4295559 0.58359545 -4.2393193 10.833333
5.6675296 0.61116964 -4.1675239 12.53022
-2.9050329 0.94714165 -4.1936154 13.666667
-0.98302245 0.98909092 -4.1166034 13.299999
-0.67900145 1.0038295 -4.2256379 14.125
1.9960699 1.0434259 -4.2180653 12
2.0919125 1.0676075 -4.217546 13
3.1026034 0.92947674 -4.2273602 13.1
3.2986054 0.85520017 -4.2808428 12.5
3.8864429 0.80556655 -4.076323 14
4.2508507 0.92412901 -4.2675686 11.125
4.5655642 0.92663258 -4.141304 12.805882
4.9979954 1.0711496 -4.2588029 14.031366
5.4097223 1.0084221 -4.2486959 13.261905
5.6262684 0.88755298 -4.1501408 14.75
-2.8944306 1.3244754 -4.2293568 14.75
-0.99719846 1.3877685 -4.1407924 14.233333
-0.76479954 1.3672297 -4.3070192 14.82975
1.9929585 1.3920376 -4.2185602 13.5
2.0915582 1.3964685 -4.2268081 14.666667
3.1126268 1.3070664 -4.2629509 14.625
3.290343 1.2796929 -4.2911959 14.5
4.2657452 1.3716255 -4.3240819 11.125
4.5006237 1.3546427 -4.2582984 11
5.0849395 1.334882 -4.2712088 14.872375
5.4209824 1.4178027 -4.2713251 13.50105
5.7394791 1.569752 -4.0495062 14.66175
6.0509148 1.5281552 -4.0022974 13.164
-1.0233281 1.7582394 -4.1792026 14.666667
1.9881027 1.7452563 -4.2092133 15
2.1056776 1.6414603 -4.2436018 15
4.2807326 1.8318506 -4.311893 12.6
4.4939661 1.761349 -4.2718372 12.5
5.0964212 1.906939 -4.286849 12.6345
5.3927078 1.8275248 -4.2994671 14.95875
5.7767878 1.7949603 -4.22083 12.5115
6.0280662 1.9124562 -4.0138931 14.664
4.2875462 2.2694247 -4.3218145 14.166666
4.4792185 2.1741557 -4.280714 14
5.0520363 2.3412161 -4.2947278 14.1345
5.4969807 2.1502211 -4.346302 14.507
4.2003918 2.433908 -4.3668551 14.75
4.4467239 2.4474113 -4.2727518 15
5.0399027 2.642174 -4.3087406 15.1345
5.7394023 2.4297268 -4.2396832 14.5115
-7.7251291 -0.56862772 -3.7570739 7.1999998
-7.5072088 -0.52559793 -3.8540828 6.5749998
-6.9479356 -0.57305872 -3.7219577 5.0999999
-6.6472769 -0.57060611 -3.8114605 5.5
-6.2029839 -0.51997375 -3.851944 5.1666665
-5.6744771 -0.4390007 -3.7928333 5.9285712
-7.68397 -0.23762652 -3.7875276 11.353499
-7.5808311 -0.23121537 -3.8945618 10.8125
-5.6604409 -0.2226636 -3.7683249 10.968497
-5.5781898 -0.1942426 -3.944639 11.45264
-2.8961277 -0.13103996 -3.7894826 7.3722219
-2.5161865 -0.13478102 -3.908356 5
-2.1543338 -0.099968418 -3.8116364 5
-1.643628 -0.055368558 -3.6796384 5
-1.3689749 -0.060696818 -3.8396049 5.75
-1.0647925 -0.11562081 -3.8647521 6.25
-0.50774914 -0.14277975 -3.74824 7.7631578
-0.30684003 -0.20493777 -3.8725414 6.5
0.17312974 -0.24572177 -3.8353913 5.4000001
0.55813062 -0.24078341 -3.8167732 5
1.0140834 -0.15126765 -3.7892005 5.3333335
1.4188207 -0.16071646 -3.7339265 15.11256
1.8681278 -0.13543478 -3.8570683 4.5
2.1222017 -0.10651841 -3.8629308 14.333333
2.5654066 -0.091669098 -3.7528439 15.962006
3.1057227 -0.13228768 -3.6519186 6
3.398834 -0.075591475 -3.8305409 4.333333
3.9257436 -0.016869219 -3.8701909 5.9571428
4.1741319 -0.010441165 -3.7344811 6.1500001
4.5421576 -0.019358262 -3.7331123 6.3833332
4.8538241 -0.013717059 -3.6509118 6.25
5.3441925 -0.10089248 -3.8482549 7
5.6023088 -0.032526765 -3.9194169 7
-8.0639982 0.21180086 -3.7726212 9.333334
-7.7222409 0.16949356 -3.8172777 12.693182
-7.5835338 0.027112991 -3.953793 14.666666
-5.6672688 0.1368631 -3.7716942 14.533333
-5.5917387 0.001814127 -3.7455392 15.064
-2.9386282 0.21537167 -3.8093777 11.788125
-0.95610183 0.2136036 -3.8337772 9.5916529
-0.53347832 0.1452145 -3.8117881 11.583725
1.9802954 0.24134593 -3.8269813 8.5
2.1062827 0.22998491 -3.7369289 8.7250004
3.0792863 0.12923209 -3.7942331 8.416667
3.2698574 0.2833522 -3.6318254 8.5
3.9579494 0.18074383 -3.8291721 9.902916
4.2356215 0.21727355 -3.7621181 9.8867712
4.5375752 0.21412644 -3.7953498 8.8845806
4.9071927 0.20438923 -3.7490828 9.109375
5.4389501 0.19350012 -3.8430073 8.6857138
5.6658421 0.20548861 -3.7337532 8.4972525
-8.0869617 0.6431886 -3.7238278 11.5
-7.7714639 0.50036508 -3.7888417 14.280555
-3.0024636 0.58334047 -3.8171167 13.207749
-0.98716301 0.58191019 -3.8235214 13.103311
-0.60108697 0.57310271 -3.8043623 13.041126
-0.38288569 0.44460726 -3.9809716 14
1.9782132 0.68620473 -3.8310869 10.5
2.1041927 0.62358975 -3.7411437 10.9625
3.0692227 0.49525458 -3.8013449 11.25
3.9403839 0.52284849 -3.7918973 13.564801
4.2721987 0.59282547 -3.7399781 12.00745
4.5616093 0.55261368 -3.8195512 13.07425
4.8942327 0.56752896 -3.761549 13.916667
5.4529991 0.60215664 -3.8257604 11.3125
5.6720753 0.63795757 -3.7584729 13.25
-8.1304617 1.0655562 -3.6875815 13.25
-7.9184399 0.91751444 -3.7725632 14.75
-3.032851 0.98210114 -3.8639908 14.111112
-1.0126607 1.0095538 -3.84338 12.2625
-0.60856605 1.0178157 -3.7799137 14.083333
1.9761786 1.0220839 -3.8239586 12
2.1032159 1.011541 -3.7573628 13.071428
3.0672767 0.94555759 -3.7721615 13.9
3.9271376 1.0099263 -3.6915326 10.1345
4.3094902 0.94054353 -3.7699361 12.5
4.4525933 0.93600398 -3.9043956 13.4
5.4254866 0.9720208 -3.8492286 13.114285
5.6887827 0.98818612 -3.6353834 15
-8.1436424 1.4727886 -3.766443 14.333333
-3.0025005 1.233083 -3.8912213 15
-1.0549332 1.4338346 -3.8371239 13.694445
-0.53767693 1.4520974 -3.7955508 14.5
1.9754107 1.3703188 -3.8462269 13.5
2.0732124 1.3758026 -3.793412 14.3
3.0803266 1.209703 -3.9859664 14.5
3.9201186 1.2484534 -3.7038317 11.1345
5.4127321 1.3395175 -3.8676715 14.366666
5.7212496 1.4671026 -3.9581184 15.1595
6.2224398 1.5888671 -3.6919463 14.1595
-1.0444636 1.7754177 -3.7993066 14.857142
1.9740725 1.7238255 -3.8564746 15
2.0194941 1.674271 -3.8354483 15
5.5545959 1.8272767 -3.9571381 14.666667
6.2042689 1.8033439 -3.8066595 14.661
-8.0245638 -0.49138814 -3.5847993 7
-7.8268719 -0.56998432 -3.3994055 7.3126545
-7.4428692 -0.59852248 -3.5097075 5
-7.1388173 -0.5821476 -3.4006419 5.125
-6.5933385 -0.54576474 -3.4153986 4.6666665
-6.3557854 -0.53620219 -3.4840953 24.902174
-5.7892294 -0.45088974 -3.4657776 5.6845241
-2.7773159 -0.42434075 -3.3021712 6
-8.1192675 -0.11242411 -3.4685142 8.4444437
-7.8141017 -0.19810177 -3.3933961 11.75175
-5.7983389 -0.22677134 -3.3781188 10.619134
-3.0276902 -0.13890533 -3.4320743 7.8764877
-2.5875919 -0.20465124 -3.3921306 4.5555553
-2.2650087 -0.23935467 -3.3112364 5.5
-1.8796169 -0.14617911 -3.3876796 16.658384
-1.5099148 -0.33864123 -3.2417576 6
-0.94735223 -0.19779238 -3.368052 6.9499998
-0.63780141 -0.17268467 -3.3853953 7.3154683
-0.18045707 -0.25647652 -3.3512995 4.9166665
0.20039253 -0.22416782 -3.4332736 4.8095241
0.58176869 -0.23205517 -3.3382714 4.375
0.93761659 -0.18381423 -3.3849323 4.6666665
1.378955 -0.15163168 -3.380619 8
1.8480812 -0.13467461 -3.4044664 4.375
2.1977475 -0.08842095 -3.3663654 6
2.5893481 -0.10441694 -3.4272978 4.8888888
2.9831305 -0.10948151 -3.3645926 5.5625
3.3951018 -0.060381602 -3.3949358 4.1666665
3.7885122 -0.006409917 -3.4188218 6
4.1816311 -0.045943454 -3.3750615 4
4.5941114 -0.034252238 -3.3358011 5.5
5.1480737 -0.036960594 -3.4461551 6
5.4677601 -0.066298015 -3.3217206 6.75
-8.1412077 0.22218592 -3.3829467 10.2
-7.8311849 0.10428878 -3.4359801 12.727748
-5.813972 0.13717882 -3.4239173 13.971483
-3.2041314 0.17313704 -3.2604167 8.5
-3.0645027 0.19940178 -3.4454513 12.285124
-1.0530835 0.20070785 -3.4194698 9.7833481
-0.66139966 0.1491131 -3.4337416 12.069448
2.1081378 0.21848063 -3.3376534 8.7857141
3.0692537 0.11327654 -3.4139321 8.916667
4.2617321 0.22015911 -3.3194683 8.4228411
4.4904213 0.28222024 -3.2613015 8.5547504
5.435216 0.18488808 -3.4139898 8.7142859
5.6523652 0.23806047 -3.3877611 9.0083332
-8.1836185 0.70378304 -3.3875213 12.125
-7.9047141 0.51212806 -3.4327335 14.2
-3.1320291 0.5210461 -3.446131 13.542857
-1.2057188 0.53717679 -3.2105744 15
-1.1067879 0.5885089 -3.3877442 13.248631
-0.66147202 0.5691511 -3.3113189 12.809524
2.1068645 0.62918526 -3.3238606 11.371428
3.0809658 0.57725847 -3.4798348 12
3.2659233 0.69337589 -3.4915943 10.5
4.2314668 0.61929995 -3.34954 11.726112
4.4770708 0.67021316 -3.2662089 10.55475
5.4496517 0.60793412 -3.3868153 11.698215
5.6277542 0.57378358 -3.3455422 12.758928
-8.2097197 1.0659654 -3.3736463 13.625
-7.9363489 0.81378591 -3.5102987 13.966667
-3.1636569 1.0174049 -3.4901066 14.2
-1.0476398 1.0191932 -3.3319108 14.376125
-0.68534821 0.94796473 -3.3543949 13.666667
2.1037827 1.0010796 -3.3821926 13.579166
3.0975273 0.97461271 -3.4246135 13.833333
3.262166 1.1078348 -3.4446917 12.5
4.2177973 0.90365857 -3.3982677 12.715929
4.5010524 0.94038624 -3.2775278 12
5.4366941 0.97453052 -3.4243765 13.822223
5.6784921 0.99533951 -3.3643658 15
-8.2384605 1.4711155 -3.4866667 14.722222
-7.9011631 1.2277161 -3.4936512 15
-1.0833626 1.3433903 -3.4641242 15
-0.77241671 1.3177054 -3.3051987 14.5
2.063417 1.4189495 -3.3120034 14.666667
3.1650603 1.2980313 -3.5309248 14.5
3.2583735 1.51289 -3.3467455 14.5
5.4438543 1.3683774 -3.4579442 14.333334
5.9951835 1.5451972 -3.2866232 13.6595
5.5284958 1.7494167 -3.3236971 15
5.9729257 1.8881813 -3.2944999 15.1595
6.1896648 1.6100601 -3.5691786 15.157
-8.0874329 -0.53840971 -2.9687805 7.5208335
-7.8994703 -0.54283506 -3.017071 7.0476193
-7.4510326 -0.60476309 -3.0321734 5.5
-7.151978 -0.56780469 -2.8485861 4
-6.1231904 -0.51656777 -2.9775805 5.5333333
-5.8900976 -0.43576938 -2.9604151 6.780952
-8.1652861 -0.19686587 -3.0069883 8.6166668
-7.9274421 -0.22456695 -3.0396411 11.291759
-6.0409455 -0.15430591 -2.8817744 11.25
-5.8718529 -0.20645201 -2.9222012 11.179828
-3.2450538 -0.1301039 -2.9173543 7.2688551
-3.124516 -0.17533524 -3.0818939 7.6812863
-2.6479201 -0.10352974 -2.9753718 5
-2.1938179 -0.18448433 -3.071974 5.8000002
-1.718794 -0.24065788 -3.0190086 6
-1.2277566 -0.17914498 -3.0812104 7.3888888
-0.91936427 -0.1596773 -2.9133408 7.6374998
-0.69005752 -0.18607874 -3.0634921 6.9074073
-0.20987706 -0.26259503 -3.0213163 5
0.17232543 -0.22480515 -2.9933305 5.5999999
0.59251344 -0.24172589 -2.9203093 3.875
0.92213649 -0.17891181 -3.0244882 18.5
1.5003449 -0.13761804 -2.9689817 4.833333
1.8834379 -0.11165354 -2.9697495 4.5999999
2.1482739 -0.084956527 -2.9255617 5.5625
2.5891957 -0.089665212 -3.0630994 4.9000001
3.0420611 -0.074806824 -2.9344387 7.3333335
3.2661209 -0.064359643 -3.123461 26.202898
3.730552 -0.043040633 -3.020154 4.6666665
4.207243 -0.06675978 -2.9834635 6.6666665
4.6313252 -0.035923805 -2.9682643 4.3333335
5.0203104 -0.019073922 -2.9950631 5
5.40306 -0.089690372 -3.006525 7
-8.1487904 0.25413033 -2.9691052 11.724445
-7.9656076 0.10647622 -3.111815 12.048281
-6.0500264 0.18408775 -2.8513105 12.5
-5.9353805 0.15260866 -2.9547133 13.1875
-3.2732475 0.19761848 -2.9605014 11.934893
-3.160346 0.15102084 -3.0699451 11.801402
-1.2727734 0.20254749 -2.9885008 9.6662149
-0.94043469 0.15214263 -2.992677 11.649375
-0.73681921 0.13748962 -3.0530121 11.228333
2.1210275 0.19667764 -2.9226847 8.8904762
3.0789423 0.12222042 -3.021919 8.6333332
3.9982457 0.15586728 -3.0792434 9.5
4.1435528 0.18053181 -2.9853995 9.0626364
4.6536622 0.27647331 -3.0661511 8.84375
5.0096712 0.22839746 -2.9860768 8
5.4502339 0.16754338 -2.9776349 8.625
5.6459484 0.22206374 -3.007148 8.7661057
-8.1811867 0.64469147 -2.990598 13.269231
-7.9822407 0.51820952 -3.1188757 14
-6.0536957 0.50587517 -2.919343 14.5
-5.875803 0.45700267 -2.9912238 14.75
-3.3192379 0.50532693 -2.9721911 13.963265
-3.1447325 0.53114051 -3.17924 13.714286
-1.2653005 0.61582333 -2.9940007 13.455772
-1.0355344 0.59357554 -3.0290935 12.123627
-0.71851093 0.55146164 -2.8840725 12.880953
2.1186051 0.56602615 -2.9776587 11.5
3.0845182 0.57133061 -3.0554268 12.380952
3.9928584 0.53149396 -3.0783651 13
4.1309862 0.5267446 -2.9773962 12.10809
4.6926017 0.73820853 -3.073374 12.047619
4.9880028 0.7288149 -2.9784667 11.099999
5.4822087 0.57698578 -2.9853706 12.012986
5.7446446 0.57887095 -2.9933834 11.795292
-8.4033279 1.1113908 -3.0482554 13
-8.1718006 0.97057641 -2.9954681 13.654167
-7.991487 0.85531962 -3.1796978 13.5
-3.3576612 0.91425562 -3.0521932 14.8
-1.2650054 0.96451485 -3.0113072 14.595239
-0.92353886 0.91836482 -2.9541705 14.04762
-0.67849874 0.89495397 -2.9276097 14.383334
2.1141834 0.94604713 -2.9643629 14.058334
3.097137 0.92443639 -3.0235949 14.125
4.3613577 0.90152127 -3.1622574 14
4.5853519 0.98704243 -3.115437 14.125
4.9822226 0.9576171 -2.9671462 12.5
5.4112806 0.99049401 -3.0157568 14.096295
5.7585483 0.97503811 -2.9702382 13.214286
-8.4156189 1.4223981 -2.9541154 14.75
-8.1596403 1.3038826 -3.0552597 14.916667
