# .PCD v0.7 - Point Cloud Data file format
VERSION 0.7
FIELDS x y z intensity
SIZE 4 4 4 4
TYPE F F F F
COUNT 1 1 1 1
WIDTH 1201
HEIGHT 1
VIEWPOINT 0 0 0 1 0 0 0
POINTS 1201
DATA ascii
-4.5966282 0.96665531 0.18336268 13.177343
-4.2452736 0.98691225 0.26039791 13.679569
-3.866873 0.94536793 0.23552743 14.788462
-3.3708656 1.0319228 0.26442224 14.325056
-3.1444407 1.077271 0.31329843 14.388889
-2.5555608 1.0442264 0.21530643 13.558065
-2.2695305 0.94172782 0.20094924 13.809057
-1.7966158 0.95325917 0.2257923 13.76597
-1.4696772 0.85987526 0.0013229847 13.2
-0.92164117 0.97396249 0.11165409 13.2
-0.63219827 1.0284437 0.050331831 14.5
-0.3328886 0.92608875 0.068427086 14
0.14216232 0.90120184 0.076832771 14
0.71079224 0.92733192 0.24032864 13.614978
0.9572922 1.0374074 0.17278968 14.03647
1.2514869 0.94589216 0.096758507 12.25
1.8092254 0.95748335 0.019487143 14.6
3.2169914 0.84130847 0.39329243 15
4.6815009 0.83313513 0.18014348 11.125
5.4537745 1.0107951 0.20707072 14.407972
5.6314964 1.1851716 0.019545555 12.8
-5.3027792 1.4446833 0.15688848 13.5
-4.9354215 1.2867047 0.077914953 14.583333
-4.5896258 1.3284596 0.23629047 14.446969
-4.2697854 1.3390547 0.33924609 14.575001
-3.3619444 1.3942271 0.26388472 14.961538
-3.1864152 1.2326403 0.39796782 14
-2.5267189 1.3652601 0.21729343 14.013889
-2.2863784 1.2722142 0.19647071 14.691666
-1.8227265 1.3131305 0.21625683 14.752667
-0.83772612 1.3259774 0.16075437 14.5
0.72111154 1.2342982 0.22580674 15
1.0366046 1.3586175 0.21455257 13.786325
1.2124628 1.3546264 0.081949204 12.625
4.6284904 1.3876315 0.18059796 14.224999
4.8628087 1.3673418 0.2941227 14.25
5.4987087 1.4023314 0.22275434 14.556946
5.6232247 1.5483726 0.043948412 14.666667
-5.2790375 1.8927739 0.12997818 15
-4.5293541 1.6866239 0.31141797 15
-4.3723545 1.7318748 0.36047921 15
-2.5859592 1.6892021 0.26267835 14.571428
1.1085041 1.8000768 0.22452207 14.45
1.098471 2.1923547 0.21008101 15
-4.1833282 -0.084798746 0.43891954 7
-3.6914663 -0.074062958 0.62375301 6.6473389
-3.4215326 -0.071001455 0.60529518 6.2778702
-2.9620361 -0.089546509 0.58695596 6.6154108
-2.6267984 -0.071776681 0.59079337 6.2408395
-2.2688022 -0.096638575 0.62582242 4.0904408
-1.7665176 -0.10993005 0.59032565 6.4879909
-1.2662907 -0.058026839 0.69895989 5.0490198
-0.98827249 -0.14804286 0.59064162 4.914216
-0.6396448 -0.14929977 0.63277829 4.8620691
-0.20770368 -0.15263613 0.57298857 5.9411764
0.18252133 -0.12946609 0.60762107 15.202854
0.65879405 -0.11463606 0.62425071 5.1871796
0.99524659 -0.085492678 0.59302229 5.6033759
1.3859953 -0.11308789 0.60650802 5.1296296
1.6495309 -0.11680688 0.68212694 5
2.1542661 -0.0569469 0.5829317 6.569828
3.1413302 -0.14690465 0.62776697 5.6460285
3.4657815 -0.14783636 0.57850528 4.7142854
3.7827666 -0.17296599 0.60396457 16.984625
4.1633525 -0.15253744 0.61258364 3.9758427
4.6077747 -0.17215675 0.58276677 4.0239472
5.0305634 -0.14730446 0.57894212 4.9420576
5.4197636 -0.09208402 0.56662863 6.5357246
-4.1594577 0.24000324 0.44397196 8.5025644
-3.7014396 0.1958659 0.63846439 10.950957
-3.4307327 0.21307527 0.56240666 10.561296
-2.9744506 0.21490514 0.58271044 11.244124
-2.6599674 0.20524389 0.59481472 11.430799
-2.290637 0.12315468 0.58341706 9.4518719
-1.7761904 0.15130946 0.60170722 10.663218
-1.3013481 0.046822205 0.67242754 4.6764708
-1.0063339 0.059313152 0.62496299 4.621212
-0.57592195 0.098011591 0.58456278 5.2941175
-0.30170608 0.026387241 0.50585091 6
0.20158859 0.12327555 0.52489483 6
0.64698237 0.21611235 0.62500322 7.4870296
0.95588279 0.19669712 0.55891532 9.0402508
1.3191946 0.24373345 0.46118617 9
2.1506162 0.21405572 0.59168297 10.415663
3.1179016 0.10997507 0.61184877 12.363906
3.248955 0.18582724 0.58490026 10.893003
4.2384052 0.21476039 0.53667027 9.3107405
4.5571384 0.20592007 0.50366884 8.643486
5.4203401 0.21852523 0.57679397 11.014652
-9.2078228 0.56132817 0.79798746 10
-4.1545782 0.65544736 0.44381461 10.533333
-3.7168593 0.44554248 0.63623643 14.472358
-3.4624813 0.47594023 0.54818928 14.063749
-3.0123403 0.64476675 0.56294191 12.937212
-2.5753489 0.62232649 0.57109863 12.556526
-2.3449726 0.54440004 0.55340201 12.695976
-1.7663522 0.53774041 0.60553402 13.069757
0.66264486 0.55000979 0.6318537 10.778527
0.94507653 0.59300691 0.55439788 11.911173
1.3271407 0.62247229 0.44423318 11.5
2.1506021 0.50103891 0.60349023 14.321569
3.0838315 0.48996592 0.60560501 14.848763
3.2473972 0.56054658 0.56911075 14.155238
4.2470145 0.62409484 0.56137353 12.962284
4.5572691 0.6093511 0.50439733 13.52268
5.419332 0.49632323 0.57761747 14.021513
-9.2388649 0.98888201 0.76219559 11
-4.1369038 1.0275187 0.44451842 12.351851
-3.778049 1.026783 0.51633346 12.930207
-3.3654084 1.0414069 0.63755089 13.004789
-2.9772117 1.014972 0.59403896 14.097223
-2.5721323 1.0195642 0.58387315 13.269551
-2.3290136 0.97242588 0.51130003 13.877778
-1.798245 0.9582566 0.60794467 13.737265
0.20580018 0.90442586 0.79428744 12.5
0.64632654 0.93075776 0.59471565 13.895806
0.94036114 0.93167216 0.55800271 13.244941
1.3081949 1.0076622 0.42136741 14
2.2678814 1.1070276 0.56572628 14
3.2114937 0.87006879 0.58609629 15
4.4316177 1.0018541 0.48520517 12
5.4568033 1.0202411 0.62469488 14.229963
-9.2547865 1.4204779 0.75702524 12
-4.1249318 1.4092388 0.45436218 14.092592
-3.8080335 1.3833587 0.52671665 14.434783
-3.3821416 1.4471058 0.67479032 14.282758
-2.9778893 1.3673443 0.74096316 14.672727
-2.6288514 1.3736683 0.55644786 14.229883
-2.2267013 1.390553 0.67285025 14.666666
-1.8211607 1.3282129 0.63707644 14.766667
0.23009324 1.2446731 0.70646262 14.5
0.58128184 1.2453735 0.7098158 14.942857
0.96285933 1.372721 0.5300979 13.331035
4.3966808 1.5522627 0.46974778 15
5.4644766 1.4457765 0.61342746 14.7
-9.276516 1.8574152 0.7539959 13
-4.1409483 1.7327411 0.44952035 15
-3.8980999 1.742866 0.53754908 15
-3.4547319 1.8174369 0.6977402 15
-3.0277498 1.6122465 0.74714065 15
-2.6982825 1.8024756 0.58365351 14.857142
0.98598933 1.7982694 0.56879884 14.409091
0.93478996 2.1787288 0.65418208 15
-9.1413307 -0.28792781 0.83127069 8
-3.7726214 -0.084643677 0.98692107 6.2307072
-3.4370868 -0.10519497 0.97073394 4.7439265
-3.0918696 -0.089356087 1.0590658 3.8064516
-2.6377044 -0.031053368 0.96012652 4.355556
-2.2249172 -0.12902774 0.94516003 4.5357141
-1.7591969 -0.097419165 1.0079328 6.6582909
-1.3636422 -0.045492243 0.97420633 4.7024798
-1.0588055 -0.068755314 1.0029873 5.3477478
-0.63787097 -0.13350923 1.0507923 5.7475848
-0.21084489 -0.13664837 0.98242474 4.4646468
0.24784395 -0.12629701 0.9683212 14.002267
0.67637736 -0.082053736 1.0227494 6.1519608
1.0073179 -0.10211883 0.99429333 5.2118645
1.360338 -0.11867385 0.98445052 4.5958333
1.7497793 -0.11325256 1.0113235 5.065104
2.1321707 -0.059355669 1.0008994 6.3945417
3.1253211 -0.11156049 0.95315641 5.7323518
3.2896872 -0.0649468 0.99427867 5.5714283
3.7902882 -0.17338127 1.0010759 23.61767
4.2042165 -0.11827551 0.95541674 3.6880345
4.6415782 -0.14664418 0.97322387 4.1523247
5.0112705 -0.16852435 0.9528923 4.7592154
5.4139266 -0.089403532 0.97553593 6.4967346
-9.0804377 0.14060545 0.99751234 9
-4.084796 0.30577463 1.0994761 13.05125
-3.7770782 0.19897109 0.95467085 11.18542
-3.5474961 0.18765633 0.82557803 10.142626
-2.9447498 0.22493716 0.86744386 8.0350876
-2.6682398 0.1961638 0.87311757 8.0517254
-2.1506007 0.028394211 1.0319971 10.367754
-1.7885514 0.15917526 0.99176133 10.329108
-1.2877332 0.14089765 1.047224 7.1321731
-1.0121596 0.14032575 1.0380796 7.7322268
-0.65716213 0.12824962 1.0566125 8.1155081
-0.17883557 0.13786945 1.0562894 6
0.2886616 0.18860605 1.0488997 6.7395835
0.61237931 0.21454994 0.98157579 8.3305511
0.90564531 0.1738479 0.92453611 8.7155008
2.1511524 0.22372323 1.0164658 10.860885
2.4294658 0.29703447 1.0330293 8.5
3.1112731 0.13789934 0.95963645 12.606697
3.2416945 0.17321371 0.99154341 9.9172926
5.4228077 0.23727849 0.976614 11.47772
-9.0050135 0.57078087 1.1954112 10
-4.0186028 0.42140231 0.99416149 15.013918
-3.7778652 0.42568007 0.95377833 14.992154
-2.9649737 0.61304426 0.8488065 10.035714
-2.7343349 0.6527108 0.89587921 10.564816
-2.2544849 0.48444861 0.91334474 10.5
-1.768927 0.5480274 1.0033408 12.97229
-1.2583803 0.58888352 1.1045865 11.966894
-0.98338675 0.51605994 1.1073592 12.812193
-0.67747158 0.49651691 1.0768911 12.973974
0.3636646 0.52942085 1.09866 9.994729
0.60813963 0.58514756 0.98264748 11.59575
0.89786327 0.58288014 0.94006574 10.894049
2.1498637 0.47997594 1.0109632 14.597801
2.4137702 0.67017663 0.96515274 10.75
3.0535271 0.45930225 0.93354642 14.848233
3.237895 0.54616338 0.98395216 14.01031
5.417932 0.52964097 0.99284834 13.820199
-9.0350533 0.99765611 1.1714611 11
-2.9697428 1.0131044 0.86212182 11.644928
-2.7467239 1.01337 0.90989596 11.416667
-2.2844484 0.8832444 0.91682756 12.25
-1.7941997 0.97013336 1.0027074 13.827438
-1.2638764 0.97123647 1.0315863 12.590909
-1.0011938 0.99112839 1.1112919 12.769231
0.3680076 0.93503761 1.0840096 13.518815
0.62121058 0.93141758 0.96578431 14.093135
0.92431003 0.94994432 0.90016073 12.141176
2.3556268 1.0865695 1.0517282 13
3.198164 0.92632812 1.0076399 14.5
3.213464 0.91555506 0.94707489 14.833333
5.4490619 1.0150435 1.0437815 14.282832
-9.0502119 1.4280341 1.165833 12
-2.9329591 1.4699929 0.86026442 13.801961
-2.6890361 1.4269377 0.86515039 13.670635
-2.2359695 1.3815933 1.0064762 14.25
-1.8302996 1.3280641 1.0074441 14.824562
-1.2711093 1.4243863 0.93821079 14.296295
-0.98905206 1.4629153 1.0843371 14.384615
0.30282417 1.2382369 1.126542 14.866666
0.59170181 1.2825215 0.99920869 14.6
0.92498642 1.3504938 0.89042258 13.021213
2.3878648 1.3930595 0.90388465 15
5.4420295 1.4556075 1.0392168 14.714286
-9.069191 1.8633652 1.1616583 13
-2.952035 1.7993313 0.85980332 14.6
-2.793416 1.7427386 0.90634966 15
-1.2802901 1.627201 1.1082804 15
-1.0492566 1.6186413 1.0965457 15
0.7533741 1.880293 1.1338935 13.75
0.89791256 1.8191867 0.87308282 14.288462
-2.872834 2.0242274 0.91568184 15
0.73800802 2.2641544 1.1513201 15
0.85007113 2.1714818 0.91854507 15
-8.852973 -0.27018219 1.4513454 8
-4.4053078 -0.094795704 1.5992661 6.5
-4.1695037 -0.092587374 1.4361404 6.5
-3.7732096 -0.1004398 1.3674051 5.6740332
-3.3195133 -0.10403658 1.4406193 4.1280704
-3.1121638 -0.088353597 1.3386825 3.6196079
-2.4954393 -0.063925028 1.4738477 19.315556
-2.3061252 -0.068038709 1.4934607 22.737656
-1.7601932 -0.11212955 1.3962486 6.5775132
-1.3971543 -0.18357754 1.2797508 6.2461538
-0.99957621 -0.14937524 1.3630106 5.5749998
-0.57930779 -0.14242274 1.3661746 5.3144231
-0.21128528 -0.13261843 1.4103422 4.3429766
0.2323181 -0.11969262 1.3812801 6.6670184
0.57913482 -0.091671102 1.3834449 9.3969069
0.97227651 -0.11166799 1.4084673 4.8828826
1.4277594 -0.11611991 1.3742346 4.3877549
1.7781229 -0.11219419 1.4684992 4.8249998
2.1318698 -0.058868349 1.4034197 6.3172264
3.1291244 -0.096614823 1.3940401 5.8230071
3.3193765 -0.058059409 1.4052186 5.4664502
3.8139641 -0.19217017 1.4572489 23.269493
4.2154455 -0.12802827 1.3487115 4.5171995
4.6787972 -0.15221545 1.3771156 4.0718393
5.0322371 -0.14792889 1.3633974 4.6819372
5.3920164 -0.10041366 1.3729173 6.3087792
-8.8053446 0.15656179 1.5671148 9
-5.3561683 0.33223838 1.4530008 9
-4.4096737 0.18234268 1.5868769 10.5
-4.1549163 0.18538515 1.4405969 10.962384
-3.8843615 0.20154542 1.3314437 10.965147
-2.6792233 0.02229703 1.4753915 6
-2.1162074 0.027188508 1.4190032 16.540295
-1.780372 0.1594415 1.3955402 9.4160461
-1.3953652 0.20410158 1.4347639 9.9852228
-1.0616107 0.20062357 1.4044243 9.0009708
-0.56264246 0.1477064 1.3106178 8.6388741
-0.24623096 0.10822617 1.4570739 6.6546249
0.28766841 0.22532937 1.3991201 6.9977779
0.57546568 0.2151911 1.3658493 8.9727497
0.8804791 0.19277777 1.3452913 8.25
2.1507599 0.21095107 1.4231812 10.953262
3.116513 0.18987305 1.4080364 12.519107
3.24318 0.18517831 1.3901545 9.2013922
5.4248972 0.23848908 1.3680254 11.500684
-8.8272429 0.58107924 1.5647125 10
-5.3647866 0.65280956 1.4476326 10
-4.1810865 0.41906095 1.4321568 14.596488
-3.8989413 0.44423494 1.3284072 14.91361
-1.7719493 0.55535227 1.4075814 13.01105
-1.3575366 0.56167459 1.3347756 12.387004
-1.0286872 0.53337181 1.3197908 12.063034
-0.57716829 0.51730835 1.2938967 11.471036
-0.34399319 0.50563347 1.5873811 10.6185
0.2947759 0.57199651 1.4292433 10.69061
0.55342132 0.60817468 1.3622545 11.887697
0.88577074 0.59999245 1.3492516 10
2.1490426 0.50588053 1.4174645 14.183301
3.0927825 0.43329534 1.4559832 14.754336
3.2299662 0.57101959 1.3694762 13.809523
5.4135475 0.53034413 1.3940996 13.73108
-8.8481102 1.0097597 1.5869713 11
-5.3834977 0.97651279 1.4491794 11
-1.802663 0.98838055 1.4231437 13.786263
-1.3386822 0.92378825 1.3789685 12.611472
-0.9812777 1.0087708 1.3753963 12.442593
0.27256966 0.94804925 1.4237171 13.542234
0.55406755 0.95262116 1.362213 14.210807
0.94366264 0.95452875 1.4343965 12.5
3.182559 0.96302098 1.4835205 14
3.2201402 0.9138158 1.352742 14.785714
5.4434013 1.0187728 1.4329563 14.164384
-8.8743782 1.4397202 1.5611796 12
-5.4127374 1.4696509 1.4520462 12.5
-1.8440552 1.3258626 1.3880134 14.875
-1.2988822 1.3575045 1.4310639 13.553332
-0.95300037 1.3698729 1.4382637 13.697619
0.22951032 1.2815518 1.4361597 14.619842
0.57266623 1.3072728 1.3386415 14.458333
0.92595601 1.3397408 1.4085338 14.5
5.4402943 1.4694275 1.4236283 14.704443
-8.8925667 1.8750536 1.5566592 13
-5.4531646 1.9755465 1.4622509 14
-1.3054794 1.6921669 1.3945087 15
-0.96016407 1.6679622 1.4179212 15
0.70396209 1.829493 1.2520156 13.5
0.62582636 2.3191607 1.293993 15
-4.6168323 -0.10750827 1.9835054 6.5
-4.2018924 -0.090081669 1.7714206 6.5014491
-3.7274868 -0.10842985 1.7900993 5.1694217
-3.4434056 -0.098093383 1.8572744 4.4564104
-2.9691794 -0.094525114 1.8225375 5.3749995
-2.4867311 -0.067941464 1.726499 16.02564
-2.2857676 -0.051137373 1.7029527 24.452229
-1.7567468 -0.10364294 1.7706304 6.7287579
-1.3996625 -0.12108857 1.863403 6.1333332
-0.90840262 -0.12069509 1.6852422 5.8870969
-0.59562945 -0.10987852 1.6892841 5.4490738
-0.2048144 -0.12271065 1.7307491 4.4679489
0.2200487 -0.088495173 1.8051531 5.7972975
0.58671004 -0.10060243 1.7825717 12.434086
0.96427292 -0.10783412 1.8123157 5.8974357
1.430439 -0.11063853 1.8267459 4.8854165
1.7772747 -0.10379601 1.8017352 4.878788
2.1710734 -0.065449789 1.7831895 5.73769
2.5867834 -0.058064044 1.8832673 6.005754
3.1144946 -0.086004056 1.8353484 6.3159781
3.3655467 -0.076012053 1.8145112 9.0461531
3.7913594 -0.15878013 1.7010531 22.138636
4.2142544 -0.13436587 1.7992921 4.4179688
4.6220088 -0.14023504 1.7947571 4.0335979
5.0008912 -0.15228234 1.7791069 4.6998258
5.3830948 -0.091688097 1.7707381 6.4045258
-8.6952276 0.16404825 1.8172803 9
-5.5601511 0.18477924 1.8498559 8.5
-4.6004329 0.17834142 1.9610801 10.197038
-4.2086797 0.18875305 1.7779318 10.652629
-3.9715481 0.18291827 1.717707 9.6644363
-2.8376493 0.036908858 1.7768515 8
-2.5950682 0.11708597 1.7492785 7.5777774
-2.168371 0.087549224 1.8365149 8.2222223
-1.7731152 0.1593376 1.7814611 8.9677505
-1.3399144 0.17329678 1.6891115 9.0124311
-0.95297158 0.055611502 1.8191 5.9903135
-0.62063897 0.15538153 1.7745662 10.208473
-0.16539575 0.13233659 1.785129 9.569684
0.15456699 0.17188965 1.8527536 7.8270812
0.48968202 0.21272863 1.7571229 8.9079247
2.206501 0.20325342 1.8371645 12.07528
2.5702705 0.20725918 1.8832929 11.938762
3.1084273 0.17701365 1.8130673 11.989374
3.2371864 0.24573717 1.7718583 9.5725822
5.1795106 0.0033695847 1.7707717 5.75
5.4233546 0.23411958 1.7682492 11.107679
-8.7057858 0.58835369 1.8091931 10
-5.5363517 0.68054587 1.7630661 10
-4.4854794 0.45876262 1.7878726 14.159162
-4.1645632 0.45162857 1.7845566 14.389546
-3.9647098 0.48772827 1.6926827 14.460317
-2.8276606 0.44465345 1.769796 9.5
-2.5915098 0.5326826 1.8165252 9.75
-2.2764506 0.5964902 1.8131597 10
-1.7758033 0.59069002 1.8039998 13.174878
-1.287009 0.52910167 1.7170053 12.324149
-0.95712513 0.64303398 1.8288585 10.273809
-0.66653556 0.47225937 1.923583 14.237591
-0.091537349 0.61317617 1.9815531 12.017241
0.15827787 0.58484757 1.8898973 11.606846
0.48418963 0.61195463 1.7301536 11.802394
2.1425922 0.51548296 1.6154249 13.964286
2.627219 0.44079638 1.8568259 14.781953
3.0809858 0.45286629 1.8167942 14.467151
3.2296712 0.62249798 1.798335 13.169408
5.4171896 0.54518473 1.7924027 13.470661
-5.6436806 1.0362844 1.9310553 11
-2.8219683 0.85418391 1.766842 11
-2.5953619 0.97665364 1.8088092 11.416667
-2.2873631 0.99610871 1.8088109 11.557143
-1.8130614 0.96964818 1.8023467 13.737587
-1.3383503 0.98136514 1.8095396 11.666667
-0.96341819 0.97556686 1.8107482 11.722222
-0.10318154 0.92852974 1.9064271 12.002748
0.23665035 0.95457733 1.8065602 13.72631
0.47318822 0.96135998 1.756261 14.200379
3.1806824 0.97906542 1.7664218 14
3.2286921 0.91822463 1.7685735 14.722222
5.4473248 1.0237308 1.8185651 13.974252
-8.7646675 1.4484637 1.8118501 12
-5.5977659 1.3583736 1.7827861 12
-2.8512731 1.2708567 1.7600921 12.5
-2.6396904 1.363095 1.8028089 12.821428
-2.3112564 1.377872 1.8080546 13
-1.8508158 1.3104421 1.780665 14.833333
-1.353936 1.4255948 1.7976182 13.5
-0.97718376 1.403525 1.8212245 13.5
-0.78259134 1.3724728 1.9867375 13.5
-0.17489642 1.3024507 1.7925167 14.025
0.24556945 1.3293971 1.7997659 14.703999
0.45447308 1.2947133 1.6885757 14.875
5.4385166 1.3752087 1.8407745 14.725926
-8.7760115 1.8830345 1.8038359 13
-5.6128631 1.7017184 1.7812202 13
-2.8704689 1.8379979 1.7563443 14.5
-2.6428418 1.8370025 1.7888093 14.560607
-2.3261628 1.7813286 1.8035692 14.5
-1.3677957 1.8010769 1.8139204 15
-0.9842307 1.7663841 1.8136462 15
-0.27628231 1.6117245 1.6160781 15
0.32992387 1.6000448 1.9489999 15
-5.6467943 2.0550253 1.7928827 14
-2.6551661 2.0441856 1.9880489 15
-4.8095679 -0.075981915 2.3042352 7
-4.5666623 -0.10720545 2.2482324 6.5648146
-4.1778841 -0.061938349 2.115171 6.5885415
-3.6960175 -0.11199555 2.1595314 5.1052632
-3.415832 -0.095599018 2.2465403 4.7352943
-3.0881357 -0.070349343 2.18818 4.2059922
-2.587569 -0.075866543 2.2038641 5.2857141
-2.2963498 -0.22246033 2.1950223 6.75
-1.7007748 -0.058291391 2.1630392 6.1977777
-1.5001076 -0.015471943 2.2032347 4.1864405
-0.98208189 -0.13611525 2.2876258 7
-0.22058496 -0.16213605 2.1622846 3
0.18869461 -0.083413899 2.2103643 6.0370369
0.61978775 -0.10495768 2.2040687 6.7669086
1.0370349 -0.12172563 2.1826108 13.179363
1.3975463 -0.11673978 2.2462475 10.572223
1.7972857 -0.10660608 2.1697326 4.8904762
2.1873262 -0.085107043 2.1681454 4.9496551
2.6024225 -0.095667727 2.1816826 5.1208105
3.1449237 -0.11983165 2.2080369 6.067307
3.3902547 -0.096272454 2.1828856 14.493234
3.8234863 -0.078521803 2.2103381 4.5666666
4.1922383 -0.13689946 2.1796641 4.2611547
4.5730462 -0.14714658 2.1824336 4.6701827
4.9823961 -0.15494937 2.1439867 5.0212765
5.4266562 -0.076141536 2.1581481 6.6907663
-5.7220368 0.36697865 2.1155593 9
-4.8088069 0.16679402 2.3040242 9.7777777
-4.5560403 0.16374445 2.2625434 9.968749
-4.1865897 0.2082174 2.1107574 10.221991
-2.8666122 0.16543517 2.1048195 8
-2.5993459 0.16694117 2.0751839 8.1190472
-2.1942806 0.12728481 2.1639178 6.7121205
-1.7371978 0.12613843 2.1793423 7.8066978
-1.3405185 0.02899134 2.223201 4.5632911
-1.0037919 0.037179962 2.197876 5.1444445
-0.74380165 0.32778227 2.3202293 9.6843891
-0.10141045 0.19914037 2.275713 7.6321945
0.12090395 0.17023626 2.187978 9.4038363
0.51467496 0.24688311 2.202491 8.8942947
0.99041778 0.26532328 2.1657441 8.58389
2.2258184 0.22604334 2.0045469 11.879386
2.4411869 0.17781118 2.003628 11.391706
3.1460919 0.14865367 2.2003925 11.985398
3.2367725 0.26276159 2.175837 9.3099527
5.4208279 0.21486038 2.1746638 10.318676
-5.7332158 0.71170062 2.1111124 10
-4.8402882 0.52662867 2.3427811 13.71875
-4.5305338 0.48997122 2.2435718 14.074519
-4.2144055 0.50499791 2.1107428 14.080128
-2.9444079 0.5916093 2.1004493 9.5
-2.6171577 0.58786225 2.0885918 9.6000004
-2.2069664 0.64354175 2.0839534 9.958334
-1.7761002 0.58804172 2.1797488 13.175867
-1.348964 0.58734035 2.0170708 10
-0.9213168 0.59382206 2.177897 10.360333
-0.67927402 0.58002287 2.3130555 12.672314
-0.10282246 0.61747926 2.2257936 12.371174
0.12721391 0.58276683 2.1364274 11.369879
0.52022332 0.62297529 2.187701 11.430215
0.97629809 0.59758925 2.1552336 10.139417
3.1172793 0.48929387 2.1685462 14.121325
3.2264085 0.64533639 2.161217 12.64633
5.4122319 0.55679578 2.178674 13.541655
-4.1885705 0.87680489 2.1983545 15
-2.9491169 1.0192648 2.0904574 11
-2.6223762 0.9705525 2.0742495 11
-2.2488277 1.0193405 2.0810425 11.333333
-1.8375769 0.98066312 2.1827042 13.497837
-1.3639705 0.95647687 2.0175643 11.5
-0.907188 0.95089257 2.2077928 12.288889
-0.74137533 0.93859327 2.306881 14.216323
-0.084938437 0.98647088 2.2362933 12.804106
0.17073055 0.97810614 2.1572449 13.707722
0.4791435 1.014328 2.1731575 14.338889
3.1816313 1.0154914 2.1402392 13.8
3.224046 0.91927272 2.1871216 14.597222
5.4359527 1.02765 2.2118328 13.806084
-5.7780252 1.4124042 2.118592 12
-2.9578199 1.453414 2.0834758 12.5
-2.5687075 1.3858614 2.079479 12.515151
-2.180131 1.4370568 2.0692456 12.952382
-1.8604457 1.3304341 2.1603196 14.894666
-1.3789952 1.4562783 2.0101647 13.5
-0.96918774 1.4172881 2.1570156 13.4
-0.78570437 1.3664483 2.2836611 13.25
-0.11953943 1.3535641 2.1952548 14.3771
0.16427392 1.3580849 2.1871498 14.658731
0.65650487 1.4152298 2.1426041 14
5.4223371 1.3585778 2.2236025 14.380952
-5.7820807 1.7656024 2.1084988 13
-2.9416277 1.8876384 2.0776937 14
-2.5610566 1.8195267 2.0688863 14.1
-2.1950903 1.8248862 2.0658619 14.363636
-0.9361226 1.7690207 2.2024629 14.8
-0.79326487 1.7610193 2.0755723 15
-0.08439517 1.7066056 2.3056672 15
0.65896475 1.6255265 2.080971 15
5.3643756 1.6866633 2.2509198 14.533333
-5.8415732 2.1376996 2.1391742 14
-2.9454441 2.1867704 2.071152 15
-2.585402 2.1093583 2.0679662 15
-2.2522714 2.0690711 2.0768242 15
-5.0038209 -0.086284831 2.7071648 7
-4.5644727 -0.10487935 2.6320531 6.5354939
-4.3223271 -0.066904627 2.5450242 6.6315789
-3.7800846 -0.06926088 2.6028044 6
-3.3178389 -0.083750851 2.5815651 4.9439998
-3.0051799 -0.065468609 2.5689602 4.5539217
-2.6100814 -0.046214465 2.6013088 4.0975609
-2.1909487 -0.024190366 2.6196206 4.1421051
-1.7921612 -0.017053338 2.6068277 4.577558
-1.5746945 -0.00067404553 2.6508658 4.4761906
-0.92816681 -0.12869051 2.5246015 7
-0.65062934 -0.12061312 2.6679595 7
-0.20853418 -0.14640227 2.6797111 6.1111112
0.17002441 -0.091344625 2.5640337 5.8218393
0.59385169 -0.12193563 2.6332545 5.1034484
0.98485941 -0.1165947 2.61321 6.084362
1.3938125 -0.12120032 2.5434332 12.844135
1.8020252 -0.1081128 2.546834 14.349673
2.2002974 -0.097301692 2.5922635 13.217777
2.5999825 -0.091076627 2.5912719 12.284313
3.1318064 -0.12131692 2.560869 8.5023174
3.3106124 -0.11003292 2.5353115 8.8083696
3.8186805 -0.078350216 2.6118746 4.5770831
4.2133512 -0.15978272 2.5528636 4.0950851
4.5298338 -0.15501909 2.5975642 4.8175297
4.9043002 -0.14210212 2.5639074 5.4473686
5.429256 -0.077157862 2.5657506 6.7294993
-5.9091706 0.38583887 2.4723589 9
-5.0131469 0.16063716 2.7026291 9.4789734
-4.626719 0.1708218 2.6228421 9.7920589
-4.3376145 0.21259354 2.5355973 9.7406235
-2.5050459 0.0034949232 2.5077965 6
-2.2214801 0.017211461 2.6371512 4.8421054
-1.7626076 0.10057021 2.5973356 6.5117884
-1.4185934 0.021777403 2.6670012 4.8757963
-1.1354951 0.039233308 2.4793117 5.1481481
-0.47187793 0.25679204 2.6947746 8.3052816
-0.21949288 0.21995603 2.6153309 7.8505969
0.12466903 0.19498071 2.5433953 9.3533449
0.40257233 0.25702584 2.4902368 9
2.2376361 0.38991871 2.7007582 8.6365004
2.4526017 0.051351923 2.7024529 7
3.1601896 0.17110342 2.5714395 12.22016
3.2351327 0.27637106 2.5843289 9.2190466
5.419055 0.19128674 2.5775726 9.425395
-5.9336133 0.74452031 2.4776552 10
-4.9926243 0.56796741 2.6505823 13.602216
-4.604239 0.53045022 2.6041296 13.797249
-4.3208914 0.58608109 2.5256774 13.661855
-1.7673209 0.63009363 2.6051204 12.704004
-0.46551719 0.71656954 2.7058859 13.959381
-0.20610946 0.63861561 2.6061878 12.481573
0.15037706 0.6287874 2.5764887 11.251755
2.2266657 0.73050082 2.6836865 10.1365
3.153909 0.47266239 2.5741477 13.893229
3.2222929 0.65478826 2.5339818 12.219523
5.4181399 0.56693256 2.5735216 13.438659
-5.9433036 1.1045833 2.4714677 11
-4.4596367 1.0697629 2.7866664 13.333334
-4.3268294 0.91787606 2.5994213 14.320834
-1.7958069 0.94220728 2.6009333 13.96656
-0.78036523 0.94923306 2.4027016 11.5
-0.15775852 0.93591154 2.579087 12.623688
0.12948413 1.010093 2.5563569 13.561926
2.4109786 1.0452046 2.48071 11.5
3.1723108 0.94919246 2.6045732 14.055555
3.217777 0.93037373 2.5658684 14.397436
5.4067659 0.90223974 2.613673 14.43172
-5.9811597 1.4726484 2.4868047 12
-4.4020267 1.4564162 2.7737079 13
-4.2538996 1.2259029 2.7709014 14.333333
-1.8605285 1.3247483 2.5904737 14.825175
-0.15808313 1.3421478 2.6055303 14.094444
0.081431799 1.3449361 2.5333846 14.583334
2.3970361 1.5014869 2.4820912 13.5
3.1566823 1.3402123 2.5403631 15
5.4240575 1.3769792 2.6199877 14.452381
-6.008348 1.8447249 2.4937203 13
-4.476253 1.8182676 2.7849822 14
-0.16204706 1.6708474 2.5894952 15
0.1559276 1.7273514 2.4800625 15
2.3860829 1.8513098 2.4778788 15
5.4159703 1.7588412 2.5891762 14.785714
-6.0447345 2.2257104 2.5074275 14
-5.264133 -0.096419275 3.1246018 7
-4.9179778 -0.086828776 2.9583278 7
-4.6005974 -0.062091183 2.9957373 6.9333339
-4.2380466 -0.12802181 2.9713924 6.2644629
-3.7642927 -0.1531575 3.0681252 6.375
-3.4764881 -0.087133862 2.9806011 6.1999998
-2.9554844 -0.057187442 2.9142051 5.0679612
-2.6063681 -0.034278758 3.0191405 5.0495048
-2.1767488 -0.022747684 2.9856308 4.8280001
-1.8582054 -0.02191899 2.9651897 5.2666669
-1.0273962 -0.1947159 2.9894035 6.8000002
-0.52271384 -0.13368069 2.9855709 6.5
-0.15792528 -0.13390858 2.9517996 5.75
0.19199742 -0.11309622 2.9869697 5.6538463
0.60288763 -0.13038734 3.0054708 4.9242425
1.0156195 -0.11553986 3.0075638 4.7763157
1.3915013 -0.10889415 2.9936073 4.8870969
1.7792789 -0.11655311 3.0254824 4.685185
2.2078187 -0.1126368 3.0204041 5.1999998
2.5909252 -0.10720966 2.9486656 5.3214288
3.1533949 -0.12123099 2.9532731 6.3751211
3.4100518 -0.088223502 3.0009449 4.5188174
3.8024597 -0.073403314 3.0168428 4.7499995
4.205029 -0.14385943 2.9247701 5.1157656
4.5240746 -0.1258723 2.9417765 5.4949493
4.9472747 -0.11112827 3.0190437 6.1999998
5.4234891 -0.076586008 2.9968455 6.7727499
-5.2152591 0.18256146 2.99069 9.5
-4.9995179 0.16899027 3.0023234 9.5024929
-4.5958476 0.20935018 3.017808 9.5005598
-4.277638 0.18709868 2.9662292 9.1258955
-3.8301508 0.38711354 2.9706924 9.5
-2.4815474 0.014618897 3.0158145 5.6666665
-2.1169875 0.014930367 3.036505 5
-1.7753885 0.12602232 2.9865935 7.198103
-1.4915806 0.05380477 2.920392 5.3636365
-1.0020963 0.079005308 2.9271412 6
-0.57605118 0.24729341 3.0872014 8.1990204
-0.26436865 0.18814039 3.033196 7.4882355
0.16538787 0.24893989 2.9575021 8.7619047
0.46215093 0.0046919929 3.116647 7
1.5002725 0.06112726 3.1697795 7
2.0891929 0.079738215 3.188266 7
3.1635497 0.22204214 2.9816134 12.356261
3.23276 0.31448632 2.9525621 9.2866659
5.0494356 0.22758952 3.1066506 8.7433386
5.4216862 0.18478775 2.9705353 9.1839046
-6.1344924 0.59329736 2.8683755 9.5
-5.2314744 0.54879427 3.007663 12.756302
-4.99683 0.62777257 2.9950657 13.878684
-4.5995641 0.60247415 3.0099514 13.066545
-4.2901044 0.61156183 2.9787047 11.070512
-1.7604914 0.62133527 3.0262892 12.382349
-0.55680901 0.72090864 3.0639918 13.866161
-0.26954976 0.56999123 3.0092771 11.218189
0.1739054 0.6569773 2.9971137 11.224999
3.1513753 0.47831607 2.9844909 13.840456
3.2266564 0.66413599 2.9458086 11.678572
5.0351777 0.52847564 3.0972924 10.547151
5.4228806 0.58063871 2.9696016 13.075384
-6.1619945 1.1551889 2.8685682 11
-5.2307906 0.80764288 3.0219262 15
-5.1793823 0.80457449 3.1424589 15
-4.5014391 1.0109924 3.0472059 13.45977
-4.2863293 0.97750604 2.9667466 12.736842
-1.774434 0.94687736 3.0252881 14.125992
-0.46412656 0.92397106 3.0644336 12.4075
-0.17966959 0.9646498 3.0196867 12.992472
0.18799548 1.0356638 2.9675498 13.58264
3.1603391 0.89890277 2.9966941 14.522223
3.2153575 1.0003604 3.0069916 13.847222
5.4146719 0.92417884 2.9910009 14.407904
-6.20717 1.5394297 2.8898695 12
-4.5077267 1.454465 3.0992186 13.55
-4.3029404 1.3624367 2.9475596 14.034721
-3.9305003 1.3817102 3.1722441 12.5
-1.8588049 1.3202772 2.9657571 14.757143
-0.45409119 1.3813624 3.0976067 13.166667
-0.1545644 1.3757651 3.0240057 14.367816
0.13768585 1.3015807 3.0931158 14.5
3.1433828 1.2781458 2.9882829 14
5.413528 1.3765599 2.9804473 14.69
-6.2203536 1.9236046 2.8854864 13
-4.5255184 1.8106283 3.0713069 14.411765
-4.3268805 1.7183949 2.9404235 14.3
-3.9665945 1.8865048 3.1727321 14
-0.46609354 1.8036878 3.1064544 14.820999
-0.25153938 1.7173574 3.0460331 14.907679
0.30091405 1.7615876 3.0489681 14.5
5.4462528 1.8235836 2.9308763 15.084249
-4.5341568 2.0154345 3.0679369 15
-5.4069595 -0.10335638 3.4383111 7
-5.0806775 -0.09109854 3.4648843 7
-4.6267948 -0.055066634 3.3187509 7.130435
-4.1405315 -0.12511173 3.2641428 6.448276
-3.8337049 -0.089125454 3.4236543 6.016129
-3.4735656 -0.067008458 3.5020957 6.0666666
-3.0239046 -0.079135165 3.3194604 6.25
-2.6013036 -0.20517638 3.4142542 7
-1.7673427 -0.085300766 3.5044563 7.090909
-0.93804097 -0.17091893 3.4283221 6.1875
-0.5323388 -0.14283161 3.4575975 6.3333335
-0.19113131 -0.091495909 3.3921003 6.647059
0.20510066 -0.12373559 3.3701901 5.6399999
0.58338809 -0.13124225 3.3988271 5.2307692
1.0411215 -0.096697003 3.4189072 5.8983335
1.3787942 -0.096811526 3.4259851 5.5295458
1.7948195 -0.10073712 3.3948565 4.5725927
2.206769 -0.09611246 3.4180646 4.3379631
2.5900228 -0.097955622 3.3682327 4.7191358
3.1493874 -0.10983055 3.3854063 6.6564536
3.3906074 -0.081679918 3.3960998 4.9139781
3.7947907 -0.072305851 3.3650889 4.9797978
4.2023401 -0.062421881 3.3640671 5.3076925
4.5484343 -0.13881035 3.4071114 6.0242419
4.9121189 -0.095547162 3.4248247 6.4705129
5.4139795 -0.090672106 3.3749835 6.75109
-5.377696 0.14225587 3.4152529 9
-4.9580193 0.19693662 3.4246562 9.48491
-4.6112909 0.22359151 3.3855798 9.2493792
-4.3097653 0.15345037 3.2772844 9
-3.9891598 0.24373876 3.2992432 9
-2.9437375 0.0056723393 3.4910882 6
-2.5310931 0.015807424 3.4095113 6
-2.1531529 0.032381047 3.4136894 6
-1.7792978 0.18661679 3.399663 8.7631893
-1.4061191 0.081269987 3.4119167 6
-0.88229692 0.19914532 3.4443834 7.5893211
-0.60388333 0.1777636 3.4352043 7.187202
-0.23079281 0.21971492 3.3569143 8.2626257
0.048813879 0.23419578 3.3762453 8.5
1.0480584 0.026559811 3.2492402 7
3.1630633 0.21423464 3.3569176 11.455065
3.2278891 0.34600359 3.3909173 9.28125
4.7906752 0.24331629 3.5803082 9.5714283
4.9642954 0.19576396 3.4439821 8.8339214
5.4208889 0.18575282 3.3768432 9.1824903
-6.3597722 0.43017054 3.2979801 9
-5.3773489 0.54672581 3.4307184 12.285712
-4.9584928 0.59704572 3.4135048 12.994253
-4.6066046 0.62648433 3.3897505 11.840266
-4.2167439 0.49982294 3.3908756 10.738096
-3.9094861 0.78211963 3.2307513 10.666667
-1.7735689 0.61283654 3.4052417 12.034732
-0.87858486 0.66541028 3.430831 13.021225
-0.58917814 0.60179442 3.4367464 12.032515
-0.2425482 0.60016668 3.3604269 10.401066
0.097221315 0.62179065 3.2606769 10.875
3.1370184 0.51653129 3.3715749 13.65253
3.2194078 0.66523737 3.4194903 11.285714
4.7638073 0.5619126 3.5412865 14.049374
4.9400969 0.55120969 3.4165218 12.444303
5.4263411 0.60019267 3.373142 13.091936
-6.3889632 1.0144567 3.2989457 10.5
-5.4313664 0.85969961 3.4284124 14.666663
-4.9771762 0.83549595 3.4174426 14.871795
-4.6031842 0.9799636 3.4221342 13.21335
-4.2446713 0.88361073 3.375222 12.375
-1.7860281 0.96102041 3.3911145 13.816231
-0.8719964 0.84533042 3.4667656 15.122334
-0.49650732 0.91264355 3.4527154 13.66629
-0.24977687 0.99962223 3.3589778 12.588455
0.076073587 1.0541223 3.2387357 13.5
3.1549182 0.99047571 3.3943577 14.068627
3.2086442 1.0284351 3.4515061 13.25
5.4257364 0.93043876 3.389298 14.411544
-4.8596106 1.4575322 3.4730825 12.75
-4.5757165 1.4194412 3.4346011 13.765625
-4.2793837 1.3547513 3.4298732 14.125
-1.8547304 1.3237115 3.3972986 14.728023
-0.52988261 1.3534201 3.4997513 13.583333
-0.26049682 1.3910489 3.3684587 14.115385
0.048977226 1.3141873 3.2453716 15
3.1610436 1.3669703 3.3809059 14.2
5.4308286 1.3728136 3.3934484 14.751548
-6.4289556 1.6081343 3.3085144 12
-4.8850164 1.8519273 3.4672418 13.875
-4.6230745 1.7768385 3.4533634 14.25
-4.3642445 1.9104865 3.3239317 14
-1.9185708 1.8448372 3.5945518 13.5
-0.5953393 1.7746344 3.4639678 14.4
-0.27835575 1.7155726 3.3294463 14.95
5.385746 1.7190793 3.4928265 14.905286
-6.4565597 2.0112286 3.3153884 13
-4.6047864 2.0656252 3.3928802 15
-1.9290001 2.3173654 3.5894864 15
-5.4308915 -0.10633627 3.8268948 7
-4.8949485 -0.059388559 3.6959164 7
-4.5611157 -0.055166956 3.8021786 7.0847459
-4.2504778 -0.055446059 3.9113002 7
-3.6420336 -0.077874452 3.6156702 6
-3.3888187 -0.062009517 3.7444253 6.0279722
-2.9757955 -0.038804963 3.9025881 6.0270271
-2.5539498 -0.018716997 3.8996484 6.03125
-2.2968431 -0.05536015 3.8975387 6.2727275
-1.7539566 -0.090743788 3.8104064 7
-1.3830459 -0.09850283 3.9812605 7
-0.8735261 -0.12592246 3.8062842 6.6666665
-0.6052925 -0.13076864 3.8430004 6.3930554
-0.22530676 -0.099120438 3.8502154 6.5956988
0.20739549 -0.089254536 3.8662055 6.5993829
0.62049764 -0.083169661 3.8397386 6.6087303
1.010469 -0.076562434 3.7883372 6.3157406
1.3747616 -0.071728975 3.7752488 6.1338387
1.8080598 -0.07505881 3.843924 6.6044645
2.2153482 -0.076838531 3.8246765 6.2696428
2.6087406 -0.075527839 3.8190155 6.0854168
3.0733323 -0.089273416 3.7747376 6.25
3.407717 -0.074213773 3.8201766 6.2194448
3.7673931 -0.073811136 3.8409789 6.2608695
4.231679 -0.07814116 3.848958 6.6923075
4.5510716 -0.14487962 3.7822828 6.1117458
4.9147911 -0.11256828 3.7443135 6.4098835
5.39256 -0.065469198 3.7633455 7
-5.659276 0.16240257 3.7401993 9
-5.414979 0.15336208 3.7886417 9
-5.0116329 0.18253906 3.8566434 8.9925375
-4.5966024 0.20156996 3.8274379 9.0082569
-4.270731 0.15690686 3.8891675 8.9367065
-2.9468281 0.0021213144 3.8178244 6
-2.6817226 0.016724428 3.8841598 6
-2.1598799 0.033963062 3.8249402 6
-1.7754848 0.086348854 3.8583031 7.0560684
-1.3970002 0.053451214 3.8151438 6.0888562
-1.0004267 0.18594892 3.7459235 7.5303016
-0.63988882 0.21974285 3.7767119 7.9899859
-0.23931569 0.20060572 3.8328495 9.1939669
0.24518825 0.18226634 3.8829532 9.3862743
0.64564931 0.19299467 3.8842571 9.4214764
1.024058 0.18970336 3.8793242 9.2591763
1.4215654 0.19947788 3.8751838 9.2923632
1.8033932 0.20808959 3.8790483 9.2334642
2.1994789 0.21267052 3.882941 9.1653566
2.5948768 0.20120616 3.8848991 8.9775887
3.1191516 0.15972723 3.7850649 9.5068712
3.4041021 0.22814125 3.8671353 8.8480234
3.8516014 0.20495985 3.8841186 8.6456575
4.2365746 0.21336174 3.8936875 8.6179171
4.6705403 0.21293078 3.8171639 8.7791338
4.9770255 0.20394129 3.7608669 8.719696
5.4392581 0.195712 3.7764881 9.1464024
-6.6245408 0.45606059 3.7741926 9
-5.6753864 0.56953371 3.7529955 11.931818
-5.430779 0.56469417 3.8154821 12.126728
-5.011682 0.58802241 3.8414342 12.022955
-4.6695914 0.60071367 3.8270924 11.107763
-4.2656236 0.52949041 3.7829552 10.5
-2.5084414 0.63324857 3.9476986 9.5
-2.3464692 0.56962138 3.8657122 9.5
-1.7719175 0.62157255 3.8128927 11.911411
-1.3672971 0.66854566 3.9489632 13.731155
-1.0072551 0.69225353 3.8099241 12.89281
-0.62936467 0.60750538 3.7961328 11.69968
-0.17904031 0.62786007 3.8610809 12.931127
0.24303026 0.57015836 3.8824167 12.946048
0.63903052 0.58087313 3.8883011 13.07865
1.0324405 0.59405714 3.8804011 12.789421
1.4214634 0.58334726 3.8812058 12.5588
1.8083007 0.59147173 3.8869469 12.49241
2.2056503 0.60646808 3.8825951 12.210008
2.6056988 0.60467017 3.8899207 11.98811
3.1152267 0.53584808 3.7797844 13.152088
3.3980818 0.61118007 3.8678257 11.241224
3.8515296 0.60678148 3.8879805 11.051346
4.23033 0.61645192 3.8912468 10.837613
4.7116466 0.56100988 3.8135071 11.63257
4.9775739 0.53972101 3.7652943 11.058739
5.4359803 0.6111058 3.768539 12.701688
-6.6484227 0.8629306 3.7781312 10
-5.6759701 0.92975295 3.7704775 14.461538
-5.4013906 0.88535458 3.7727706 14.598037
-5.0342269 0.91621619 3.8692541 14.394123
-4.6964974 1.0053297 3.8354139 12.646582
-4.2956018 0.93107778 3.794908 12.633333
-2.5331154 1.1193963 3.9547033 11
-2.3785551 1.0515846 3.8869772 11
-1.788415 0.96223396 3.8136282 13.618856
-1.3412119 0.92065358 3.8575585 14.821042
-0.98990941 0.96098399 3.8860252 13.770903
-0.57239687 0.95737416 3.8214254 13.390036
-0.19198415 0.94539291 3.8197386 13.989645
0.25412127 0.91967958 3.8546543 14.69094
0.63225496 0.93057531 3.8611982 14.631818
1.0286831 0.94258636 3.8610477 14.661111
1.431434 0.93314099 3.8634534 14.437181
1.8197837 0.93769354 3.8658454 14.438384
2.2105367 0.95058888 3.8732152 14.391088
2.6201952 0.95216429 3.8847528 14.246429
3.0606301 0.9725374 3.8616359 14.108248
3.4143317 0.99921268 3.8731337 13.667624
3.8456464 0.9991641 3.8927968 13.349451
4.2450924 1.0096378 3.8954997 13.006991
4.629374 1.0448909 3.887547 12.795503
4.9626184 1.0328759 3.8860092 12.494379
5.4185567 0.94735146 3.7868011 14.263275
-6.6556802 1.2709537 3.7677171 11
-4.8996739 1.351199 3.8359468 13.555555
-4.6868205 1.4067471 3.8333771 13.769608
-4.2789779 1.3743048 3.7902439 14
-2.5397334 1.4451972 3.9437661 12
-2.3865049 1.3744001 3.8802829 12
-1.8613988 1.3454738 3.7888849 14.260216
-0.92381817 1.3438197 3.8843162 12.666667
-0.54188126 1.3853077 3.8197541 13.668056
-0.33829305 1.3911203 3.6388512 14.069446
2.2678816 1.2114969 3.9032891 15
2.6218646 1.2532161 3.8883352 15
3.0406594 1.3015763 3.8674057 14.804348
3.4529822 1.3250593 3.8739798 14.833335
3.8483582 1.3376142 3.8793986 14.71649
4.2306218 1.3747035 3.8866856 14.721078
4.6141572 1.3875487 3.8910801 14.564166
4.9706783 1.3819761 3.8908761 14.233335
5.3780169 1.3964051 3.7850599 14.367974
-6.707273 1.6903579 3.7949932 12
-4.9969339 1.8354647 3.7841413 13.857142
-4.748466 1.784521 3.855011 14.366667
-4.1570044 1.6533453 3.7338784 13
-2.5549383 1.7771788 3.9460917 13
-2.3956969 1.7009069 3.8755774 13
-1.9425052 1.7296665 3.8400404 13.083333
-0.93063736 1.6938968 3.8656042 14.4375
-0.55252534 1.7635206 3.7719495 14.694431
-0.38026786 1.6965218 3.6153929 15
3.0881801 1.772509 3.9771943 15
4.6923766 1.632026 3.8953652 15
4.9929953 1.6765985 3.8725357 15
5.3616309 1.7248394 3.7812629 15.022062
-6.7138944 2.1073434 3.7836635 13
-4.8243432 2.0572965 3.939204 14.833333
-4.6909533 2.065587 3.7720206 14.375
-4.1635027 2.0062428 3.711962 14
-2.5164223 2.0871904 3.9240882 14
-1.9520713 2.1716163 3.8312554 14.458333
-0.80559909 2.0292189 3.6977036 15
-0.72133607 2.0661702 3.7588801 15
-6.0167685 -0.12822148 4.3566303 7
-5.9921169 -0.12662041 4.3653507 7
-5.2380066 -0.094975799 4.0166693 7
-5.0600443 -0.068002596 4.165287 7.1034484
-4.6554093 -0.18413317 4.2191291 7.1666665
-4.1706882 -0.030118739 4.1069427 7.048193
-3.8480184 -0.032013174 4.2005253 7.2699566
-3.3653777 -0.16382512 4.30758 7.3253236
-2.9829879 -0.10210247 4.1158853 6.4285712
-2.5858464 -0.030098006 4.0479126 6.0749998
-2.3101523 -0.025388591 4.0279918 6.090909
-1.7479979 -0.076739065 4.1147709 7
-1.417661 -0.084050827 4.1500001 7
-1.0097119 -0.076573864 4.1651487 7
-0.59564388 -0.071123324 4.1521111 6.9418797
-0.19271158 -0.066461653 4.1628237 6.8511367
0.19714691 -0.060895648 4.1348128 6.7300005
0.58812958 -0.076327033 4.1071053 6.5545459
1.0192449 -0.077724226 4.087234 6.6166663
1.4147842 -0.041305214 4.1496067 6.6959772
1.7890943 -0.041706044 4.1408525 6.5282097
2.1850438 -0.042912979 4.1288772 6.4775391
2.5725262 -0.041737624 4.1241608 6.3833637
2.979002 -0.037801243 4.1336503 6.5178342
3.3732243 -0.033126164 4.1362171 6.5135336
3.7845004 -0.027081229 4.1518207 6.7090278
4.191381 -0.033909027 4.1429319 6.6764951
4.5930591 -0.026631586 4.138804 6.7745371
4.9462609 -0.037028827 4.1182752 6.9404759
5.4378948 -0.068296678 4.1363821 7
-6.8402762 0.060391739 4.2477617 8
-6.1154566 0.1147441 4.3844767 8.5
-5.7474966 0.1777046 4.1983285 9
-5.3013711 0.1821882 4.1899981 9
-4.9639916 0.24139683 4.2487383 8.9508867
-4.5853353 0.15436891 4.1348028 8.7911663
-4.1565318 0.17885379 4.1750708 8.8121243
-3.8171756 0.14773467 4.288939 8.3264256
-3.4792173 0.044290237 4.3429809 7.3342352
-2.4947102 0.034007087 4.0748754 6.2222223
-2.1253405 0.029845873 4.0608873 6.1132073
-1.7667536 0.16171321 4.1089053 8.2262821
-1.3321555 0.23164882 4.1445584 8.6100864
-0.99496794 0.23330255 4.1800632 8.2868252
-0.62213403 0.20589496 4.1755447 8.5156345
-0.20014882 0.22108306 4.1775451 9.5041361
0.20584175 0.20818084 4.1686335 9.6713209
0.61101711 0.23082595 4.168797 9.9842987
1.0044833 0.22853406 4.1755929 10.066053
1.4118868 0.21444389 4.1629114 10.146481
1.7918183 0.21927938 4.1655698 10.186106
2.1999447 0.21852873 4.1786656 10.013349
2.6123898 0.22726864 4.1751375 10.185187
3.047061 0.19993572 4.1852217 9.6163559
3.3740692 0.22318286 4.1854191 9.7046719
3.8217866 0.21276107 4.184464 9.3939199
4.2027531 0.20382433 4.205698 9.0422325
4.6073294 0.17939252 4.2038674 8.6405058
5.0064979 0.18831499 4.2099485 8.6443892
5.4471078 0.19572417 4.1571918 9.1582403
-6.9147811 0.48464578 4.2963915 9
-6.1371059 0.52621621 4.3755827 11
-5.7615891 0.55107218 4.1997705 11.5
-5.3166642 0.59442466 4.1843362 11.964912
-4.9751496 0.63775408 4.2492795 11.113501
-4.5618701 0.62454456 4.1552105 12.097058
-4.2889118 0.64907128 4.3163075 12.545455
-3.8766398 0.57314271 4.3777189 11.321401
-2.4882326 0.54871809 4.1895208 9
-2.3963253 0.43422568 4.3177719 9
-1.7413249 0.58356732 4.1323609 10.960938
-1.3550656 0.68026054 4.1550689 12.68369
-0.97578776 0.62558848 4.1738977 11.867774
-0.63153893 0.56703413 4.1782856 10.882992
-0.20346349 0.58037299 4.178906 12.828483
0.21061362 0.56728911 4.1667686 13.360045
0.60418975 0.55610728 4.1729116 13.404684
0.98673922 0.54575038 4.1733427 13.720594
1.4035922 0.53214997 4.1622934 14.02005
1.793425 0.52252626 4.1651969 14.050223
2.194526 0.54115576 4.1771908 13.890796
2.6043334 0.52753478 4.1732907 14.101625
3.0522072 0.56929332 4.1788092 13.522522
3.3779595 0.56557852 4.1871214 13.621559
3.8100133 0.58749318 4.1795044 13.639338
4.2152023 0.61425638 4.1942749 13.332829
4.6108727 0.63474244 4.1907816 13.077265
4.9839344 0.58371645 4.1862154 12.16274
5.4454303 0.6329214 4.1474276 12.947755
-6.910315 0.90839756 4.2746944 10
-6.1217432 0.96195221 4.3789864 13.62
-5.7918386 0.9365679 4.1926174 14
-5.3419547 0.95134342 4.1866736 14.440678
-4.9775395 1.0093018 4.2375708 12.935185
-4.5513287 0.95040154 4.1722879 14.055555
-4.3009562 0.92859149 4.2868924 14.269231
-3.9376104 1.0023125 4.3807573 14.75
-2.4695382 0.98832607 4.264317 10.5
-1.7469592 0.96827513 4.12149 13.260327
-1.4356011 0.94178069 4.233602 13.806141
-0.94644308 0.92991763 4.2087493 13.45167
-0.65864247 0.96226686 4.1725745 12.98655
-0.22086991 0.98456663 4.2168245 14.46914
0.18666029 0.94245827 4.2207446 14.558425
0.61422509 0.9249413 4.2364702 14.559524
1.0080132 0.90968448 4.2464356 14.5873
1.4218049 0.92124629 4.2308192 14.761404
1.8063004 0.91418183 4.2110782 14.692157
2.2076757 0.94241035 4.2540307 14.570665
2.6572325 0.93074924 4.2261963 14.793751
3.0940642 0.9484455 4.1907606 14.362425
3.3545697 0.90836596 4.1807761 14.817461
3.8742642 0.89044547 4.1356077 14.812318
4.2365456 0.94267958 4.1819825 14.712781
4.6486745 0.94493783 4.1555076 14.684137
5.0071836 0.95207334 4.1552815 14.400127
5.4218259 0.911771 4.1689744 14.593272
-6.9250493 1.3358879 4.269948 11
-6.161366 1.2055489 4.3703728 15
-5.2817869 1.3189514 4.3063846 12
-4.9240599 1.371537 4.2216711 13.5375
-4.5694814 1.4565424 4.2001801 14.083333
-4.3281102 1.5299766 4.0649304 13.75
-2.4891758 1.489705 4.2624869 12
-1.7957966 1.3655572 4.1568584 14.163542
-1.3876315 1.319168 4.2146206 14.841269
-0.96848249 1.3371921 4.2088223 13.836719
-0.65678924 1.3639219 4.19944 14.030205
-0.19562149 1.2384094 4.3071823 15
3.1618078 1.420922 4.262846 14.375
4.6559849 1.3752741 4.0458813 14.666667
5.0314851 1.2947993 4.1128926 14.925927
5.3848405 1.3328037 4.1469769 14.871212
-6.9904571 1.7769428 4.3097725 12
-5.3182526 1.6953988 4.3121986 13
-4.9642081 1.8064332 4.2365513 13.967742
-4.6295733 1.6828911 4.2189655 14
-2.4966049 1.8267977 4.2510819 13
-2.0040667 1.8053417 4.3404169 13
-1.8711627 1.7340705 4.2479248 13
-0.99397165 1.7475308 4.1663413 14.503572
-0.64756608 1.7865504 4.1671505 14.596154
-0.19489455 1.9486926 4.3839808 14
3.1081128 1.755281 4.179038 15
5.046123 1.6705908 4.0257688 15
-7.0130944 2.2174349 4.3115187 13
-5.0402808 2.0328267 4.2182622 14.333333
-4.3188152 2.0984585 4.122016 14
-2.520895 2.1754336 4.2670646 14
-2.0190241 2.145694 4.3458152 14
-1.8783648 2.0654178 4.2391496 14
-0.9339295 2.099194 4.2174554 15
-0.64406669 2.1134062 4.1142912 15
-0.18889999 2.240917 4.2981634 15
-5.8728576 -0.1243618 4.6243582 7
-5.2155643 -0.13570341 4.5977125 8
-4.9761124 -0.054429043 4.6113396 7.5999999
-4.4875298 -0.2754752 4.5795794 7
-4.1857624 -0.24786246 4.7748785 7
-3.31213 -0.029015644 4.4539003 7.9824834
-2.9470139 -0.13312642 4.4864144 7.3723669
-2.6471071 -0.18602367 4.5520802 7
-2.2053955 -0.18552525 4.691627 7
-0.8680495 -0.1007228 4.7266612 7
-0.71516532 -0.10974692 4.5547161 7
-0.37811565 -0.047645159 4.5808153 7
4.3896799 -0.0060315859 4.4284134 7
4.5761237 -0.045201465 4.5299883 7
4.9880662 -0.059589729 4.5487661 7
5.4510312 -0.077987514 4.598002 7
-6.1233487 0.11919707 4.5775204 8.5061731
-5.8990493 0.12973246 4.6686778 8.5840006
-5.4004068 0.21150933 4.5817447 9
-5.0357313 0.24325857 4.6029763 8.8301582
-4.5359087 0.14773171 4.6353049 8.75
-3.7269657 0.23288347 4.4498873 8.7262096
-3.4409113 0.17053574 4.4915099 8.2237101
-3.1301811 0.051321346 4.5008554 7.5648375
-2.2951417 0.23200506 4.6382713 7
-1.69218 0.2573202 4.7570391 8.1080132
-1.4115733 0.2557058 4.5266175 8.1728573
-1.0023371 0.17054568 4.6003613 7.109756
-0.71163386 0.23591931 4.5807686 8.2797613
-0.30519667 0.19908138 4.4591212 8.333333
2.3785751 0.26673776 4.47086 9.083333
2.6207433 0.17878732 4.5596418 8.5747662
3.0022478 0.1768571 4.5595894 8.781579
3.260185 0.20964073 4.5446019 8.811759
4.1894031 0.25770247 4.545207 8.9948864
4.6054168 0.19853312 4.5308208 8.5916653
4.9917603 0.17901538 4.5663137 8.5729666
5.4610219 0.20068064 4.5318723 9.036603
-6.1647081 0.52999985 4.6071544 10.916666
-5.9153848 0.5333187 4.6660428 11.0625
-5.4053936 0.58836085 4.5768642 11.405
-5.045907 0.62303746 4.5968685 10.683573
-4.5639935 0.5026049 4.6207185 10.25
-4.1268964 0.6149686 4.524734 10.759591
-3.8809412 0.58714122 4.4952531 10.857105
-3.4007885 0.54287875 4.5507326 10.55
-2.5360608 0.54955715 4.5211 9.125
-1.7447903 0.71771616 4.7584958 11.891304
-1.3614544 0.65699661 4.5017581 11.681818
-1.0025598 0.47707269 4.5522194 9.3800774
-0.69390583 0.60145295 4.5708523 9.9566669
-0.31541505 0.60846657 4.44978 10.166667
2.3880844 0.63414443 4.458312 11.575
2.6351357 0.58482862 4.5501752 11.069491
3.0698969 0.58242512 4.5504632 11.432933
3.2609138 0.55360979 4.567606 11.075758
4.1850901 0.63808876 4.5398927 11.417228
4.6049533 0.5952692 4.5289636 11.048034
4.9710569 0.55196047 4.5713434 11.006252
5.4325733 0.64109558 4.533565 12.1134
-6.404892 0.97618103 4.7377334 13.2
-6.1223307 0.96159184 4.5644069 13.491667
-5.8617759 0.95018512 4.6410742 13.654167
-5.4185696 0.97628367 4.590373 13.795978
-5.0711122 1.0097786 4.6024547 12.416039
-4.5552564 0.90598494 4.6288223 11.642858
-4.0988283 0.9296751 4.4796052 14.214286
-3.9153888 1.0360701 4.5437446 13.437195
-3.44157 0.98622805 4.5718894 12.5
-2.5142732 0.95368022 4.5326829 10.333333
-1.7523094 1.0532386 4.722579 14.106668
-1.387925 0.93038583 4.50599 14.10312
-1.0214392 0.94980729 4.540113 13.33997
-0.6905641 0.98298711 4.5554938 11.684999
-0.27664942 1.0335214 4.4534116 11.75
2.3680162 1.0115116 4.4576783 14.05
2.6316385 0.99954361 4.5466723 13.557143
3.0629587 0.97205174 4.5538993 13.812572
3.266242 0.9794296 4.583652 13.685715
4.1785746 0.99794364 4.5402889 13.641473
4.59657 1.0063632 4.5263977 13.536641
4.9626966 1.0174915 4.5551429 13.53275
5.4034557 0.95455557 4.55125 14.009716
-6.4093628 1.3088601 4.7102222 15
-6.1544747 1.2368633 4.5970402 15
-5.9645443 1.2110028 4.741756 15
-5.2819366 1.3909839 4.6371684 13
-5.0764647 1.3661329 4.5975809 13.571428
-4.5815582 1.3175472 4.5998044 13.261905
-4.0195665 1.3834267 4.6033525 14
-3.9535813 1.3145927 4.5770006 14.4
-2.5918021 1.4338527 4.5082884 11.7
