# .PCD v0.7 - Point Cloud Data file format
VERSION 0.7
FIELDS x y z intensity
SIZE 4 4 4 4
TYPE F F F F
COUNT 1 1 1 1
WIDTH 1148
HEIGHT 1
VIEWPOINT 0 0 0 1 0 0 0
POINTS 1148
DATA ascii
-0.85181665 2.2599995 -9.3665276 28.166666
-0.6464088 2.2498734 -9.3708248 27.951168
-0.25159177 2.2348015 -9.3738766 27.870188
0.18917365 2.2560856 -9.3748045 27.489719
0.59519714 2.2513063 -9.3750458 27.763283
1.0039033 2.2511375 -9.374588 27.951654
1.374337 2.251339 -9.374238 28.018518
1.7641975 2.2509036 -9.3743362 28.052271
2.1579776 2.243365 -9.3747063 28.036938
2.5363865 2.2477355 -9.3721323 28.511179
2.9703426 2.2587614 -9.3692818 28.950256
3.3492053 2.244488 -9.3519268 28.8528
3.7651608 2.2346194 -9.3529301 28.670425
4.1740847 2.2527642 -9.3533077 28.428896
4.5582552 2.2412364 -9.3520536 28.519474
4.9990902 2.235832 -9.3494606 27.979673
5.3453536 2.2883911 -9.3571043 28.387293
5.8666196 2.273735 -9.2573023 27.25
6.0163674 2.2440202 -9.2275314 27
-0.88100922 2.4069886 -9.3070221 27.153749
-0.55515629 2.4275165 -9.3862104 27.151085
-0.24077469 2.4102688 -9.3919868 27.14975
4.4290304 2.434783 -9.3944206 30.084499
-7.2849169 -0.034554645 -8.8741322 16.386604
-6.9912477 -0.031255018 -8.9068556 16.066656
-6.6069684 -0.041821163 -8.9608879 15.788427
-6.1854706 -0.047176395 -8.9762774 14.838076
-5.812429 -0.047289215 -9.0082226 14.263734
-5.3397698 -0.027071618 -8.9721193 14.913701
-4.9937711 -0.039347511 -8.9686832 13.335537
-4.598568 -0.047009613 -8.9410076 12.679327
-4.2058258 -0.046853106 -8.9761858 13.216721
-3.8010423 -0.047271214 -9.0032682 12.658192
-3.3971083 -0.047250301 -8.9738369 12.894315
-3.0010543 -0.047269318 -8.9643106 13.787267
-2.5943365 -0.046756282 -8.9643011 14.423874
-2.1908979 -0.03190672 -8.9579983 15.568041
-1.9852216 -0.0020795912 -9.1385098 17.585499
-0.90301007 -0.017797021 -9.0139303 18
-0.58641183 -0.047155954 -9.001893 17.00795
-0.17454703 -0.047656953 -9.1235762 17.061501
0.25178146 -0.038477916 -8.9731979 16.559547
0.5654918 -0.046085447 -8.9984255 16.332611
0.97033161 -0.045328185 -8.9817038 16.361956
1.4244933 -0.047439884 -8.9425287 15.649719
1.8033608 -0.047328547 -8.9512777 15.378716
2.2057316 -0.047380812 -8.919836 15.303756
2.5702529 -0.046730995 -8.9530401 15.434447
3.0038083 -0.047273017 -8.9617577 15.75235
3.3812742 -0.046311412 -8.9590864 15.758992
3.6487117 -0.039859533 -8.9951744 16.548
5.1460915 -0.042425696 -8.9701662 17.095472
5.3648081 -0.0086139366 -9.078476 17.25
5.9708972 -0.012634598 -8.8403339 18
-7.6764412 0.1906471 -8.9831057 19.872145
-7.4886408 0.17564374 -8.9952307 19.708595
-6.9523482 0.044293784 -8.9410782 17.837963
-6.7860518 0.011738904 -9.0787144 16.822166
-5.2973132 0.10022739 -8.9839315 19.445921
-5.1660137 0.097669899 -9.0315199 19.290331
-4.1456351 0.25324219 -9.0113163 19
-2.0418155 0.022582261 -8.9328709 17.276999
-1.9234272 0.21888289 -8.9632959 21.173288
-0.96229875 0.21093778 -8.9883175 19.787703
-0.77234262 0.14385591 -8.9205036 19.257576
0.32963169 0.1701235 -8.8596306 19.611113
3.1805639 0.26955605 -8.94911 19.65
3.5003307 0.23255824 -9.032485 19.5
3.7099607 0.19114536 -8.9666824 19.750153
5.4268918 0.1772186 -8.9925461 19.458357
5.87992 0.27465945 -8.9881277 19.200001
-7.695704 0.63555914 -8.9770489 25.222591
-7.5282412 0.65115881 -9.0168543 26.070044
-4.1465726 0.67951709 -9.0131569 20.5
-1.8938888 0.61192441 -8.969759 26.64299
-0.9765802 0.65872276 -8.9821386 24.444742
-0.76771492 0.6599111 -8.9407721 25.930387
0.32075253 0.56912386 -8.8321762 25.532551
0.41152963 0.57322216 -8.8708982 24.4
3.174902 0.64735216 -8.9576759 22.1
3.4977162 0.67333102 -9.0316763 22.658333
3.7140303 0.63204008 -8.9532318 25.229692
5.4233513 0.64851689 -8.9893303 24.071297
5.8750949 0.64164352 -9.0319347 20.700001
6.0081763 0.60442114 -8.9538565 20.5
-7.7363286 1.0816274 -8.9511623 26.114285
-7.5324326 1.0217267 -9.0102091 28.542879
-4.1475062 1.1071134 -9.0149841 22
-1.8729262 0.97195113 -8.9662113 28.247643
-1.5870037 1.1854618 -8.9700756 29.077499
-0.94292587 1.0442679 -8.9940939 27.25317
-0.75725335 0.9585107 -8.9780693 28.400002
3.1724892 0.94125885 -8.9465961 24
3.5796154 0.93811822 -8.8999023 25
3.6958845 0.9073413 -8.9521284 26.518019
5.4177222 1.0364817 -8.9993563 27.568993
5.8628983 1.0855985 -9.0760536 22.5
6.0212803 1.1107607 -9.0198832 22.5
-7.7652292 1.4607047 -8.9510326 28.88846
-7.5373549 1.3617001 -8.997613 29.697104
-4.1475081 1.3934329 -9.0149632 23
-1.6563958 1.2260307 -8.9666252 29.407831
-0.97216892 1.4220229 -8.9981833 28.345331
-0.7400645 1.3454792 -8.9783831 29
5.4212422 1.4212797 -9.0050583 29.000742
5.8226624 1.5109859 -9.1340799 24.166666
6.03087 1.4994458 -8.9532948 24.166666
-7.7000976 1.7240174 -9.0137482 30
-7.5712008 1.7135882 -8.9105005 30
-4.1494184 1.8263588 -9.0187511 24.5
-0.9303695 1.8327292 -9.0108566 27.586206
-0.7108742 1.7984399 -9.098278 27.5
5.4234829 1.7990177 -8.9989815 29.104818
5.8253169 1.8921446 -9.1492081 25.666666
6.0375423 1.8377333 -8.987011 25.5
-4.1494298 2.2624638 -9.0187349 26
-0.89234513 2.2546413 -9.0036297 27.950001
-0.71194869 2.1941767 -9.1103878 29.5
5.4591846 2.2914267 -9.0201855 28.4445
5.8317223 2.2822115 -9.1838446 27.166666
6.0422163 2.2045794 -9.0389862 26.875
-7.3546424 -0.040631488 -8.566824 15.82703
-6.9704676 -0.04658201 -8.5611305 14.897082
-6.582026 -0.047231779 -8.6014414 14.766327
-6.1899476 -0.047288071 -8.5745068 13.475064
-5.7907863 -0.047279995 -8.6107426 12.434243
-5.3994656 -0.045907438 -8.6180563 12.793269
-5.0032158 -0.04718915 -8.6045361 12.605937
-4.6017399 -0.047014628 -8.5766373 13.518526
-4.198874 -0.047071826 -8.6039143 13.521321
-3.8015411 -0.04704345 -8.6337729 13.717461
-3.407949 -0.047087438 -8.6070776 13.484704
-2.9842923 -0.047265064 -8.5995646 12.375855
-2.6123626 -0.047278874 -8.5965357 12.932118
-2.1849062 -0.036082912 -8.5914516 14.693786
-1.9059222 -0.015681237 -8.4915066 16.082104
-1.2740015 -0.018203912 -8.4678068 16.333334
-1.0188327 -0.018056532 -8.5461874 17.227283
-0.57730305 -0.044588678 -8.5695581 17
-0.24396105 -0.04007386 -8.4905262 16.678501
0.26561049 -0.018014655 -8.5527725 17.156862
0.58401549 -0.047294915 -8.6472168 16.4723
0.9653582 -0.047333114 -8.5929251 15.522292
1.3919448 -0.047291446 -8.5744333 15.052854
1.7723203 -0.047335695 -8.5776567 14.630718
2.1887987 -0.04725638 -8.5783377 14.766826
2.5884924 -0.047313385 -8.5836487 14.457482
2.9922459 -0.047269747 -8.5897293 15.090363
3.3856473 -0.047302973 -8.5988092 14.964337
3.6696122 -0.04205554 -8.6109829 15.844235
5.103405 -0.047172759 -8.5478258 16.846569
5.2900634 -0.047427237 -8.5043449 16.034834
-7.6900535 0.2194 -8.6097927 20.250837
-7.5259094 0.16462821 -8.6295118 19.735481
-2.032335 0.0089630457 -8.7119293 16.59845
-1.8059713 0.16548511 -8.6049423 20.071589
-1.4628166 0.1879469 -8.5643139 20.173878
-0.98607665 0.19695847 -8.589056 19.704525
-0.78379261 0.18078801 -8.6538792 19.518816
-0.14515266 0.17653637 -8.4401302 19.356325
0.25072268 0.18607846 -8.5192194 19.75798
0.43229043 0.0092670545 -8.5486975 16.666666
3.3753242 0.18311851 -8.6033955 19.09643
3.7158208 0.17142798 -8.6396093 19.734156
5.4280739 0.17118265 -8.5894928 19.519333
5.9324675 0.33408985 -8.5308447 19.5
6.0373015 0.34295499 -8.5731812 19.5
-7.6924057 0.61859506 -8.6001272 25.312382
-7.5320992 0.62920254 -8.6220961 26.761118
-1.7760121 0.6122691 -8.6508856 25.63439
-1.4773526 0.6241948 -8.6169376 25.434134
-0.99030185 0.65111029 -8.5910521 24.957121
-0.78127378 0.68488812 -8.6551714 25.321329
-0.1998013 0.56183755 -8.4734516 22.950432
0.28584218 0.56169653 -8.5142412 24.932413
0.41573489 0.56555998 -8.6816301 26.031958
3.3707113 0.67236626 -8.6309566 22.331249
3.7141323 0.63441074 -8.6342363 25.162334
5.4310513 0.64396763 -8.5913239 24.87911
5.9425163 0.67313129 -8.4646082 21
6.0441351 0.70211411 -8.6066551 21
-7.7315593 1.078501 -8.5956373 26.6297
-7.5357208 1.0206194 -8.6371651 28.510826
-1.7661868 0.99698377 -8.6772394 27.323568
-1.4935888 1.0085778 -8.6335936 27.416382
-0.96810073 1.041759 -8.5983448 27.046404
-0.78135818 1.0252883 -8.6318321 28.546875
3.3718443 0.92351091 -8.5900669 24
3.6955895 0.91459292 -8.601614 26.554054
5.4228888 1.0434823 -8.5846987 27.838737
5.9334145 1.0224054 -8.4755564 22.5
6.0534077 1.0664978 -8.6518688 22.5
-7.7312837 1.4233705 -8.6022844 29.299999
-7.5359778 1.3766764 -8.6326761 29.583334
-1.6361246 1.3224981 -8.62078 29.287735
-1.5826991 1.3483508 -8.600771 29.3232
-0.96753061 1.4161967 -8.6112881 27.962847
-0.76942229 1.3200566 -8.6209316 30
5.4202023 1.3761585 -8.60005 29.535091
5.9203048 1.4937463 -8.5429163 24.5
6.0370841 1.5131575 -8.5296507 24.5
-7.728137 1.6812418 -8.7131271 30
-7.468688 1.692477 -8.7038937 30
-0.90876156 1.8678329 -8.6183147 27.336956
5.3877711 1.7777138 -8.5827112 28.902874
5.9144917 1.8946264 -8.5353622 26.125
6.0431285 1.8764975 -8.5591507 26
-0.90283567 2.2507856 -8.6258011 28.391891
5.4772959 2.2610526 -8.5114956 28.598
5.9226789 2.2657561 -8.5775309 27.625
6.0340443 2.2723877 -8.5341187 27.666666
-7.3385077 -0.045670934 -8.1972914 15.384084
-6.9890966 -0.047317903 -8.1860876 14.628667
-6.5826073 -0.047260348 -8.1915045 13.265658
-6.2019548 -0.04727155 -8.1978245 12.732527
-5.8002338 -0.047049649 -8.1858559 14.04599
-5.3927975 -0.046882141 -8.1810293 14.463676
-4.9914284 -0.046932388 -8.1766748 14.176858
-4.5969729 -0.047069807 -8.1935349 13.547263
-4.2059574 -0.047052406 -8.1914825 13.451297
-3.8241549 -0.047062963 -8.2089615 13.22161
-3.3939905 -0.04703404 -8.2197943 13.182353
-3.0151699 -0.04697198 -8.1677637 13.838027
-2.5961475 -0.047081944 -8.1864262 14.174056
-2.2082589 -0.047019128 -8.1791182 12.896895
-1.7863318 -0.043005645 -8.2016144 14.675279
-1.4425181 -0.041966356 -8.2038097 15.471929
-1.0740632 -0.016512435 -8.1941118 16.7771
-0.5334183 -0.044351134 -8.1487637 16.604061
-0.20063323 -0.041469801 -8.2309875 16.564859
0.18784738 -0.02768949 -8.2328329 16.872684
0.61839592 -0.047237791 -8.1960011 15.537572
1.0003211 -0.047247324 -8.180398 15.055122
1.3873669 -0.04730203 -8.1842623 14.451867
1.7936386 -0.047285084 -8.1716442 13.960955
2.2164726 -0.047297798 -8.170392 12.946872
2.6052341 -0.047320407 -8.1639528 13.164385
3.0086353 -0.047310211 -8.1811714 14.066817
3.3894117 -0.046145245 -8.1879921 14.154845
3.7381377 -0.028558474 -8.1112394 15.695091
4.229239 -0.018238313 -8.0693302 16.879454
4.6461749 -0.015999449 -8.0692883 16.889574
5.0555401 -0.045853227 -8.1571922 16.323463
5.3263702 -0.028327318 -8.233983 17.004213
5.6769123 -0.0097241886 -8.2287903 18
-7.6740832 0.2079154 -8.21243 20.168621
-7.5315027 0.15851247 -8.2122974 19.698351
-1.6865113 0.0075719599 -8.3700504 15.99835
-1.5158055 0.019156642 -8.3769512 17.1665
-0.97986442 0.18354599 -8.2001257 19.600615
-0.7792713 0.21988909 -8.2444944 19.708332
-0.05591055 0.22552076 -8.3623638 19.62487
0.096315049 0.19645138 -8.3600464 19.70928
3.4816685 0.15994427 -8.2305317 19
3.8187373 0.17205532 -8.143981 19.591997
4.2217979 0.17971325 -8.0963497 19.616898
4.5653291 0.17669775 -8.0919237 19.906973
5.4331012 0.17728442 -8.1997032 19.615755
5.815763 0.33020276 -8.2587118 19.5
-7.6884179 0.63775575 -8.2014971 24.943682
-7.5346622 0.63504022 -8.203476 26.669495
-0.96950454 0.65196359 -8.1969357 24.9443
-0.78421658 0.66337544 -8.2715559 24.295237
-0.069901399 0.58449316 -8.3470888 22.922649
0.1241088 0.58232927 -8.3490191 24.334547
3.4930248 0.6914677 -8.3857241 22.5
3.828872 0.65002501 -8.1375542 24.222977
4.219543 0.65003198 -8.1007948 24.206291
4.5686278 0.62848824 -8.0909214 26.174654
5.4339361 0.65042061 -8.2003508 25.50135
5.783649 0.70324707 -8.2380381 21.142857
-7.705493 1.0740188 -8.2049408 27.23
-7.5381193 1.0114187 -8.207839 28.646051
-0.95752972 1.03936 -8.1920767 27.015339
-0.78065109 1.0640835 -8.2650909 27.1
3.8226552 0.92365944 -8.1423512 24.968588
4.2089405 0.92033046 -8.1035509 25.175371
4.5471444 0.91169435 -8.0927334 27.118637
5.4251604 1.0254399 -8.1991243 28.035961
5.7923622 1.0453885 -8.2102165 22.642857
-7.7271061 1.3715671 -8.2023964 29.596296
-7.5409431 1.3559402 -8.1894913 29.663157
-0.95121658 1.4414964 -8.1961241 27.765278
-0.77716458 1.3574355 -8.2422466 29.125
5.4085264 1.3794883 -8.2073288 28.667179
5.8169456 1.4696651 -8.2111311 24.5
-0.89898437 1.8890089 -8.1770983 27.887096
-0.73685324 1.8642063 -8.1563005 29
5.3959508 1.8655374 -8.2148809 26.424334
5.8334541 1.8841095 -8.1875114 26.3125
-0.88847077 2.2517469 -8.1875887 28.505445
5.3952684 2.2602072 -8.2103195 28.146555
5.8284569 2.2508202 -8.1702118 27.875
-7.6000891 -0.040234886 -7.6841578 17
-7.3192153 -0.04131332 -7.795536 14.56913
-6.9868083 -0.047289494 -7.7810287 13.560767
-6.6112323 -0.047202397 -7.8054862 12.847489
-6.1676636 -0.04691733 -7.7640476 13.940948
-5.7874427 -0.047029685 -7.7980175 13.698994
-5.408154 -0.047262836 -7.8037291 12.596372
-5.0192556 -0.045616515 -7.7953982 12.661706
-4.6070366 -0.044987399 -7.7965198 12.187314
-4.2067161 -0.047265977 -7.8311419 12.395452
-3.785166 -0.046642944 -7.8443933 11.987625
-3.4083757 -0.044274472 -7.8345847 11.870371
-2.9841435 -0.034978744 -7.8205695 12.871319
-2.6228409 -0.045056336 -7.7871666 13.914606
-2.195606 -0.047235917 -7.795619 13.486461
-1.8099126 -0.047268379 -7.8050127 13.557069
-1.4207456 -0.04420498 -7.8010864 14.724688
-1.0087848 -0.02272745 -7.7353683 17.045698
-0.56617886 -0.046373926 -7.7618537 16.62015
-0.21202661 -0.04739026 -7.7875814 16.639988
0.20979239 -0.047288463 -7.7956281 15.887861
0.61794698 -0.047307413 -7.791564 15.302812
1.0282834 -0.04726129 -7.7927146 14.352812
1.4101607 -0.047266971 -7.7721505 13.153466
1.795863 -0.047310039 -7.7880182 12.785393
2.1976063 -0.047287662 -7.804069 12.968467
2.6205242 -0.047278285 -7.789475 12.434544
3.0106199 -0.047292016 -7.8104019 12.636359
3.409878 -0.047091924 -7.8064213 12.602612
3.8124595 -0.046516668 -7.7678924 13.424007
4.2225294 -0.046706934 -7.7782121 14.404756
4.5996504 -0.044254687 -7.7687182 15.135489
5.0105267 -0.047328245 -7.7899342 16.029474
5.3293018 -0.024214609 -7.8019943 17.189426
-7.6746922 0.2170897 -7.8166428 20.143309
-7.5297008 0.16393462 -7.819932 19.963648
-2.9682946 0.15962194 -7.6863065 20.478378
-1.6113108 0.34632066 -7.9451046 19.5
-0.97995478 0.18078549 -7.7944221 19.630548
-0.772632 0.0021404587 -7.6931691 17
4.6097183 0.00031106174 -7.9851084 17
5.4269996 0.18878953 -7.7886777 19.650862
5.9335794 0.32344633 -7.8541403 19.5
-7.6828284 0.67370236 -7.7763062 24.135042
-7.5325027 0.62248379 -7.8215899 26.697235
-2.9479237 0.62842113 -7.6750889 26.400372
-1.6018897 0.7054159 -7.9138832 21
-0.96929866 0.65407741 -7.7953482 25.102566
5.4289527 0.63690561 -7.7775397 24.921185
5.9312353 0.67131793 -7.8392539 21.1
-7.7009196 1.0603217 -7.7896013 27.77915
-7.5374551 1.0242385 -7.8013792 28.457382
-2.9189677 1.0134549 -7.6797857 27.806944
-1.6018938 1.0669404 -7.913847 22.5
-0.95822501 1.0339698 -7.7948618 27.332676
5.4233127 1.0382409 -7.7710032 26.968678
5.9125133 1.0151345 -7.8165741 22.642857
-7.7030482 1.3490286 -7.7982106 29.784721
-7.5386195 1.3454335 -7.7702441 29.785715
-2.8823347 1.3641478 -7.678772 27.407894
-1.5925967 1.5481 -7.8830166 24.5
-0.9503023 1.4147428 -7.7845488 27.994949
5.4253273 1.4778583 -7.7215357 26.92
5.8825932 1.4933875 -7.7474942 24.666666
-2.8808925 1.8370917 -7.6639872 27.240742
-1.5926152 1.9148716 -7.8830242 26
-0.90679306 1.8705451 -7.7372675 27.651134
5.4247198 1.9019704 -7.682651 27.861111
5.8319201 1.8687288 -7.7278829 26.25
6.0099697 1.8792409 -7.7540088 26.5
-2.8336158 2.2558641 -7.6831598 27.200001
-1.592631 2.2864554 -7.8830338 27.5
-0.89612114 2.2591605 -7.7790647 28.368576
5.4245486 2.2191148 -7.6814117 29.430555
5.8423309 2.2489691 -7.733315 27.928572
6.0184655 2.2877359 -7.7927642 28.25
-7.612278 -0.017279975 -7.2200718 17.333334
-7.3844271 -0.039215948 -7.3987589 14.612776
-7.0093889 -0.047279123 -7.3676653 12.825771
-6.6007042 -0.047019273 -7.3983335 14.457202
-6.2003393 -0.047071524 -7.3924809 13.500126
-5.8193803 -0.037382051 -7.4105496 12.795927
-5.4082651 -0.023755316 -7.5467744 12.829898
-5.0092783 -0.020947313 -7.5616307 13.596015
-4.6777954 -0.029371727 -7.5670295 14.45625
-4.2192173 -0.034298841 -7.5585327 13.8039
-3.8384111 -0.042898253 -7.5622258 13.097312
-3.4120829 -0.04145484 -7.5648818 12.99015
-2.8664632 -0.033119328 -7.4188056 13.208735
-2.5839145 -0.046948452 -7.3814831 13.337429
-2.2162302 -0.047004532 -7.3894105 14.646892
-1.7918426 -0.047255002 -7.3856134 13.278154
-1.3945347 -0.046765968 -7.4048457 14.943316
-1.0335157 -0.016828656 -7.385067 16.39999
-0.63252366 -0.042706169 -7.3905301 16.513584
-0.15214054 -0.047379244 -7.3989882 16.248146
0.18235907 -0.04727149 -7.3976736 15.553973
0.59049904 -0.047304131 -7.4032569 14.756934
1.0126616 -0.047332644 -7.4104605 13.516226
1.3999237 -0.047259625 -7.3738103 13.312015
1.8133587 -0.046958566 -7.3750792 14.508183
2.2226007 -0.046893422 -7.3815303 13.832253
2.6017644 -0.046944726 -7.3940063 14.14077
2.9982853 -0.046908028 -7.3803544 14.056057
3.42115 -0.047006316 -7.3960385 14.323784
3.8279929 -0.047278963 -7.4128141 12.989916
4.2215533 -0.047314703 -7.3962774 13.742541
4.6138697 -0.047313977 -7.4087992 14.741145
5.0081835 -0.047296159 -7.4056158 15.643972
5.2884426 -0.037941344 -7.3952594 16.546391
5.9050736 -0.0017791688 -7.5002441 18
-7.6783524 0.17897986 -7.4048038 19.489315
-7.5315175 0.16268337 -7.411479 19.915314
-5.6624703 0.14759691 -7.3379107 20.370743
-5.436686 0.15809996 -7.4842539 21.120594
-4.9950075 0.1605757 -7.4867892 21.336639
-4.5899401 0.14070857 -7.4935346 20.704552
-4.1978312 0.13861877 -7.495677 20.359049
-3.8051538 0.13689204 -7.5057321 20.228264
-3.4396493 0.13903494 -7.5073619 20.479641
-2.925312 0.16736408 -7.4236121 19.742462
-1.565128 0.33040208 -7.3036671 19.5
-0.97175092 0.18532442 -7.3878145 19.818243
-0.73663712 0.15854426 -7.3395576 18.5
5.4244304 0.17809534 -7.4016266 19.734653
5.7874584 0.28711295 -7.4302068 19.384615
-7.6779881 0.66807079 -7.4160028 24.743883
-7.5348248 0.62461042 -7.4068804 26.692673
-5.6781445 0.60449266 -7.3264928 27.621437
-5.426868 0.58991247 -7.4807677 28.461332
-4.9842129 0.56045377 -7.4797144 28.794687
-4.5765471 0.51158351 -7.4889259 29.477499
-4.2074099 0.51361036 -7.495223 29.512695
-3.8212168 0.54079551 -7.5110617 29.02124
-3.4289443 0.57733637 -7.5050254 28.377298
-2.913554 0.64443606 -7.4210596 24.991352
-1.5564598 0.66852933 -7.2763309 21
-0.95896113 0.65348691 -7.37889 25.339375
-0.75155145 0.68418312 -7.3545451 22.5
5.4239774 0.63300931 -7.3981204 25.862398
5.7906013 0.72196257 -7.4345684 21.454546
-7.6630411 1.0449891 -7.3812628 28.394747
-7.5378084 1.0218315 -7.4022331 28.494474
-5.7233553 0.94654524 -7.3120437 29.666664
-5.5856199 0.88980049 -7.4351563 30
-3.5245576 1.0914263 -7.4205379 22.5
-2.9030793 1.0457331 -7.4128432 27.033892
-1.5564629 1.0088924 -7.2762947 22.5
-0.95309383 1.0241024 -7.3756938 27.316885
-0.75336242 1.060243 -7.3700538 25
5.4195809 1.0241723 -7.3983893 27.544746
5.8093004 1.106353 -7.4481277 23.299999
-7.633182 1.3215665 -7.4041319 29.928572
-7.5256462 1.3415968 -7.3629956 29.852942
-3.5165515 1.4617845 -7.4049778 24
-2.9172399 1.4592532 -7.402956 26.349493
-1.5479041 1.462164 -7.2492905 24.5
-0.92342806 1.422884 -7.3526535 27.490213
-0.75698543 1.4472312 -7.4014611 27.5
5.4085674 1.4296929 -7.3702149 26.777779
5.8115406 1.4634897 -7.415988 24.90909
-3.5165687 1.8373512 -7.4049768 25.5
-2.9124858 1.8151807 -7.4169493 27.65
-1.5479268 1.9238244 -7.2493 26.5
-0.90398264 1.8268826 -7.3412004 28.178684
-0.75786638 1.7617155 -7.4088683 29.5
5.3778744 1.8760289 -7.3602481 28.051727
5.8432298 1.8535005 -7.4153991 26.633333
-3.5165877 2.2165895 -7.4049721 27
-2.9001608 2.244189 -7.4073267 27.1
-1.5479428 2.2747629 -7.2493076 28
-0.89916521 2.233741 -7.4106231 28.86191
5.3720236 2.2354426 -7.3747525 29.361111
5.8300557 2.2654264 -7.4028335 28.5
-2.9006367 2.4082634 -7.2800426 28
-7.7264214 -0.0015207529 -7.0957131 17.5
-7.3751345 -0.040545087 -7.0240364 14.638944
-7.0277748 -0.047301233 -6.9890962 12.811686
-6.6080589 -0.046983007 -6.9980793 14.518715
-6.2004766 -0.047298223 -7.0055966 12.31559
-5.8518243 -0.043383416 -7.0210814 13.596137
-2.8409355 -0.017091453 -7.0053997 14.630039
-2.6207774 -0.04465602 -7.0373039 12.672626
-2.2266643 -0.046892148 -7.009275 14.034355
-1.7663152 -0.047236674 -7.0152345 12.576506
-1.4385973 -0.046800982 -6.9885001 14.622179
-1.0860415 -0.031939343 -6.9866023 15.28691
-0.58341807 -0.041226067 -6.9829035 16.559546
-0.18886366 -0.047322903 -7.0133438 16.022234
0.17849094 -0.047321476 -6.9900866 15.354041
0.58374161 -0.047304649 -6.9938431 14.627167
0.9837482 -0.047300085 -6.996562 12.901719
1.3923733 -0.047072578 -6.9802642 13.95085
1.7932652 -0.04708029 -6.9807401 12.752004
2.195991 -0.047335275 -6.970499 12.269679
2.6009493 -0.047290612 -7.0023088 12.606082
3.0198743 -0.047297813 -6.9762154 11.821551
3.4190667 -0.047069076 -7.0007415 13.476921
3.8192732 -0.047033731 -7.0094128 14.125799
4.2536988 -0.047290858 -6.9993439 12.831826
4.6374507 -0.047269464 -6.9883308 14.383954
5.0242414 -0.04728242 -6.994626 15.213201
5.2993479 -0.040461361 -6.9647617 15.619834
5.7279263 -0.0076482669 -6.9243565 18
-7.6747265 0.17846246 -7.0159249 19.553909
-7.5286164 0.15901211 -6.9994383 19.988333
-5.6676488 0.14002828 -6.9994874 19.982555
-2.8899662 0.18859886 -7.0061269 20.135756
-2.7989457 0.013098091 -7.1191311 17.666666
-0.9717747 0.17043029 -7.0009356 19.713032
-0.79611433 0.0017889068 -7.1988201 17
5.4232435 0.18866394 -7.0011249 19.728531
5.8268018 0.30920017 -6.9938159 19.5
-7.6806936 0.67460334 -7.0366311 25.334078
-7.531929 0.61402899 -6.9974713 27.085056
-5.6924076 0.62835407 -6.9787893 27.24592
-2.8925881 0.65998858 -7.0102506 24.577059
-0.96382737 0.64811844 -6.993896 25.913826
5.424408 0.64146507 -7.0084662 25.064219
5.8359928 0.70843881 -7.010088 21.454546
-7.6837049 0.99145699 -7.0086746 29.280518
-7.5406151 1.0162553 -7.012012 28.796499
-5.7580109 0.96600312 -7.0205994 29.437038
-2.895345 1.0368396 -7.0163765 26.710836
-0.94868791 1.0094395 -7.0000086 27.900208
5.4245644 1.0396588 -7.0166698 26.925385
5.8374519 1.0855254 -7.0273042 23.25
-7.5173359 1.3078109 -7.0188384 29.956818
-2.9098155 1.4566921 -7.0166721 26.774403
-0.91131932 1.4242343 -6.999599 27.377193
5.4245491 1.4532276 -7.0339603 26.450001
5.8363328 1.4550428 -6.9739089 25.041666
-2.9098008 1.8106315 -7.0103049 27.172413
-0.90440965 1.8557124 -7.0021534 27.702806
-0.77552605 1.6798909 -6.8025813 30
5.4278703 1.8671134 -7.0281162 28.766266
5.8286576 1.8514351 -6.936923 27
-2.8890591 2.258599 -7.0139747 27.333336
-0.90710402 2.2181237 -7.0050097 28.894873
5.4303117 2.2224839 -7.0323009 29.125
5.8341017 2.2540185 -6.959938 28.863636
-7.3679671 -0.043318607 -6.6047716 14.942049
-7.0546069 -0.047267351 -6.5954614 12.683426
-6.6014285 -0.046966117 -6.6109481 14.18164
-6.2090602 -0.0472917 -6.5975933 12.392965
-5.8701935 -0.043164328 -6.5875883 13.163901
-2.8414228 -0.012245008 -6.5765963 14.632312
-2.6188347 -0.043315291 -6.589592 12.329418
-2.2044418 -0.046740953 -6.6137052 14.034655
-1.7930944 -0.047283351 -6.6090913 12.249521
-1.4520235 -0.047266848 -6.5918851 13.289783
-1.0362992 -0.024349412 -6.616694 15.723518
-0.60514534 -0.045708008 -6.595365 16.40163
-0.18696202 -0.047373749 -6.6232061 15.72782
0.22217719 -0.047307272 -6.578455 14.98809
0.60267043 -0.047301106 -6.5833387 14.064816
0.98944515 -0.047279548 -6.6221523 12.799236
1.4111574 -0.046956223 -6.5977459 15.158086
1.8083315 -0.046995543 -6.5929546 12.636427
2.2036304 -0.04107948 -6.5733929 13.802874
2.5861084 -0.039246999 -6.6034532 13.66682
3.0303843 -0.04246081 -6.6044464 12.552883
3.4223268 -0.044548608 -6.6269469 12.906994
3.8123822 -0.04705229 -6.58918 14.545885
4.2561026 -0.047280397 -6.6070247 12.498537
4.6468558 -0.047304004 -6.605041 14.046535
5.0034866 -0.047245059 -6.5883307 14.932058
5.3389673 -0.03135201 -6.6116886 16.327555
5.6873341 -0.0022118054 -6.4584489 18
-7.6596785 0.15894175 -6.6360993 19.462376
-7.5290322 0.15223704 -6.609468 19.935062
-5.665822 0.14246441 -6.6019139 20.244942
-2.8880744 0.17610955 -6.5932784 20.359821
-1.5240997 0.31629601 -6.733345 19.5
-0.97065079 0.18289913 -6.6013575 19.763134
-0.74564326 0.1474452 -6.7247567 18.5
1.8539219 0.15595594 -6.5122523 19.25
2.270709 0.12988791 -6.4338741 20.019461
2.6536546 0.079540059 -6.4214654 18.429325
3.0421188 0.052912544 -6.4099126 17.201702
3.2975903 0.043200701 -6.4087529 17.101847
5.4271774 0.1723699 -6.6042819 19.61043
5.7935238 0.24346648 -6.6051741 19.21875
-7.6594305 0.68099731 -6.6267323 26.279408
-7.5364032 0.61884391 -6.5986352 27.229261
-5.6911397 0.59160262 -6.5880971 27.972532
-2.8910735 0.65464342 -6.5972385 25.524616
-1.5160853 0.74290049 -6.7092342 21.5
-0.95522463 0.64867699 -6.598774 25.360025
-0.76923621 0.69654614 -6.7545404 23
1.8365399 0.67503577 -6.5223136 24.833334
2.1517029 0.49891457 -6.4462004 29.575056
2.9377048 0.48758835 -6.4032927 30
3.2550719 0.5269655 -6.4039512 29.094446
5.4274974 0.63394022 -6.6035433 25.235857
5.7883716 0.69252592 -6.6165495 21.5
-7.6759644 0.96265411 -6.6347389 29.440475
-7.5372677 0.99233037 -6.5976658 29.149158
-5.765976 0.92876118 -6.6224885 29.833334
-2.8943412 1.0031433 -6.6150203 27.561152
-1.5160886 1.0648999 -6.7092028 23
-0.93638676 1.0243227 -6.6123052 26.866241
-0.7719183 1.1096183 -6.775032 26
1.8441539 0.99484921 -6.5148172 28.174999
2.086849 1.1542804 -6.4271088 28.6525
5.428071 1.0328805 -6.6015363 26.51549
5.8029938 1.0680263 -6.6323881 23.40625
-2.9137003 1.4456874 -6.5995555 27.501146
-1.5081719 1.385957 -6.6854 24.5
-0.91186011 1.4476702 -6.6141162 27.563637
-0.77396768 1.4623303 -6.7906556 28.5
2.0972629 1.3832064 -6.423151 30.157
5.4233422 1.4679937 -6.5999317 26.90164
5.7990274 1.4571376 -6.5786557 25.299999
-2.8880308 1.8722469 -6.6266999 25.924242
-1.5081917 1.8222504 -6.6854067 26.5
-0.90476543 1.8405803 -6.6550941 28.370689
5.4172926 1.8467613 -6.5991168 29.128214
5.7952838 1.8654752 -6.5844717 27.307692
-2.8856125 2.2620084 -6.6216612 27.5
-1.5082139 2.2658885 -6.6854143 28.5
-0.91052055 2.2092304 -6.6210785 29.529411
5.4112358 2.2170312 -6.6066513 29.392857
5.7854733 2.254025 -6.6074786 29.142857
-7.391809 -0.039566819 -6.1839051 14.639746
-7.0425472 -0.047261458 -6.2076712 12.129005
-6.6101165 -0.046911974 -6.1979327 14.65923
-6.2420988 -0.047219113 -6.188941 13.051112
-5.8905444 -0.045537908 -6.1955228 12.60992
-2.8310168 -0.017928163 -6.1827178 14.381158
-2.6081228 -0.041966084 -6.2139816 12.24609
-2.1975458 -0.046789005 -6.1986217 14.031032
-1.7860101 -0.047315508 -6.1982021 13.020732
-1.4529594 -0.046107471 -6.1905308 13.066166
-1.051139 -0.026554808 -6.219368 15.602236
-0.58295929 -0.046310935 -6.1779118 16.258547
-0.21913952 -0.04728901 -6.1957788 15.647474
0.22680078 -0.047254849 -6.1959987 14.823371
0.64206076 -0.047277529 -6.2007027 13.619521
1.0206867 -0.047184482 -6.2051535 13.46236
1.4067583 -0.047062688 -6.2144675 14.634815
1.8107295 -0.045705467 -6.1874542 13.33287
2.0543134 -0.025865376 -6.1991343 14.609832
3.1780763 -0.013792552 -6.0657816 12.76278
3.4371352 -0.037975468 -6.1948271 12.72377
3.8105268 -0.046799392 -6.2073989 14.50196
4.2344627 -0.047272407 -6.1915426 12.722508
4.6708369 -0.047293995 -6.2054205 14.050151
5.0238776 -0.04724934 -6.2068348 14.953145
5.3083081 -0.040869098 -6.2178836 15.779563
-7.6467814 0.17020172 -6.2327561 19.740583
-7.5252748 0.14736356 -6.1935105 19.942688
-5.6605802 0.14210427 -6.2113814 20.169699
-2.8841786 0.16404024 -6.2008839 20.29516
-1.4873856 0.30371207 -6.2227535 19.5
-0.97092783 0.17437641 -6.1933794 19.821817
-0.78061807 0.27406514 -6.2314053 20
1.8961918 0.17874007 -6.1773119 19.545464
2.1476402 0.17864262 -6.2190638 20.576809
2.6173124 0.19144836 -6.3848295 22.684803
3.1147542 0.18997766 -6.2187076 20.680372
3.313658 0.17116912 -6.2447667 20.084246
3.6808569 0.22843608 -6.2258463 19.214285
5.4242673 0.19158767 -6.1861134 19.805477
5.7951274 0.238216 -6.1607647 19.25
-7.6528721 0.66632921 -6.1997452 27.181656
-7.531013 0.61181211 -6.1887908 27.4648
-5.6772208 0.57124829 -6.2120094 28.710278
-2.8867126 0.63422102 -6.1967559 26.88504
-1.4799436 0.70814782 -6.2013702 21.5
-0.95868599 0.63982093 -6.1898189 25.829563
-0.78365457 0.64465761 -6.2523093 23
1.8783032 0.66965389 -6.2228327 25.054873
2.1354091 0.63966715 -6.2098002 25.385199
3.1283131 0.62881106 -6.2005906 25.131592
3.3049269 0.64389974 -6.2305098 24.594688
3.6915414 0.65955055 -6.2315831 21.583334
5.4247713 0.6309666 -6.2004795 25.814089
5.7883058 0.66592175 -6.1869016 21.535715
-7.6626382 0.94365847 -6.2459464 29.603125
-7.5332661 0.96849591 -6.1632071 29.363876
-5.7066422 0.89897883 -6.3357978 30
-2.8961096 0.97142822 -6.2143421 28.909534
-1.476267 1.114315 -6.1907825 23.5
-0.9413231 1.0213013 -6.179677 27.014704
-0.78615224 1.0229441 -6.2694449 26
1.8734713 1.0298491 -6.2358775 28.963634
2.1342051 1.0434573 -6.1947374 27.332636
3.1479204 1.0464549 -6.165514 26.132051
3.3047726 1.0510291 -6.2139516 25.979395
3.699579 1.0603563 -6.2311268 23.789474
5.4228616 1.0371772 -6.1697431 26.811241
5.7920084 1.072886 -6.1959348 23.692308
-2.925575 1.3926806 -6.2150178 29.291111
-1.4726032 1.5239991 -6.1802273 25.5
-0.91687834 1.4335396 -6.1751399 27.682796
-0.78854316 1.4121815 -6.2858248 29
2.132236 1.4073888 -6.2090354 28.351233
3.149668 1.4566607 -6.1719751 28.168682
3.3073781 1.4579772 -6.2170243 27.919584
3.7001905 1.4800621 -6.2268806 26.061403
5.4184995 1.4734132 -6.1280227 27.814516
5.8013606 1.4793471 -6.1728635 25.884615
-2.8924267 1.8606617 -6.2110281 26
-1.4726228 1.9408962 -6.180232 27.5
-0.90641487 1.8701954 -6.1730533 28.459183
2.1382389 1.843922 -6.1837177 28.450001
3.1533699 1.7982255 -6.1783361 29.862791
3.3159623 1.8023843 -6.2212644 29.330645
3.6970625 1.886535 -6.2195458 28.226315
5.4178505 1.8023169 -6.1211939 29.594339
5.8107672 1.8907201 -6.1750736 28
-2.8925655 2.22156 -6.2113056 27.5
-1.4726378 2.2583628 -6.1802368 29
-0.9045558 2.2258282 -6.1981144 29.603449
2.1416719 2.166925 -6.195497 29.841234
3.3904059 2.229315 -6.2091775 29.533333
3.6996946 2.2038386 -6.2217011 29.868422
5.5118518 2.1944549 -6.1987152 29.416666
5.8230548 2.2099936 -6.1936784 29.607143
-7.3845716 -0.041342862 -5.780993 14.356779
-7.0226188 -0.047275342 -5.7997737 12.503944
-6.6245399 -0.047029041 -5.82026 14.214665
-6.2438002 -0.047153275 -5.784749 13.125145
-5.8999228 -0.046719112 -5.7889962 12.80587
-2.8391054 -0.014808874 -5.8143549 15.010759
-2.6275117 -0.043449219 -5.7896099 12.66469
-2.1995323 -0.046917506 -5.777235 14.549398
-1.8159702 -0.047300335 -5.7618198 13.614526
-1.469445 -0.047309645 -5.8055906 13.302988
-0.98904574 -0.032931436 -5.8377151 15.583183
-0.58745915 -0.045508679 -5.8408794 16.064295
-0.19030885 -0.047319386 -5.805326 15.464398
0.20984963 -0.047258325 -5.8011646 14.462698
0.61822927 -0.047280431 -5.8027925 13.021338
0.99186623 -0.047086589 -5.8043413 13.917891
1.4203553 -0.047079977 -5.8002601 14.135128
1.8164804 -0.045728087 -5.8103123 12.898621
2.0596213 -0.037977055 -5.8389945 15.191581
3.1710606 -0.017315846 -5.8096566 14.022474
3.4344652 -0.047276828 -5.8110666 12.405602
3.8513505 -0.046814263 -5.8058577 14.067904
4.2574186 -0.047265578 -5.8035316 12.713071
4.6459937 -0.047260594 -5.7983003 14.077394
5.0174375 -0.047304079 -5.8142686 14.755158
5.2940412 -0.040067803 -5.7881389 15.582361
-7.6281285 0.17078823 -5.8374505 19.909668
-7.522388 0.14587022 -5.7941623 19.869751
-5.6534538 0.13395987 -5.81389 19.969872
-5.5937786 0.28943267 -5.9477892 24.25
-2.8840783 0.16693291 -5.7928944 20.369654
-2.7501578 0.075666487 -5.6856794 18.375
-1.4543601 0.29241893 -5.7627935 19.5
-0.97214216 0.17651662 -5.8056908 19.827436
-0.79301119 0.25882283 -5.8097124 20
1.9314559 0.16033305 -5.7862015 19.333334
2.1245518 0.16369745 -5.800787 19.673555
3.1325297 0.17251529 -5.7789121 20.31749
3.4763227 0.24026684 -5.7947307 19.35
5.4223857 0.18961419 -5.8026605 19.886564
5.7405076 0.22191687 -5.7712059 19.18421
-7.635911 0.64780903 -5.8029909 27.344007
-7.5233669 0.60805446 -5.7900515 27.672855
-5.6594486 0.55180871 -5.8338361 28.779318
-5.5939054 0.49598235 -5.8408384 29.333332
-2.8868895 0.61616117 -5.7981687 27.284174
-2.7976089 0.6018073 -5.6543393 28.5
-0.95962548 0.63420194 -5.8158875 25.919844
-0.79600358 0.65845752 -5.8283672 23.5
1.9219328 0.67533374 -5.7922382 24.953705
2.1269948 0.64174491 -5.8030934 25.228048
3.127398 0.64454895 -5.7972136 25.563002
3.5120554 0.65185648 -5.7878857 21.833334
5.4222512 0.63709891 -5.8267107 25.32254
5.756815 0.66273659 -5.787416 21.617647
-7.6261783 0.91354209 -5.9246507 29.833334
-7.5222468 0.93684071 -5.7586007 29.580862
-2.9116039 1.0097872 -5.8241081 28.798704
-0.94191998 1.0270699 -5.8202848 27.05216
-0.79935408 1.0686518 -5.8492832 27
1.9348967 0.97831959 -5.7889862 28.446913
2.1380401 1.0424688 -5.8095264 27.339649
3.1197553 1.0350631 -5.7930694 27.679998
3.52263 1.0429618 -5.7765274 24.15
5.4214067 1.0359228 -5.8053021 26.744793
5.7577553 1.0713716 -5.7995629 23.875
-2.9291561 1.3327113 -5.8189631 29.854168
-0.91769457 1.4216037 -5.8285298 27.950001
2.1410036 1.4158486 -5.8185282 28.043447
3.1172812 1.4251212 -5.7671795 28.857143
3.5140481 1.4581625 -5.7579894 26.642857
3.601846 1.4642245 -5.6708908 26.5
5.4170709 1.4423511 -5.8028226 27.98909
5.7563066 1.4826866 -5.8042226 26.133333
-0.90935314 1.8514373 -5.7883611 28.474468
2.1358526 1.8692064 -5.8017392 28.810696
3.0650547 1.8014553 -5.7793708 29.700001
3.4996319 1.8531818 -5.7358971 29
5.408092 1.7997744 -5.833632 29.093136
5.7572055 1.8854808 -5.8082876 28.266666
-0.91125923 2.231108 -5.8108006 29.685184
2.1324437 2.1618228 -5.8032432 29.875
3.5296226 2.0722466 -5.6841478 30
5.4607458 2.2390869 -5.8995872 29.5
5.7600327 2.2237597 -5.8522596 29.681818
-7.3903651 -0.038717143 -5.4194179 14.313047
-7.0082693 -0.047281124 -5.4079037 12.481014
-6.6383467 -0.047038488 -5.404675 13.824076
-6.2157202 -0.047035184 -5.404273 13.542123
-5.8612647 -0.045344658 -5.4087377 12.755411
-2.8398676 -0.017832221 -5.3984818 15.196954
-2.6075239 -0.043307457 -5.4011674 14.059459
-2.2205377 -0.047023062 -5.4139791 14.633717
-1.8204123 -0.047284283 -5.3860517 12.973493
-1.4296511 -0.047265936 -5.3941007 13.604685
-1.0473534 -0.027060919 -5.3766446 15.312809
-0.52714729 -0.047280125 -5.3632426 15.587434
-0.21300034 -0.047249045 -5.4042811 15.304955
0.18144204 -0.04727602 -5.3789287 14.654423
0.58193725 -0.047267731 -5.3960142 13.072892
0.97864562 -0.047055479 -5.4059486 13.876343
1.3931537 -0.047080081 -5.4058385 13.829996
1.7634306 -0.04675021 -5.3919497 13.162842
2.0468614 -0.039203767 -5.4517136 14.320191
3.1672962 -0.016041668 -5.4191389 13.034817
3.4154029 -0.047269877 -5.408709 12.067464
3.8261752 -0.046854459 -5.4044919 14.310867
4.2380128 -0.043227322 -5.4030404 13.156142
4.6652093 -0.04518728 -5.3869414 13.900331
5.0382361 -0.047283262 -5.411375 14.977312
5.2792263 -0.044361476 -5.443727 15.8733
-7.6266809 0.17257155 -5.4317827 20.209316
-7.5211892 0.14989336 -5.3858147 19.879637
-5.6510444 0.14380704 -5.4138312 20.214775
-5.5940547 0.16654192 -5.429193 20.23802
-2.8819327 0.16847281 -5.3840041 20.495237
-2.7685373 0.058833424 -5.3993754 18
-1.4244612 0.28222996 -5.3461475 19.5
-0.96782619 0.18107776 -5.4086103 19.945786
-0.76721305 0.0065159448 -5.4467187 16.777777
1.9622381 0.13957511 -5.3880153 19.219202
2.1235569 0.16493052 -5.3959284 19.805815
3.1300766 0.18568809 -5.4016891 20.212027
3.4627447 0.26916611 -5.4594216 19.583334
4.3204374 0.071385272 -5.2254491 18.260546
4.4497213 0.082057714 -5.2332716 18.625126
5.4247098 0.19425111 -5.4063482 19.830084
5.7605772 0.2203557 -5.458673 19.21875
-7.6249824 0.61633283 -5.4511881 28.19956
-7.522862 0.62233293 -5.3765011 27.51725
-5.6626229 0.54947275 -5.4276114 28.694672
-5.58987 0.57317203 -5.4254189 28.363493
-2.8855219 0.60803449 -5.3932037 27.787848
-2.7811708 0.63983601 -5.358428 28
-1.4326998 0.66287404 -5.5363979 21.5
-0.95342344 0.63165236 -5.4165897 25.966635
1.5972461 0.68879116 -5.2188387 22
1.9542885 0.68116558 -5.4343653 26
2.1234007 0.63297772 -5.4077549 25.781214
3.1225231 0.64366966 -5.4135051 25.126537
3.4491394 0.66309208 -5.441267 22
5.4221053 0.63171864 -5.4084153 25.432901
5.743597 0.67064768 -5.3813877 21.833334
-7.5142722 0.94282544 -5.3565397 29.622889
-2.9122047 0.98036367 -5.4071293 29.244509
-1.4293832 1.0400966 -5.5274439 23.5
-0.94121432 1.0422359 -5.4261351 26.997978
1.5981172 1.1232533 -5.2743092 24.5
1.9545584 0.96037173 -5.3957953 29.472223
2.1356843 1.0345563 -5.4103904 27.628696
3.1251395 1.0422031 -5.4195013 27.0446
3.4680028 1.0657187 -5.4421096 24.5
5.4206047 1.047874 -5.4178767 26.792641
5.7511702 1.06896 -5.3914528 24.117647
-2.9116039 1.2784123 -5.5076609 30
-1.4231802 1.4707376 -5.4772491 25.799999
-0.92006558 1.4377314 -5.4406199 28.165987
1.5981089 1.4720211 -5.2742109 26.5
2.1387706 1.4109743 -5.4214835 28.425394
3.1170809 1.4275416 -5.4296312 28.969387
3.4178391 1.4313145 -5.4134965 27.272728
5.4206076 1.4508581 -5.420506 28.591326
5.7561045 1.4548658 -5.4024854 26.333334
-1.4261009 1.9035642 -5.5185223 28
-0.9127326 1.8289433 -5.434135 28.842106
1.5981008 1.8266507 -5.2741108 28.5
2.1361835 1.8429478 -5.4200416 29.357143
3.0745239 1.7769046 -5.4662433 29.625
3.4778056 1.8421328 -5.3780689 29.222221
3.6049726 1.8867068 -5.5911598 29
5.4142785 1.8071642 -5.392776 29.130434
5.7500706 1.8680234 -5.4013081 28.666666
-1.4271008 2.2487185 -5.5769691 29.666666
-0.90971851 2.1984408 -5.4443488 29.720236
1.5988756 2.1103745 -5.3232889 30
2.1777172 2.1505363 -5.4289174 30
3.1212177 2.0979514 -5.4348006 30
3.360888 2.0895615 -5.3340807 30
5.4671435 2.182097 -5.4238644 29.863636
5.7297812 2.1892982 -5.4303865 29.85
-7.3959265 -0.032755289 -5.0032496 14.372238
-7.0084972 -0.047310293 -5.0055027 12.256603
-6.6113696 -0.047040433 -5.0043612 14.36657
-6.2089324 -0.047092378 -5.0077643 13.157526
-5.8456683 -0.043849826 -5.0093822 12.78036
-2.8334363 -0.011701007 -5.0396128 15.340723
-2.624727 -0.043223865 -4.9801078 13.086634
-2.1974623 -0.046946887 -4.993391 14.789837
-1.8073391 -0.04722828 -4.9861331 13.744864
-1.4577407 -0.046942301 -4.9838881 13.144608
-1.0134889 -0.021082267 -5.0183001 15.355072
-0.55686265 -0.046155274 -5.0140805 15.172876
-0.19908448 -0.047318649 -5.018476 14.825833
0.1553164 -0.04725688 -4.9643388 14.230183
0.58297241 -0.04729709 -4.9979677 13.39247
0.9644677 -0.047021661 -5.0124226 14.213039
1.4020833 -0.047243506 -4.9998627 13.01056
1.7588249 -0.045998774 -5.0212522 13.459666
2.0728436 -0.030151943 -4.9970369 14.815441
3.166296 -0.019391112 -5.022326 13.306124
3.4189382 -0.047251094 -4.9750109 12.655787
3.8254335 -0.046852086 -4.9976869 14.363926
4.1871948 -0.036739096 -5.0036478 13.566248
4.7047668 -0.046090044 -5.0160756 14.615609
5.0130377 -0.047250628 -5.0023041 15.215573
5.2955308 -0.044836164 -5.0219984 15.762004
-7.6279302 0.1487633 -4.9985399 19.767157
-7.5167518 0.15617955 -4.9779782 20.040604
-5.6476221 0.14215928 -5.0103183 20.247816
-5.5847888 0.1881372 -4.9727139 20.394703
-2.8815625 0.15566745 -4.9879465 20.34124
-2.7762837 0.18506409 -4.9061317 20
-1.3972863 0.27299282 -4.9668188 19.5
-0.97332394 0.17841336 -4.9919963 19.955889
1.5963827 0.26430151 -5.163909 19.5
1.9726768 0.13857232 -4.9825244 19.383617
2.1249039 0.17953806 -4.9966631 19.937044
3.1318023 0.1858495 -4.972878 20.264881
3.3990827 0.23157078 -4.9781432 19.657158
4.3001561 0.07496275 -5.0046005 18.432257
4.4323487 0.084944546 -4.9166708 18.674929
5.4245362 0.20009863 -4.9996133 19.921579
5.7418013 0.24656595 -5.0352983 19.444445
-7.6254129 0.58670008 -4.977252 28.375
-7.5173569 0.61417419 -4.9611773 27.465857
-5.6529303 0.55742723 -5.0281916 28.645874
-5.5835896 0.6075083 -5.0544004 28.127831
-2.8834136 0.58199871 -4.9920778 28.169989
-2.7783344 0.66719657 -4.9663348 27.166666
-1.391203 0.62326717 -4.9514513 21.5
-0.9573518 0.63001579 -4.9936543 25.747938
1.972463 0.62147993 -4.9973054 27.78866
2.1257076 0.6473242 -4.9980159 25.555511
3.1281784 0.63349766 -4.9634085 25.529442
3.4324875 0.66494447 -4.9373126 23.618879
5.4257665 0.64212811 -5.0000963 25.058966
5.7422318 0.64975798 -5.0146728 22
-7.6695566 0.91044396 -4.9449329 30
-7.4930453 0.97537625 -4.9393258 29.333218
-5.6225834 0.87564468 -4.9429522 30
-2.905637 0.94338566 -5.023356 29.584822
-2.7773485 0.86327302 -4.906251 29.5
-1.3871957 1.0636508 -4.9413042 24
-0.94887519 1.0455323 -4.9949183 27.124498
1.9671307 0.9292677 -5.0027523 29.716665
2.1301854 1.0262333 -5.0011606 27.616352
3.1261821 1.0511692 -4.9574218 27.424286
3.4776099 1.0466255 -4.9236655 25
5.4285479 1.0495318 -4.9976115 27.181187
5.7446089 1.0856227 -5.0067544 24.633333
-1.3852071 1.510004 -4.936245 26.5
-0.92698473 1.4213116 -4.9874806 28.464142
2.1399119 1.4303892 -5.0077815 28.475306
3.1266742 1.3845631 -4.9415112 29.333334
3.4706886 1.4798391 -4.9763374 27.9
5.4280214 1.4214885 -5.0018353 28.98535
5.7498598 1.4918969 -4.9972768 27.066668
-1.3852249 1.8743491 -4.936245 28.5
-0.91418678 1.8304888 -5.0149312 29.150282
2.134392 1.7958349 -5.0107198 29.722221
3.1138368 1.8044672 -5.0594492 29.799999
3.465518 1.7949291 -4.9511242 30
5.4556413 1.8369489 -4.98525 29.18889
5.7471418 1.8330144 -4.9748983 29.222223
-1.3800064 2.1484876 -4.9230671 30
-0.91390657 2.1799755 -5.0409794 29.973333
2.1300018 2.091568 -5.0971203 30
5.513608 2.1648178 -5.0103059 30
5.7310405 2.1393971 -4.9246011 30
-7.3649235 -0.035390303 -4.6121054 15.01051
-7.0180683 -0.047313422 -4.5770411 12.691429
-6.6234741 -0.047087949 -4.5844798 13.437502
-6.2147722 -0.047069583 -4.5854139 12.803612
-5.8703942 -0.044764094 -4.632596 12.651202
-2.8334832 -0.017396573 -4.5948997 14.825686
-2.5882761 -0.044953965 -4.5885563 13.354449
-2.2239437 -0.047141172 -4.6020322 13.873927
-1.8263379 -0.047113284 -4.5993595 13.847186
-1.4313724 -0.046431288 -4.5768061 13.102984
-1.0402446 -0.032771513 -4.5955105 14.592254
-0.56580025 -0.046112709 -4.6335955 14.467636
-0.19738294 -0.047283825 -4.6223874 14.175619
0.20338131 -0.047326483 -4.5726047 13.717636
0.60242516 -0.047264121 -4.6057405 12.843767
0.9974069 -0.047047533 -4.609499 14.407856
1.4176612 -0.047283344 -4.5922704 12.715056
1.7783575 -0.047207434 -4.614265 14.421362
2.0687585 -0.018982686 -4.6189208 15.514142
3.161088 -0.021134658 -4.6239986 13.361297
3.4009612 -0.046748832 -4.5948687 12.281922
3.830528 -0.046892446 -4.5987387 13.946438
4.2341619 -0.041379999 -4.5953178 12.721507
4.6805425 -0.046530515 -4.6125507 13.686368
5.0557408 -0.047219217 -4.5918832 15.174606
5.2846203 -0.044588402 -4.5795712 15.610084
-7.7019281 0.1633856 -4.5596194 19.5
-7.5084844 0.16164656 -4.5593157 20.029461
-5.6413994 0.14041673 -4.5867944 20.186146
-5.5827088 0.15659639 -4.6022215 19.650181
-2.8774395 0.15681382 -4.593267 20.472601
-2.7746594 0.10373051 -4.597784 18.470238
-1.3724502 0.2645818 -4.6198931 19.5
-0.97965759 0.16944154 -4.5990467 19.904108
1.9574182 0.15381177 -4.6193137 19.714893
2.1239262 0.18674208 -4.6029801 19.907892
3.1310172 0.16180918 -4.5578899 19.944904
3.4330122 0.23498552 -4.5342669 19.666666
4.3190575 0.090661034 -4.7853389 19.060793
5.4230609 0.15874597 -4.6119242 19.499321
5.7019577 0.24323668 -4.6085095 19.511538
-7.6945124 0.67550588 -4.5750756 26
-7.5049038 0.63183343 -4.5476265 26.813267
-5.6362219 0.58657032 -4.5893536 28.353996
-5.5751281 0.64959514 -4.662993 27.221212
-2.8782871 0.57471836 -4.6119089 28.504576
-2.7554884 0.67127788 -4.5594816 26.25
-1.3667303 0.68437928 -4.6060047 22
-0.96628135 0.63455147 -4.5974717 25.656404
1.9627664 0.61473083 -4.6114855 27.360569
2.1298499 0.64926898 -4.5966992 25.256563
3.1272943 0.64403337 -4.5497255 25.920681
3.4266441 0.70093709 -4.5707359 23.35
5.4273539 0.6290974 -4.6007457 25.876188
5.7166791 0.66784912 -4.6219277 22.190475
-7.6908121 0.95809758 -4.5827808 29.5
-7.4882665 0.99526972 -4.5431428 29.028391
-5.6351795 0.92885423 -4.5614538 29.888889
-5.5705409 0.86342365 -4.4633942 29.333334
-2.9039147 0.91636521 -4.5836263 29.757574
-2.7541265 0.93672216 -4.5955596 29.75
-1.3610753 1.1061319 -4.5922737 24.5
-0.95847905 1.0400006 -4.6050215 27.358303
1.9605621 0.86903161 -4.4798512 29.666666
2.1274414 1.026579 -4.5934763 27.493011
3.1244378 1.0460972 -4.538353 28.104347
3.458734 1.0893825 -4.6377344 25.4
5.4304533 1.0309038 -4.5956626 27.800049
5.7146158 1.0792426 -4.5986071 24.945454
-7.4808936 1.3425258 -4.501842 29.9
-1.3610905 1.4492801 -4.5922737 26.5
-0.93129587 1.4258825 -4.6016951 28.439274
2.1374855 1.4584118 -4.5890903 28.487999
3.1192143 1.3392353 -4.4966745 29.780487
3.4635673 1.4731975 -4.6648397 28
5.4364772 1.4122447 -4.6217551 28.789131
5.7203054 1.4703829 -4.6153917 27.475
-1.3594726 1.8857799 -4.5883093 29
-0.91301805 1.8349266 -4.5892043 29.215151
2.1367238 1.7807013 -4.5854049 29.644737
3.1375821 1.8528911 -4.7533464 29.5
3.4545469 1.762136 -4.6870365 29.777779
5.5009518 1.8535756 -4.6030054 29.182051
5.7315211 1.8115534 -4.5691953 29.5
-0.91697943 2.1402729 -4.6399817 30
2.1339459 2.1633778 -4.4572725 29.9
5.4841242 2.107013 -4.7072153 30
5.6688848 2.10866 -4.6082215 30
-7.3827758 -0.031830858 -4.2018285 15.110806
-6.9998236 -0.047249634 -4.2039552 13.428681
-6.635747 -0.047084853 -4.187325 13.790948
-6.2030773 -0.047068045 -4.1968222 13.508486
-5.8145585 -0.03535293 -4.1841459 13.087747
-5.5193825 -0.033977468 -4.0621076 14.6834
-5.0591025 -0.018158723 -4.0563908 17.25
-4.7186613 -0.0004827641 -4.003602 16.85
-4.139133 -0.0031139255 -4.0188041 16.75
-3.4102716 -0.026034825 -4.0451026 16
-2.8593285 -0.024034929 -4.1052613 15.251511
-2.5890231 -0.044409983 -4.1833291 13.784443
-2.2155645 -0.047250327 -4.1988311 13.741278
-1.8096743 -0.047089085 -4.2274561 14.282903
-1.4165374 -0.04721291 -4.1654177 12.776153
-1.0291513 -0.035841707 -4.1546168 13.993844
-0.58789372 -0.046964966 -4.1872749 12.920309
-0.20521367 -0.047280565 -4.2165623 13.3145
0.21108823 -0.04723227 -4.2010436 13.556065
0.59395349 -0.047098506 -4.2028918 14.480383
1.0139012 -0.047120277 -4.1718969 14.708645
1.4066391 -0.047339089 -4.1833043 13.442673
1.8168491 -0.046265017 -4.2092996 14.203759
2.0653656 -0.026516043 -4.2349424 15.710144
3.1703751 -0.021282511 -4.1577148 13.107706
3.4011416 -0.046880662 -4.1974802 12.473591
3.8423855 -0.046809532 -4.2130437 14.387529
4.2277589 -0.047258291 -4.2010727 12.348874
4.6491642 -0.047235299 -4.2059097 13.767577
5.0677276 -0.047172274 -4.1995597 15.259263
5.3006926 -0.039062381 -4.1734753 16.062773
-7.724545 0.15104181 -4.1794434 19.25
-7.5004697 0.17102309 -4.1680131 19.808716
-5.6383476 0.16515839 -4.1952467 21.308622
-5.4253216 0.17892526 -4.0746589 20.319609
-4.9673138 0.19073716 -4.0143576 20.776825
-4.5950341 0.18316014 -4.0158668 20.637815
-4.1957469 0.16167176 -4.0154452 19.974352
-3.804636 0.1691225 -4.0189481 20.142666
-3.3941569 0.16496381 -4.0240211 20.133898
-2.9281693 0.15856436 -4.1545391 20.296177
-2.7646358 0.081004724 -4.1644921 18.05625
-1.3392023 0.13493142 -4.1543865 18.75
-0.97914684 0.17003411 -4.1960216 19.863327
1.9163102 0.17273909 -4.2225728 19.727911
2.126915 0.18364589 -4.2004075 19.809505
3.1323221 0.17144869 -4.1750941 20.047909
3.3855891 0.19898823 -4.1976209 19.4
5.421258 0.19627391 -4.2089691 19.939823
5.6933565 0.22841638 -4.1839628 19.456522
-7.7196169 0.65431935 -4.1515522 25
-7.4986181 0.63933051 -4.1621523 25.41699
-5.6411538 0.60254937 -4.1780658 27.832243
-5.4321184 0.67442244 -4.0936451 25.877844
-4.9631553 0.66641366 -4.0126314 25.878153
-4.5847116 0.58218873 -4.0175772 27.652554
-4.2045212 0.60579652 -4.0201745 27.958302
-3.8033462 0.60667002 -4.020915 27.830328
-3.4341068 0.61608917 -4.0224485 28.059008
-2.9389074 0.5986709 -4.152503 28.122063
-2.7498839 0.66701436 -4.1243334 25.25
-1.3442899 0.65970188 -4.2886686 22
-0.97249234 0.64897037 -4.2061162 25.455921
1.9022222 0.66218913 -4.2446055 26.610849
2.1293483 0.65079778 -4.2058315 24.956747
3.1257749 0.63138086 -4.1513844 26.15461
3.3907185 0.65597409 -4.2007337 23.125
5.423758 0.63930452 -4.2131982 25.672482
5.7053714 0.67524707 -4.2090282 22.572222
-7.7136521 1.0087531 -4.1796513 29
-7.4911323 1.0403807 -4.1572332 27.20443
-5.6570368 0.96407157 -4.1471319 29.200001
-5.4324598 0.98952734 -4.0720983 28.962938
-4.9505725 1.0278598 -4.0122075 28.772728
-4.6321654 1.0116776 -4.0103159 29.051281
-4.2276263 0.97205532 -4.0082555 29.423077
-3.7989516 0.93988538 -4.0066404 29.742426
-3.4262209 0.90738475 -4.0199962 29.9375
