# .PCD v0.7 - Point Cloud Data file format
VERSION 0.7
FIELDS x y z intensity
SIZE 4 4 4 4
TYPE F F F F
COUNT 1 1 1 1
WIDTH 1358
HEIGHT 1
VIEWPOINT 0 0 0 1 0 0 0
POINTS 1358
DATA ascii
-1.3741337 0.74941772 -2.1717455 12
-2.7250519 1.1169357 -5.1407118 12
-2.542325 0.82505226 -2.1813269 12
-2.7327499 0.98436636 -4.4330888 12
-3.7770748 0.97498661 -2.1750271 12
-2.8438308 0.85775018 -2.177942 12
-2.1389432 0.78830135 -2.1721845 12
-1.1037135 0.7494154 -2.1554217 12
0.79626608 1.0001651 -2.2204914 13
-1.425223 2.1207211 -8.6964893 13
-0.94358402 0.80874151 -2.1500835 13
-1.1044867 0.80392462 -2.1651049 13
-1.999249 0.84092164 -2.153739 13
-2.719388 1.25441 -5.3961816 13
-1.60508 0.81262958 -2.1716762 13
-3.7733135 1.08136 -2.1672018 13
-2.7967727 0.93151033 -2.1712477 13
-2.7193825 1.4454402 -6.1393347 13
-3.1008217 0.97524524 -2.167686 13
-2.5508246 0.8994168 -2.1647339 13
-2.7333143 1.1280534 -4.8432493 13
-1.779574 0.82319415 -2.1650639 13
-2.7356665 1.1774147 -5.0631771 13
0.79925823 1.0922232 -2.2096195 14
-0.9235183 0.86434311 -2.1636977 14
-1.126846 0.86052674 -2.1548052 14
-1.373301 0.86052132 -2.1689019 14
-2.7409911 1.1923389 -4.8087492 14
-2.7173324 1.5497534 -6.1257858 14
-1.6090629 0.87249321 -2.1516171 14
-2.7299838 1.1396213 -4.5853033 14
-2.2631583 0.93337506 -2.162468 14
-2.736901 1.1075194 -4.4233856 14
-3.1613531 1.0745934 -2.1556706 14
-2.7336149 1.271966 -5.1342397 14
-2.8028724 1.0130465 -2.1577752 14
-2.5502825 0.97354078 -2.1583982 14
0.8013742 1.1858153 -2.1992033 15
-0.92406261 0.921525 -2.1612072 15
-1.1265776 0.91948795 -2.1392937 15
-1.997671 0.96822256 -2.1449432 15
-3.0957389 1.1521637 -2.1551037 15
-1.6068958 0.93031114 -2.1543109 15
-2.7449298 1.2641187 -4.804852 15
-2.7208374 1.6337898 -6.0442648 15
-2.7263608 1.4257281 -5.3878384 15
-2.260994 1.0015793 -2.1591988 15
-3.6265116 1.266923 -2.1405122 15
-2.8166823 0.66075408 -4.2611556 6
-0.96888185 0.39118069 -2.1693892 6
0.50282121 0.36518484 -2.0574565 7
-2.7627788 0.84512985 -5.8208742 7
-0.96767062 0.44624358 -2.1674001 7
-2.8024855 0.71392769 -4.2510271 7
-1.2202021 0.45881993 -2.190315 7
-2.6298015 0.50365579 -2.2016635 7
-2.7624946 0.79589784 -5.2193384 7
-2.76893 0.73143464 -4.4570131 7
2.2671077 0.85364437 -6.5062504 8
0.50853014 0.45333683 -2.0469356 8
-7.4422512 0.87682188 -2.7747424 8
-0.9656269 0.50070441 -2.1619706 8
-2.7742367 0.76717335 -4.2585578 8
-2.7587843 0.91269946 -5.6210179 8
-2.7065964 0.57505214 -2.1915772 8
-2.7658296 0.86892307 -5.2191415 8
-2.9629421 0.5874449 -2.1900523 8
2.2715871 1.0155576 -6.4896116 9
0.50831676 0.54210287 -2.0412951 9
-7.4195518 1.0892813 -2.7565122 9
-1.3479338 1.3865345 -8.7312593 9
-0.95228505 0.55710489 -2.2039509 9
-2.8054399 0.82157928 -4.2435279 9
-3.488903 0.70536178 -2.1962817 9
-2.7621412 0.8418088 -4.4448543 9
-2.7516086 0.99489397 -5.6071482 9
-2.7471046 1.0507231 -6.0057878 9
-2.7650611 0.89042366 -4.8283982 9
-2.329422 0.61892891 -2.1786664 9
2.2852647 1.1792867 -6.4798861 10
0.51528394 0.63086599 -2.0296903 10
-1.341413 1.5649018 -8.714469 10
-2.808296 0.87626088 -4.2402749 10
-0.95095956 0.61039114 -2.2012491 10
-2.7361803 1.1711648 -6.1459346 10
-2.7623186 0.91291213 -4.5479741 10
-1.7702096 0.64088047 -2.175705 10
-3.4903677 0.79612947 -2.1842608 10
-2.1206853 0.66490602 -2.179554 10
-2.3563533 0.68383932 -2.1753864 10
-2.7689509 0.88853306 -4.3681121 10
-2.7670808 0.9653635 -4.8950462 10
2.2881548 1.3426272 -6.4618368 11
0.52125728 0.72046775 -2.0188544 11
-1.3346956 1.7468222 -8.7086105 11
-2.7999501 0.92931062 -4.2325573 11
-0.96111208 0.66496491 -2.1523499 11
-2.7322252 1.2712257 -6.1357861 11
-2.7572176 1.0286887 -4.8821697 11
-1.212061 0.66889834 -2.1647694 11
-2.7016363 0.78588361 -2.1682944 11
-2.9535003 0.81668258 -2.1690314 11
-2.3330824 0.74502319 -2.153841 11
2.2895782 1.5067495 -6.4425516 12
0.53523326 0.81179571 -2.0012569 12
-0.95434427 0.7214095 -2.1277113 12
-2.7700286 0.98063421 -4.2396178 12
-3.690974 1.0141428 -2.1652341 12
-2.6168404 0.84548372 -2.1693854 12
-2.7415609 1.2462881 -5.5818057 12
-2.1176815 0.78361964 -2.1655574 12
-2.3500843 0.81058514 -2.1656489 12
-1.5651227 0.73836088 -2.1385033 12
2.2911787 1.6723304 -6.4232225 13
0.52891231 0.90236986 -2.0005727 13
-0.95418078 0.77734256 -2.130054 13
-2.8031387 1.04118 -4.2248125 13
-2.7248406 1.4307287 -5.9548111 13
-3.3569312 1.0482593 -2.1580634 13
-1.2082617 0.77631009 -2.1560929 13
-1.764715 0.8066296 -2.1577599 13
-2.7568355 1.0531186 -4.349184 13
2.3048036 1.8436596 -6.4125137 14
0.52909756 0.99447203 -1.9943831 14
-0.95681649 0.83199829 -2.143775 14
-2.7586205 1.0878057 -4.2261372 14
-2.7375546 1.3049886 -5.1633358 14
-1.5609107 0.849383 -2.1288385 14
-2.6470034 0.99277741 -2.1577468 14
-3.3499675 1.1379585 -2.1521626 14
-3.0307336 1.0691781 -2.1532803 14
-2.7543201 1.1483314 -4.5257874 14
-2.750469 1.2111791 -4.7951941 14
-2.7342236 1.4730918 -5.7518253 14
-2.1515985 0.91264135 -2.1327624 14
2.2557442 1.5174325 -4.8860908 14
2.3096671 2.0151365 -6.3949842 15
-0.95374918 0.89000946 -2.1343541 15
-2.7645667 1.1465425 -4.2239609 15
-3.6729 1.313849 -2.1409481 15
-3.0272746 1.1518829 -2.1457229 15
-2.1514609 0.9769659 -2.1224356 15
-2.647397 1.0666636 -2.1471286 15
2.2646439 1.6615787 -4.8735671 15
-0.98090017 0.59419441 -4.3633542 5
-0.97500849 0.62725502 -4.3889074 6
-1.0668825 0.3812083 -2.1523976 6
-0.97366309 0.65802723 -4.3639274 7
-1.0619687 0.43429911 -2.1380668 7
-2.7663577 0.71490878 -4.4123616 7
-2.3604593 0.48443103 -2.2126343 7
-2.7492638 0.80993432 -5.5455456 7
-2.758234 0.75143868 -4.8391895 7
-1.6498897 0.46172953 -2.1933208 7
-0.96886915 0.69288558 -4.3879056 8
-1.0451307 0.54602551 -2.8462412 8
2.2622716 0.8284055 -6.2783933 8
-7.4161601 0.85215795 -2.8133326 8
-1.8581706 1.3138595 -9.572093 8
-2.7874835 0.75162482 -4.2550626 8
-1.0667746 0.49061477 -2.1528759 8
-2.7667291 0.76674551 -4.4086862 8
-2.7382908 0.92490041 -5.8590221 8
-1.6074018 0.50966251 -2.1660731 8
-2.6055391 0.55375248 -2.203979 8
-1.7986376 0.51911616 -2.1957259 8
-3.0654178 0.57546324 -2.2080898 8
-2.7513556 0.88382435 -5.4867282 8
-1.218644 0.49694151 -2.1711812 8
-2.3687844 0.54207951 -2.1900022 8
-0.97476006 0.72136337 -4.353375 9
-1.0433147 0.57816654 -2.842061 9
2.2786 0.99045885 -6.2702742 9
0.76187468 0.5511632 -2.2582159 9
-1.4365516 1.3834591 -8.7269287 9
-7.4210186 1.0611267 -2.7914701 9
-2.7767849 0.80018884 -4.2459641 9
-1.0616653 0.54394287 -2.1379616 9
-2.7681174 0.81898117 -4.4056101 9
-2.7483406 0.89076626 -4.9662523 9
-2.7426443 0.98614538 -5.6530523 9
-3.3562117 0.67199701 -2.2060764 9
-2.7418008 0.62671494 -2.1981802 9
-1.6459181 0.56429088 -2.1870866 9
2.2243176 0.86410177 -5.2454205 9
-3.804163 0.70677054 -2.2046154 9
2.1428175 0.55225682 -2.0411623 9
-0.96838492 0.75452799 -4.3571854 10
-1.0309378 0.61027604 -2.8217173 10
2.2916656 1.1535558 -6.2597237 10
0.7682445 0.64459735 -2.247323 10
-1.4301376 1.5651028 -8.7208004 10
-1.056123 0.59816325 -2.1217566 10
-2.7769847 0.85018098 -4.2420688 10
-1.0521618 0.6052388 -2.5814519 10
-0.96672297 0.79509646 -4.5947337 10
-2.7445784 0.95447981 -4.9584017 10
-3.5881381 0.77909368 -2.2000551 10
-3.0153904 0.71985734 -2.1941373 10
-2.7666526 0.86761636 -4.3762674 10
-1.6028498 0.61366987 -2.1670547 10
-1.7955716 0.62295008 -2.1832793 10
-1.0379254 0.64322162 -2.830977 11
2.2798159 1.3137484 -6.231936 11
0.76604939 0.73842573 -2.2414782 11
-1.4238839 1.7459011 -8.7020969 11
-2.775454 0.90025389 -4.2373228 11
-1.0558509 0.65319264 -2.1213443 11
-1.0490917 0.64557338 -2.5740981 11
-2.7469521 0.99356151 -4.8129616 11
-2.7565212 0.91760147 -4.3663974 11
-2.7501392 0.9605155 -4.6267066 11
-2.7346816 1.1525476 -5.6333294 11
-2.7451904 1.0348022 -5.0340061 11
-3.3560784 0.83760589 -2.1857691 11
-3.0158315 0.79403049 -2.1841369 11
-1.2120001 0.65474266 -2.1489923 11
2.1578469 0.83299148 -2.011729 11
-0.96542376 0.82479054 -4.3735809 12
-1.0297828 0.67700255 -2.8170412 12
2.2922835 1.4792944 -6.2206669 12
0.77401733 0.83354247 -2.2295103 12
-1.4172441 1.9325969 -8.7003622 12
-1.0525806 0.70884937 -2.1119556 12
-2.7774181 0.95167953 -4.2341738 12
-0.95776033 0.87714982 -4.5977101 12
-2.7415133 1.0539448 -4.8038826 12
-2.7405388 1.1294926 -5.1529622 12
-2.7352805 0.82867032 -2.1781034 12
-2.7364283 1.2102406 -5.5084081 12
-2.1269364 0.75709355 -2.1522932 12
-0.9610036 0.85432875 -4.3527961 13
-1.0345554 0.70985776 -2.8229146 13
2.2908711 1.6435208 -6.1997585 13
-1.4106071 2.1208839 -8.6929016 13
-1.0537918 0.76414394 -2.1159892 13
-2.7704601 1.0013089 -4.2268152 13
-1.7878133 0.78053707 -2.1786122 13
-2.7306933 1.1974854 -5.1370034 13
-2.7406716 1.0735445 -4.6112537 13
-2.1254091 0.815027 -2.1456077 13
-3.7838423 1.0901728 -2.1718652 13
-2.7302928 1.27508 -5.437614 13
-0.960796 0.91551608 -4.5862079 13
-2.351506 0.84075171 -2.1725862 13
-1.5964097 0.76993901 -2.1639221 13
-3.1423717 0.96743011 -2.1735299 13
-0.95881838 0.89475381 -4.3725977 14
2.317944 1.8182254 -6.1976905 14
0.78557229 1.0275708 -2.2078819 14
-1.0564489 0.81892055 -2.1243501 14
-1.8145684 2.5883539 -9.4580631 14
-0.95427203 0.95946038 -4.5908785 14
-2.7568965 1.0830724 -4.3787718 14
-2.596765 0.94320518 -2.1602294 14
-2.2911677 0.89303946 -2.1715937 14
-3.5782342 1.1426873 -2.1630583 14
-3.1408367 1.0476427 -2.164701 14
-2.7284679 1.3566842 -5.4312196 14
-2.7335083 1.2723004 -5.1365347 14
2.3105352 1.9852614 -6.1722088 15
0.78839827 1.1264734 -2.198674 15
-2.7607772 1.1031622 -4.2139564 15
-2.291698 0.95537698 -2.1608205 15
-2.7114682 1.5588983 -5.7888412 15
-2.7497966 1.1300943 -4.3462162 15
-3.0478346 1.1079533 -2.1557999 15
-2.7337897 1.3079679 -5.0053487 15
2.255342 1.7417414 -5.1607599 15
-1.062351 0.51342225 -2.9021299 5
-0.8636809 0.59353542 -4.0783424 5
-1.0618017 0.54539174 -2.9002578 6
-0.87983191 0.62861961 -4.0803838 6
-2.2671363 0.49523535 -2.1520748 6
-2.7573895 0.70756537 -4.6704617 6
-1.0750835 0.53070086 -2.7677007 6
-1.0610958 0.57716328 -2.8982322 7
-0.85490739 0.66030526 -4.0773125 7
-3.7465608 0.58941913 -2.1952448 7
-1.0945261 0.50522095 -2.1045907 7
-2.8222973 0.73432523 -4.2216091 7
-0.9798069 0.68858087 -4.4141436 7
-2.747463 0.75806129 -4.5976348 7
-1.0720598 0.56535965 -2.7627523 7
-1.7703148 0.5324921 -2.1222968 7
-1.3013653 0.51491463 -2.1156707 7
-2.7562506 0.74276155 -4.3649349 7
-2.2104492 0.54957855 -2.1589615 7
-3.3038239 0.57851624 -2.1791506 7
-1.0565083 0.6085037 -2.8922186 8
-0.88644046 0.69408453 -4.0693274 8
-0.98617661 0.70388687 -4.1562924 8
2.1159825 0.46962625 -1.8195745 8
-7.4355559 0.91618502 -2.8135319 8
-1.3715739 1.143931 -8.6911888 8
-1.0897914 0.55939525 -2.0937276 8
-2.7641847 0.78024232 -4.2298641 8
-1.0824828 0.5836212 -2.4892082 8
-1.07893 0.59814298 -2.7218935 8
-2.7555761 0.81812435 -4.6639733 8
-2.7310147 0.89037013 -5.4653397 8
-1.8534784 0.58700198 -2.1250699 8
-2.7425745 0.8418504 -4.9327869 8
-1.4531429 0.57334435 -2.1399827 8
-3.1978793 0.65036321 -2.1790583 8
-2.1342385 0.60049391 -2.1611576 8
-1.2841125 0.5659802 -2.1069391 8
-0.88446087 0.72669321 -4.0673466 9
-0.98180586 0.73579156 -4.156733 9
2.1394155 0.61495799 -1.7999424 9
-1.3644149 1.3255916 -8.6911888 9
-7.4208255 1.1203678 -2.7986259 9
-2.7531717 0.8252089 -4.2207952 9
-1.0910406 0.61464405 -2.0970764 9
-1.0790149 0.62618524 -2.4825516 9
-0.97215539 0.76861823 -4.4398766 9
-2.7471209 0.87219322 -4.6533408 9
-2.730082 0.95315659 -5.3424487 9
-2.7222021 1.0003383 -5.7272377 9
-2.9033799 0.70272243 -2.1734226 9
-1.7657968 0.63441592 -2.1214237 9
-2.1333396 0.65302074 -2.1545835 9
-1.4517176 0.62343711 -2.1401355 9
-3.6761973 0.76157546 -2.1803298 9
-3.2933934 0.73142105 -2.1713655 9
-1.9100767 0.64162201 -2.151711 9
-1.2994916 0.61854404 -2.1171641 9
-0.88285458 0.75944436 -4.0651016 10
-0.97669637 0.76822531 -4.1577811 10
2.1292105 0.7613796 -1.7956458 10
-1.3570937 1.5091982 -8.6929054 10
-2.7547464 0.87188476 -4.2190924 10
-1.0807872 0.66941386 -2.1306429 10
-0.97038406 0.80797988 -4.4373107 10
-0.9631362 0.85219544 -4.730165 10
-2.718363 1.0855769 -5.7190151 10
-1.0719739 0.67018181 -2.7104232 10
-2.7341194 0.97073859 -4.9587102 10
-2.746834 0.91932583 -4.589879 10
-1.2582599 0.67048836 -2.1010327 10
-2.7462893 0.88736933 -4.3502712 10
-3.7377875 0.85580963 -2.1741331 10
-3.3871708 0.818196 -2.1699691 10
-2.9082031 0.76999718 -2.1605668 10
-1.2566981 0.66924953 -2.1263239 10
-2.2620175 0.71499372 -2.1293268 10
-1.909695 0.69242817 -2.1415935 10
-0.85580397 0.79424512 -4.0632534 11
-0.97496486 0.80055815 -4.155797 11
2.1455011 0.90919536 -1.7791318 11
-1.3514757 1.6888134 -8.663414 11
-2.8089473 0.9247508 -4.2031889 11
-1.0910628 0.72438711 -2.0978904 11
-0.96882302 0.84315276 -4.4091473 11
-0.95629227 0.90219772 -4.7350969 11
-2.7234964 1.1007651 -5.3288212 11
-2.7290447 1.0261384 -4.9098392 11
-1.0687336 0.70803195 -2.6520865 11
-2.2013872 0.76489073 -2.1454737 11
-1.2559913 0.7234804 -2.0956812 11
-3.1940494 0.87309247 -2.1582427 11
-1.3167266 0.72244996 -2.1043909 11
-0.85914654 0.82732105 -4.0577579 12
-0.97806782 0.83204019 -4.1495509 12
2.1469226 1.0576088 -1.7693892 12
-1.3429984 1.8803475 -8.682169 12
-2.7541173 0.96600544 -4.2134027 12
-1.0878837 0.77995789 -2.0907292 12
-1.846266 0.79323679 -2.1084304 12
-1.0617983 0.7487331 -2.6128049 12
-1.3139564 0.77518731 -2.0951862 12
-3.3815217 0.97821254 -2.1575255 12
-2.0195746 0.80473447 -2.1221662 12
-2.727911 1.1789303 -5.3344917 12
-2.7351303 1.0840871 -4.8759546 12
-3.7380309 1.0369474 -2.1558013 12
-3.1025658 0.93481046 -2.1521392 12
-1.2754891 0.77707291 -2.0867729 12
-0.88294679 0.8582322 -4.0550265 13
-0.97484076 0.86532277 -4.1488104 13
2.1542377 1.2081995 -1.756815 13
-1.3366103 2.0661111 -8.6633234 13
-2.7550082 1.0143394 -4.2112012 13
-1.0845635 0.83639616 -2.0832391 13
-0.96627963 0.9218716 -4.4027138 13
-2.7276328 1.1629266 -4.9442477 13
-1.2905191 0.8280772 -2.0928807 13
-3.6627033 1.1142063 -2.1536074 13
-1.8437274 0.84545863 -2.1080503 13
-2.7193718 1.2817085 -5.4389458 13
-3.095535 1.0075834 -2.1505675 13
-1.2499747 0.83176517 -2.0802636 13
-0.87304139 0.89462525 -4.0579653 14
-0.97658199 0.89755774 -4.1437082 14
2.1447425 1.3579488 -1.7519894 14
-2.7502918 1.0615799 -4.2057366 14
-1.0851344 0.89240265 -2.0849826 14
-1.0607082 0.82902873 -2.60917 14
-1.7959932 2.5253139 -9.4567719 14
-2.2443469 0.93690312 -2.1328127 14
-2.7287147 1.1089029 -4.4524589 14
-1.2514572 0.87779492 -2.1200323 14
-3.6581149 1.2044876 -2.1475148 14
-1.4633721 0.8785423 -2.1184754 14
-1.2449083 0.88831568 -2.0659647 14
-2.7469513 1.1570927 -4.6410608 14
-0.97205174 0.93247467 -4.1439624 15
2.1673141 1.5160408 -1.7319692 15
-1.0712445 0.94599676 -2.1098814 15
-0.96080852 1.011356 -4.4246106 15
-1.0609968 0.86568558 -2.6368363 15
-1.7880151 2.7473774 -9.4373569 15
-2.7277896 1.1629139 -4.4490948 15
-2.2473974 0.99706125 -2.1171641 15
-3.7123671 1.3111374 -2.1447241 15
-1.8383021 0.95106089 -2.108851 15
-3.2752504 1.2019451 -2.1360202 15
-2.7247298 1.2730377 -4.8568649 15
-2.0137808 0.96803731 -2.1094599 15
-1.4615262 0.9313454 -2.1148 15
-1.2480291 0.941535 -2.0781176 15
-0.93292665 0.53148371 -3.1876581 5
-0.95725238 0.60078126 -4.0974879 5
-1.0204515 0.51162004 -2.9572294 5
-0.93547332 0.56383729 -3.1863811 6
-1.0211546 0.5526374 -3.0216794 6
-1.0220553 0.54532349 -2.9563599 6
-0.94882286 0.63495541 -4.099905 6
-2.7536995 0.7083261 -4.7174187 6
-2.4627857 0.4918918 -2.1978068 6
-2.7509489 0.68593252 -4.2423267 6
-0.94758099 0.6637733 -4.7486606 6
-0.96388239 0.65353411 -4.4718046 6
-2.7544925 0.69650894 -4.4544191 6
-1.0229838 0.52790874 -2.806354 6
-0.95873356 0.64089179 -4.2023954 6
-1.0507398 0.47693259 -2.3788102 6
-1.3707443 0.4680469 -2.1954529 6
-1.0318481 0.50043076 -2.5752759 6
-1.94524 0.48247498 -2.1720648 6
-1.2916372 0.45621747 -2.1220212 6
-2.2677388 0.49026075 -2.195097 6
-1.7794151 0.47937274 -2.1775167 6
-0.9259755 0.59484935 -3.1804028 7
-1.0218706 0.58458036 -3.0201216 7
-0.95400852 0.66953516 -4.0927172 7
-1.0268174 0.57903212 -2.9578252 7
-2.7460942 0.7287606 -4.23634 7
-1.0603011 0.49748069 -2.0952024 7
-0.95982903 0.69651341 -4.4716105 7
-1.022064 0.54396391 -2.5890999 7
-2.7460289 0.74362159 -4.4442277 7
-3.1057839 0.73417038 -4.242969 7
-1.8984281 0.53336066 -2.1917686 7
-2.7512722 0.76238716 -4.7119756 7
-1.3691875 0.51753199 -2.1908393 7
-1.6965275 0.52734137 -2.187546 7
-2.086046 0.53843188 -2.1948855 7
-3.2117083 0.56098616 -2.2017808 7
-2.4914041 0.54658723 -2.1862187 7
-1.5329474 0.52083468 -2.1714659 7
-0.93046749 0.62706107 -3.1799104 8
-0.95275497 0.70386946 -4.0900779 8
-7.4007983 0.86516422 -2.7730632 8
-1.8229486 1.2682683 -9.5664787 8
-1.0610678 0.55347162 -2.0951989 8
-2.758388 0.77304202 -4.2419491 8
-1.0189527 0.58565456 -2.5833595 8
-2.7323244 0.87250388 -5.2946825 8
-2.4888926 0.60208297 -2.1832504 8
-0.95084631 0.76462656 -4.7310462 8
-2.7366471 0.83958411 -4.9540272 8
-4.2253332 0.67613375 -2.2041256 8
-1.9422991 0.58185244 -2.164283 8
-1.0417172 0.57095015 -2.3613672 8
-0.93887639 0.65892583 -3.1810026 9
-1.0189215 0.64877409 -3.0299225 9
-1.4340541 1.3559237 -8.7154856 9
-7.3920374 1.0649157 -2.7570436 9
-1.0586759 0.60893804 -2.0890975 9
-3.0984964 0.84133482 -4.2320313 9
-1.2887002 0.61151636 -2.113471 9
-2.7488341 0.82782936 -4.3434539 9
-3.9741707 0.7574929 -2.2019072 9
-2.7346113 0.90011662 -4.9486418 9
-3.1607428 0.6994583 -2.1942308 9
-3.4884825 0.72200155 -2.1944711 9
-2.4865234 0.65751761 -2.1800394 9
-2.8823824 0.68033773 -2.1694889 9
-2.2629728 0.64612365 -2.1829205 9
-0.94327903 0.69033736 -3.1805315 10
-1.011323 0.68049234 -3.0230732 10
-0.94762093 0.77316773 -4.0865784 10
-1.4285414 1.5393066 -8.7043552 10
-1.0539041 0.66473424 -2.0783808 10
-2.7493525 0.85891026 -4.2304211 10
-1.0237956 0.67371619 -2.7990351 10
-3.8951674 0.84195364 -2.1974146 10
-0.95348561 0.82619286 -4.4640322 10
-1.0472792 0.66641551 -2.3292408 10
-2.7358527 0.88441885 -4.4272161 10
-1.028753 0.67700011 -2.9360476 10
-1.0261364 0.66939902 -2.5603194 10
-2.4853539 0.71312124 -2.1747012 10
-0.94542289 0.866355 -4.7264333 10
-1.6520712 0.67134333 -2.17624 10
-1.5279362 0.66869241 -2.1527457 10
-3.1652479 0.7696557 -2.1823549 10
-1.3216913 0.66601056 -2.176775 10
-2.3063302 0.70106596 -2.1835241 10
2.2381277 1.0404944 -4.966063 10
-1.0187829 0.71199447 -3.0257871 11
-0.92638522 0.80898589 -4.0801811 11
-1.3487221 1.7207546 -8.6844406 11
-7.3893242 1.438298 -2.2183752 11
-2.7497201 0.9029144 -4.2279196 11
-1.0554762 0.72085482 -2.0799336 11
-1.0185075 0.71054268 -2.7920578 11
-0.94183171 0.94822305 -4.8862801 11
-3.1974592 0.84416568 -2.184011 11
-4.0525765 0.95374036 -2.1812229 11
-2.4532261 0.76619065 -2.178221 11
-2.729466 1.0866404 -5.2829409 11
-3.6541936 0.90099096 -2.1787713 11
-1.0407443 0.7156291 -2.3170748 11
-2.7353778 1.0316609 -4.9880409 11
-0.95507735 0.82334685 -4.1860361 11
-1.6505374 0.72033173 -2.1676476 11
-1.7717433 0.72398543 -2.1673756 11
-1.0216291 0.71069187 -2.928587 11
-1.014886 0.74427283 -3.0212495 12
-0.92479652 0.8447845 -4.0776148 12
-1.3410885 1.9133542 -8.6982317 12
-7.3790488 1.6446428 -2.2023757 12
-1.0600126 0.77651036 -2.0872355 12
-1.0190639 0.74744779 -2.7905333 12
-0.94442856 0.93969494 -4.5803981 12
-2.3002 0.80660683 -2.1817889 12
-3.1030416 1.0065143 -4.2231741 12
-3.8909273 1.0238632 -2.1818378 12
-2.7403626 0.98703927 -4.4514952 12
-2.1434155 0.79381925 -2.1760073 12
-1.3189472 0.76734668 -2.169168 12
-1.891243 0.77803022 -2.1724143 12
-3.2041953 0.91742885 -2.169951 12
-3.4848051 0.95937848 -2.1725345 12
-1.005481 0.77796924 -3.013128 13
-1.3359343 2.1010265 -8.6790533 13
-7.3851871 1.8564348 -2.1822281 13
-1.058354 0.83327943 -2.0825186 13
-0.93612146 1.0631125 -4.8809385 13
-0.9616012 0.931337 -4.3404584 13
-1.018259 0.78482169 -2.7877114 13
-2.732224 1.0339967 -4.4414258 13
-1.6880593 0.81936353 -2.1714029 13
-2.1422966 0.8458969 -2.1705503 13
-1.0249908 0.80689728 -2.4311962 13
-4.2014742 1.177942 -2.1679032 13
-3.0332246 0.96176708 -2.171782 13
-2.7265797 1.1563237 -4.9702072 13
-0.91571164 0.91958898 -4.076179 14
-7.3731232 2.0675159 -2.1662078 14
-0.93652356 1.1080321 -4.8302159 14
-1.0538061 0.89171576 -2.0721655 14
-0.95949972 0.97340035 -4.3379374 14
-1.7856842 2.5531371 -9.4492865 14
-2.7383392 1.0869393 -4.4440684 14
-1.0303472 0.85267669 -2.4367852 14
-0.94153649 1.0364994 -4.5725679 14
-4.0352964 1.2438205 -2.1624925 14
-2.0768199 0.89317918 -2.1620731 14
-3.6455855 1.1571096 -2.1585584 14
-2.8701081 1.0036361 -2.1463642 14
-1.3092774 0.87468803 -2.135066 14
-7.3707294 2.2843935 -2.1475143 15
-0.93281639 1.1668384 -4.8287158 15
-1.0526373 0.95021915 -2.0683503 15
-0.95747316 1.0161946 -4.3352547 15
-1.0251721 0.90166879 -2.4274778 15
-1.7793185 2.7816288 -9.4449835 15
-2.7421541 1.1084293 -4.3215079 15
-2.4480047 0.99375522 -2.1570559 15
-2.2521048 0.96560597 -2.160645 15
-3.9626017 1.3257407 -2.1523151 15
-3.0353141 1.1038216 -2.1537955 15
-2.0753531 0.94625098 -2.1574712 15
-1.310926 0.92640269 -2.1429253 15
-3.4794319 1.2052096 -2.1510091 15
2.2646079 1.8070884 -4.9046049 15
-1.0182443 0.5366776 -3.1773119 5
-1.572746 0.43373972 -2.1134276 5
-1.0192082 0.56983465 -3.1755371 6
-0.91326416 0.6221866 -4.0716224 6
-3.1020575 0.68335217 -4.2251787 6
-0.94310677 0.64774418 -4.6716137 6
-2.7505045 0.68801624 -4.2265635 6
-2.7415962 0.69797933 -4.4898362 6
-2.1744266 0.50472915 -2.1478553 6
-0.96596783 0.63069504 -4.1734786 6
-2.2402234 0.50483888 -2.1403141 6
-1.0223937 0.55887192 -3.0571802 6
-1.9144497 0.49597126 -2.1234221 6
-0.9592917 0.6406945 -4.4380522 6
-0.89243555 0.66064453 -4.0614095 7
-1.0022033 0.60140073 -3.1676903 7
-2.7471018 0.72848761 -4.2217531 7
-1.0727725 0.51364166 -2.1063373 7
-3.9368229 0.59089369 -2.1879959 7
-0.9639793 0.6709289 -4.1710863 7
-1.0129924 0.5924477 -3.0506947 7
-2.1741948 0.55284512 -2.1396422 7
-1.2811136 0.52206326 -2.1107039 7
-2.238528 0.55427438 -2.1372974 7
-0.94916654 0.70036536 -4.6580133 7
-2.7373123 0.74275565 -4.454906 7
-0.93292022 0.72054023 -5.0071306 7
-1.8532447 0.54182547 -2.1168599 7
-2.7317567 0.56819814 -2.167819 7
-2.9898791 0.73246562 -4.2231688 7
-1.6737989 0.5367797 -2.1223798 7
-2.733711 0.7556445 -4.6692533 7
-1.0310555 0.58449763 -2.944304 7
-0.88369501 0.70113456 -4.0628233 8
-1.002865 0.63475966 -3.1657987 8
-7.4042678 0.88124788 -2.7802613 8
-1.433027 1.1341007 -8.717658 8
-1.061322 0.56869423 -2.0864334 8
-2.7616229 0.76893532 -4.2103114 8
-2.2619131 0.60387993 -2.1236095 8
-2.7161493 0.83833945 -5.0240932 8
-2.1702127 0.60191095 -2.1454926 8
-0.96404165 0.71830875 -4.252449 8
-0.94362456 0.75312185 -4.6591239 8
-2.7311847 0.78791118 -4.446281 8
-1.5696349 0.58130282 -2.1103077 8
-2.7308247 0.62396139 -2.1625862 8
-2.7266264 0.80625296 -4.6579475 8
-1.3753121 0.57709384 -2.1102085 8
-3.4409814 0.65446544 -2.1720147 8
-1.0151052 0.66803718 -3.1678898 9
-7.4121757 1.0778809 -2.7639942 9
-1.3518769 1.3160183 -8.7038174 9
-2.7368088 0.80822933 -4.2092876 9
-1.0605512 0.62564218 -2.0837617 9
-2.2387571 0.65283042 -2.1196294 9
-0.94879484 0.80481005 -4.6467571 9
-1.0106523 0.65677357 -2.9455714 9
-2.1697869 0.65019536 -2.1379852 9
-3.1510162 0.84011108 -4.2206283 9
-0.92689157 0.84632778 -5.0014424 9
-2.5615983 0.66934699 -2.1274719 9
-0.96035284 0.76058424 -4.2513657 9
-3.9922152 0.76800603 -2.1800954 9
-1.0215234 0.66327918 -3.0816448 9
-2.7312984 0.82779598 -4.3910332 9
-3.4355063 0.7268039 -2.1693282 9
-1.5719695 0.63059044 -2.1287737 9
-1.2774873 0.62730902 -2.1019778 9
-0.95002562 0.780563 -4.4329329 9
-0.91426247 0.78090096 -4.0563803 10
-1.0121541 0.70101887 -3.1647811 10
-7.4033008 1.2451804 -2.2570453 10
-1.3465093 1.5004609 -8.6880188 10
-1.0568024 0.68272245 -2.0762691 10
-2.7408681 0.84962845 -4.2106447 10
-3.0954056 0.88614714 -4.2098556 10
-1.0091702 0.69321328 -2.9426551 10
-4.1237655 0.87066925 -2.1804423 10
-0.96480513 0.79380774 -4.1793013 10
-1.9086847 0.68765694 -2.1087642 10
-2.7191441 0.96451676 -5.0270653 10
-3.4309907 0.79919124 -2.1658573 10
-2.6469369 0.7297411 -2.152348 10
-2.9683485 0.75608897 -2.1576381 10
-1.5660374 0.67894119 -2.0993462 10
-0.87243903 0.8246268 -4.0581064 11
-0.99578917 0.73533726 -3.1569796 11
-7.4068837 1.4473774 -2.2400179 11
-1.3399972 1.6880221 -8.6830482 11
-2.7404439 0.89063525 -4.2082877 11
-1.0561011 0.74016774 -2.0736973 11
-2.7138476 1.0259988 -5.0162983 11
-1.3716744 0.73137665 -2.101351 11
-4.1201634 0.96330488 -2.1740294 11
-2.7318008 0.93147457 -4.4694285 11
-3.179616 0.84186649 -2.1550736 11
-1.0119029 0.73173028 -3.0732429 11
-2.9838762 0.92269778 -4.2089214 11
-2.2292237 0.75163007 -2.1334372 11
-1.0012327 0.76866233 -3.156733 12
-0.95941764 0.85742635 -4.0586267 12
-7.3938541 1.6490843 -2.2265468 12
-1.3339043 1.8767241 -8.6732178 12
-1.0469416 0.79923624 -2.0574007 12
-1.0310991 0.76808161 -2.7423074 12
-1.031346 0.76435411 -2.9344904 12
-2.7124362 1.0894457 -5.0125179 12
-2.9609938 0.87893379 -2.1527205 12
-2.1624074 0.79606712 -2.1384454 12
-0.93585587 0.96596122 -4.6450849 12
-1.0064554 0.76668334 -3.0372128 12
-1.6658895 0.77841109 -2.0984797 12
-2.9809203 0.97058988 -4.2043881 12
-2.642879 0.84004372 -2.1453319 12
-3.9855499 1.0348513 -2.1594892 12
-3.5235276 0.96057975 -2.1545944 12
-1.0457839 0.77766722 -2.4569669 12
-0.95992786 0.87648618 -4.1750336 12
-3.1809964 0.90959853 -2.1467392 12
-0.90439159 0.90345174 -4.0510573 13
-1.0096661 0.80143332 -3.1575484 13
-1.4018098 2.0741582 -8.6830988 13
-7.3798461 1.8523418 -2.2131581 13
-2.7508183 0.97373432 -4.191421 13
-1.0301477 0.80879271 -2.7395289 13
-3.142066 1.0523477 -4.2034564 13
-2.7165399 1.1323673 -4.9191723 13
-1.5628859 0.82740635 -2.0960846 13
-2.2521448 0.8558014 -2.111541 13
-2.5502644 0.88652635 -2.1200848 13
-1.0082445 0.8357892 -3.1548781 14
-0.95670557 0.93696725 -4.0529461 14
-2.7390149 1.0166242 -4.2009425 14
-1.0587149 0.9138701 -2.073581 14
-2.7278099 1.0985787 -4.5490303 14
-1.0189208 0.86345702 -2.587944 14
-1.0259155 0.85070622 -2.7339909 14
-0.92059684 1.1086936 -4.7601819 14
-1.5630238 0.87666106 -2.1018448 14
-1.6442182 0.87613714 -2.1041718 14
-2.708642 1.1907362 -4.9044733 14
-3.1375728 1.1060112 -4.1978297 14
-2.7258725 1.1236312 -4.6464872 14
-3.5146728 1.1146866 -2.1463928 14
-2.0208058 0.88787842 -2.1129174 14
-3.9145842 1.2025244 -2.1450012 14
-2.7252874 1.0545163 -4.3751345 14
-1.0115931 0.83717328 -3.0354741 14
-1.0076808 0.87053508 -3.1524775 15
-7.3704567 2.2715318 -2.181417 15
-2.7305727 1.0564743 -4.1919675 15
-1.0509212 0.97580707 -2.0594223 15
-2.7287428 1.1520157 -4.5482488 15
-0.92666757 1.1644859 -4.7452888 15
-1.6427445 0.92671591 -2.1009133 15
-1.0348157 0.92440253 -2.4385324 15
-2.0209413 0.94069517 -2.0980811 15
-1.0244646 0.907498 -2.5914145 15
-1.0060756 0.88008726 -2.9303465 15
-1.8412718 0.93169773 -2.0942464 15
-1.2697074 0.95144641 -2.0823054 15
-3.985003 1.313 -2.1341822 15
-2.7499752 0.65809923 -4.2332277 5
-1.0209095 0.56067312 -3.1846623 6
-1.0264282 0.59788406 -3.1836843 7
-2.7469401 0.73381817 -4.2272453 7
-1.0559789 0.50944245 -2.1165144 7
-0.98221695 0.66242582 -4.1265626 7
-2.7332017 0.78868067 -5.1641765 7
-1.2532754 0.51823759 -2.1167474 7
-0.93832302 0.72933316 -5.2609935 7
-1.7153366 0.53950983 -2.1396024 7
-0.96494031 0.68793255 -4.54737 7
-2.8030958 0.57714307 -2.1823819 7
-1.8738675 0.54647064 -2.1521921 7
-2.5786946 0.57131243 -2.1829894 7
-1.5652443 0.53166211 -2.1191642 7
-2.2809806 0.5618729 -2.1734648 7
-1.5748172 0.5349775 -2.1492915 7
-3.570255 0.59532279 -2.1891582 7
-0.87766385 0.6999917 -4.0796242 8
-1.0160604 0.63399607 -3.1786582 8
-7.4182968 0.90885794 -2.83252 8
-1.067368 0.56626517 -2.0897551 8
-2.7968769 0.63131171 -2.184968 8
-1.0480736 0.60156298 -2.6755617 8
-0.95694876 0.76250708 -4.7947702 8
-3.3439462 0.65673339 -2.1887922 8
-2.5774541 0.62142104 -2.1782699 8
-3.0633373 0.64314789 -2.1814902 8
-0.87884545 0.74539137 -4.0747476 9
-1.0204637 0.67080122 -3.1774175 9
-1.4268622 1.3175479 -8.7147923 9
-7.3885193 1.0984766 -2.8211758 9
-2.7491429 0.81023169 -4.2265172 9
-1.0506755 0.62513238 -2.1062655 9
-2.975687 0.82724839 -4.2271886 9
-2.7400599 0.84078956 -4.5002527 9
-1.0115541 0.65781087 -2.9372954 9
-1.0435141 0.64535421 -2.6700001 9
-4.115633 0.78275102 -2.1960223 9
-0.93653202 0.856103 -5.0824637 9
-1.0369997 0.63505995 -2.4016886 9
-3.7581799 0.75417554 -2.1864455 9
-1.2424232 0.62587649 -2.0970738 9
-2.802407 0.68521595 -2.1697705 9
-1.6045759 0.63066471 -2.1099243 9
-1.0202433 0.70750052 -3.1749847 10
-1.4193912 1.505173 -8.7101297 10
-7.4042425 1.259279 -2.2432153 10
-1.0646725 0.68299198 -2.0829949 10
-2.7503328 0.84898579 -4.2262216 10
-0.97460473 0.79260856 -4.1189895 10
-1.0025609 0.70283294 -3.0551395 10
-4.0389376 0.86239761 -2.1926439 10
-0.95270586 0.8766551 -4.7477193 10
-1.9270113 0.6875965 -2.1365442 10
-0.93619061 0.92419004 -5.0743332 10
-1.0541196 0.68452078 -2.324595 10
-3.550096 0.81016481 -2.1834431 10
-2.8483109 0.74363208 -2.1756001 10
-0.95264161 0.84809655 -4.5426216 10
-0.87139225 0.83756936 -4.0703158 11
-1.0226984 0.74415392 -3.1732485 11
-1.4139258 1.6909986 -8.6869516 11
-7.3928385 1.4552026 -2.2297864 11
-2.7425117 0.88566899 -4.2169189 11
-1.047264 0.74183732 -2.0985003 11
-1.0047461 0.74143124 -3.0535958 11
-0.95059776 0.93588793 -4.7434187 11
-1.0318744 0.73579758 -2.8871982 11
-3.7973955 0.91544926 -2.182508 11
-0.96876526 0.85991907 -4.2763348 11
-0.9602257 0.89026642 -4.4692173 11
-2.5722656 0.77285564 -2.1669602 11
-1.0329386 0.73665416 -2.3936446 11
-2.9616737 0.81138492 -2.1711111 11
-0.9317553 0.98499656 -5.0232334 11
-1.5591985 0.7289536 -2.1067133 11
-3.3372936 0.85548162 -2.1739256 11
-1.0167403 0.78176939 -3.1692686 12
-1.404989 1.8847598 -8.6938772 12
-7.3803129 1.6522908 -2.216506 12
-2.7406764 0.92403185 -4.2135882 12
-1.0621141 0.80081046 -2.0763934 12
-0.96746612 0.88138944 -4.1150966 12
-1.0439843 0.77821612 -2.6640959 12
-2.9699481 0.96049178 -4.2165165 12
-0.93393719 1.0721407 -5.1111822 12
-1.0467013 0.79017001 -2.3126147 12
-0.94455743 1.004405 -4.7820697 12
-0.96854293 0.90717638 -4.2717075 12
-1.0061911 0.7801761 -3.0517695 12
-3.0497539 0.88160491 -2.1700687 12
-0.95644343 0.94308627 -4.4672508 12
-2.5960202 0.82699567 -2.1586373 12
-4.0425386 1.0366538 -2.1739891 12
-1.2413377 0.79050934 -2.0925465 12
-2.7375495 0.97853243 -4.4932699 12
-1.0184842 0.77773285 -2.8776314 12
-2.7911272 0.84848011 -2.1662478 12
-0.8730557 0.92994964 -4.0608044 13
-1.0095522 0.82031745 -3.1649094 13
-7.3663826 1.8508731 -2.2034068 13
-1.0482875 0.85956812 -2.0965981 13
-2.7221994 1.100351 -4.8086042 13
-1.0266014 0.8179667 -2.8798249 13
-2.5930383 0.87891781 -2.1571393 13
-1.293908 0.84252197 -2.0929461 13
-3.3272905 0.98934644 -2.1689954 13
-1.7059628 0.82627869 -2.1222887 13
-1.5631642 0.82711875 -2.1222634 13
-0.92846787 1.1214011 -5.0110216 13
-2.1136332 0.83572972 -2.1509221 13
-1.9221183 0.8288905 -2.1333556 13
-2.8459466 0.91236967 -2.1581833 13
-4.0402727 1.1248496 -2.1670146 13
-0.87530375 0.97635353 -4.0552421 14
-1.0130792 0.85746884 -3.0993061 14
-7.3654404 2.0550184 -2.1870518 14
-2.7439651 1.0050793 -4.2137766 14
-1.0448973 0.92007565 -2.0904188 14
-1.0357947 0.86999613 -2.6534877 14
-2.7161486 1.1546195 -4.7969065 14
-1.2878513 0.89922202 -2.0815663 14
-2.7149763 1.2485361 -5.1251373 14
-1.8249747 2.5276792 -9.4668102 14
-1.0102345 0.86062336 -2.9251299 14
-2.9716113 1.0536168 -4.2134709 14
-2.5095966 0.9242934 -2.1304171 14
-2.6709638 0.94494808 -2.1385744 14
-0.92057014 1.2205336 -5.1133003 14
-3.2850468 1.0498075 -2.1650848 14
-3.797936 1.1596763 -2.1583476 14
-1.0074184 0.89767224 -3.1593485 15
-1.0164726 0.89597714 -3.0979872 15
-2.7407875 1.0446278 -4.2090464 15
-1.0430975 0.9812187 -2.0863338 15
-2.2679272 0.94589591 -2.1439991 15
-2.1115401 0.93455744 -2.1340337 15
-1.0330329 0.91695029 -2.6491554 15
-2.9546402 1.0495597 -2.152 15
-3.2881141 1.1202582 -2.1546736 15
-1.8609935 0.9238925 -2.1301856 15
-1.8170941 2.7544627 -9.4503002 15
-1.0128988 0.9046883 -2.8676286 15
-0.91618693 1.3289806 -5.2190428 15
-1.2803614 0.95794535 -2.0676394 15
-4.0924711 1.3199158 -2.1591065 15
-2.6705201 1.0012282 -2.1317329 15
-1.5968219 0.92984021 -2.095454 15
-2.5029008 0.9749521 -2.1380072 15
-3.748492 1.2317407 -2.1464121 15
-1.0209227 0.55946863 -3.1623814 6
-0.84418428 0.60018897 -4.0674467 6
-2.7659769 0.70803881 -4.2214079 6
-2.9059377 0.70845246 -4.2183971 6
-2.5372226 0.53941911 -2.1607857 6
-1.0246488 0.60047179 -3.1573102 7
-0.96659696 0.65832019 -4.0657759 7
-4.4549417 0.64021134 -2.1949961 7
-2.7464015 0.74517637 -4.2433701 7
-2.4324503 0.58331251 -2.1631258 7
-1.7720169 0.55596638 -2.140131 7
-2.9220936 0.74809122 -4.2107444 7
-2.7443137 0.77643913 -4.8173051 7
-1.7560731 0.55028355 -2.0837121 7
-1.0215474 0.57779145 -2.8600478 7
-0.93801737 0.7198838 -5.1570668 7
-0.95810533 0.69467801 -4.6901574 7
-1.0514622 0.56370842 -2.6603546 7
-3.9177928 0.62693894 -2.1883225 7
-1.4069799 0.53398126 -2.0812368 7
-3.6258991 0.61900651 -2.1794386 7
-1.0079716 0.64064914 -3.1513023 8
-0.96397674 0.7053811 -4.0585957 8
-1.4932048 1.1226519 -8.7295551 8
-2.7524958 0.77936602 -4.20755 8
-1.7724518 0.60140121 -2.1300509 8
-2.4359303 0.62871581 -2.1548808 8
-2.7964618 0.64365387 -2.1281054 8
-2.9231672 0.7886284 -4.215054 8
-3.3110442 0.80986357 -4.2259145 8
-3.9131541 0.70404077 -2.1914186 8
-0.9455235 0.76881528 -4.8463178 8
-0.95626879 0.74933857 -4.6075649 8
-1.042809 0.62812018 -2.9451118 8
-4.2986946 0.72490734 -2.194155 8
-3.149163 0.66322649 -2.1713676 8
-0.84290147 0.75321192 -4.0498438 9
-1.0091829 0.68195027 -3.1490135 9
-1.4849849 1.31111 -8.724205 9
-7.4044495 1.0941617 -2.2982674 9
-2.7519093 0.81533593 -4.206059 9
-1.0671946 0.6377663 -2.0814331 9
-1.8518872 0.65020347 -2.1464961 9
-0.97527206 0.76064932 -4.1382351 9
-0.94697249 0.83384168 -4.8369503 9
-1.0488727 0.65749562 -2.6544929 9
-1.0406289 0.67045611 -2.9419401 9
-1.5783179 0.64291078 -2.0735285 9
-0.95096326 0.80879676 -4.6064739 9
-3.9138973 0.78084677 -2.1835685 9
-1.0455116 0.66305238 -2.7850523 9
-1.3386849 0.64004523 -2.0894101 9
-3.6274142 0.7571879 -2.1713333 9
-1.0136614 0.72308528 -3.1474264 10
-1.4026246 1.4946978 -8.6931114 10
-1.0652419 0.69782901 -2.0776832 10
-2.7302639 0.93665898 -4.7989197 10
-2.9103324 0.86653054 -4.19977 10
-2.7394347 0.8788057 -4.404016 10
-3.264688 0.90640146 -4.2143455 10
-0.92336476 0.9583813 -5.2496748 10
-3.5732827 0.94292277 -4.2256136 10
-0.93701398 0.90657949 -4.8835869 10
-0.95176077 0.86781645 -4.5991983 10
-0.96954381 0.83060247 -4.3120737 10
-2.7017794 0.73923898 -2.1594379 10
-2.5394425 0.72770739 -2.1325102 10
-4.2864776 0.90065849 -2.1848438 10
-2.8434043 0.75066054 -2.1600804 10
-0.8401165 0.85573852 -4.0420823 11
-1.0205107 0.76386857 -3.1463635 11
-1.3955902 1.6836307 -8.6776514 11
-7.3926487 1.4758732 -2.2709892 11
-2.7541976 0.88917297 -4.2074089 11
-1.0636045 0.75819653 -2.074297 11
-3.0467315 0.92654347 -4.2102518 11
-1.7526824 0.74330407 -2.0704198 11
-2.7308998 0.9733656 -4.6991572 11
-3.5690758 1.0020136 -4.2204008 11
-2.784502 0.79765648 -2.1280851 11
-3.2656734 0.95708388 -4.2128925 11
-1.0076532 0.75965416 -2.9999962 11
-4.0189791 0.95112634 -2.1765785 11
-2.2232554 0.75518626 -2.1182678 11
-0.93974519 0.95919192 -4.7896442 11
-0.92263341 1.0171207 -5.1314492 11
-2.8907239 0.90484405 -4.2013578 11
-1.4030352 0.74762797 -2.0653305 11
-1.0616385 0.75304526 -2.3440523 11
-0.95233631 0.90706217 -4.4636011 11
-1.5784516 0.74413192 -2.0752387 11
-3.1433544 0.83555293 -2.1583095 11
-0.95989954 0.88062084 -4.2876267 11
-1.012284 0.80601823 -3.1420236 12
-1.385072 1.8795218 -8.6862898 12
-7.3970747 1.6710682 -2.25491 12
-2.7417221 0.92630672 -4.2143626 12
-1.0619485 0.8190074 -2.0708771 12
-3.0449476 0.97076464 -4.2071033 12
-0.91818142 1.1152203 -5.2373238 12
-1.0019654 0.80338472 -2.9956048 12
-1.846796 0.78623712 -2.1381059 12
-2.8853316 0.94344711 -4.1946411 12
-2.7349293 0.96214819 -4.3961444 12
-3.3016748 1.0143573 -4.2106438 12
-2.8368516 0.85379249 -2.1570234 12
-1.0402092 0.79826158 -2.7755787 12
-2.7327726 1.0269771 -4.7037783 12
-4.426959 1.1049812 -2.1759617 12
-0.92979264 1.04278 -4.8764944 12
-3.6517789 0.97138804 -2.1671689 12
-4.0221772 1.0336794 -2.1668 12
-1.3322699 0.80380219 -2.0778813 12
-2.7002056 0.83878791 -2.1479321 12
-1.0533233 0.80774617 -2.334439 12
-1.6443028 0.79358315 -2.0716918 12
-2.2210689 0.80105561 -2.1183906 12
-1.006348 0.84877735 -3.1381311 13
-1.025974 0.8447811 -3.0906296 13
-2.7424431 0.95923495 -4.1911016 13
-1.0471067 0.88274527 -2.0518756 13
-3.9568129 1.1036108 -2.1629624 13
-1.9385279 0.83433521 -2.1298459 13
-1.6491866 0.84222746 -2.084743 13
-4.4233303 1.1999736 -2.1692967 13
-2.5288796 0.87079614 -2.1362066 13
-0.96286893 0.98990571 -4.3013344 13
-3.3828566 1.0843425 -4.210712 13
-0.93306422 1.0915334 -4.7822232 13
-0.9140327 1.1701224 -5.1246328 13
-1.0189128 0.84538323 -2.8449833 13
-0.83365202 1.0133858 -4.0312448 14
-1.0133843 0.89008361 -3.1370754 14
-1.0237603 0.88748884 -3.0875034 14
-7.3781128 2.0638862 -2.2282267 14
-2.7382193 1.000976 -4.2083583 14
-1.0451828 0.94569325 -2.0480897 14
-3.9546955 1.1856605 -2.1565413 14
-0.95756245 1.0101616 -4.1259084 14
-3.6024964 1.1063731 -2.1560385 14
-4.4128437 1.2944703 -2.1661918 14
-2.5300272 0.92142469 -2.1241724 14
-0.94641852 1.043057 -4.2817636 14
-0.93870115 1.1281857 -4.6554832 14
-1.0096409 0.9337796 -3.1335895 15
-0.95225382 1.0629436 -4.1242938 15
-7.3578787 2.2614636 -2.2169826 15
-2.7350659 1.0452876 -4.227684 15
-1.0534701 1.006659 -2.0563641 15
-2.5255938 0.96998119 -2.1277456 15
-3.3807378 1.1974324 -4.2042742 15
-1.934437 0.92910779 -2.1187401 15
-3.6546521 1.19346 -2.1427329 15
-1.840184 0.92815208 -2.1214848 15
-0.94108975 1.1401105 -4.4493275 15
-1.6425731 0.94577932 -2.0712087 15
-1.0240849 0.53239417 -3.1903672 6
-1.4421924 0.44659722 -2.1395681 6
-2.7591412 0.72519851 -4.2753243 6
-2.9602973 0.52997887 -2.2038808 6
-1.015294 0.5769195 -3.1852262 7
-0.95773029 0.65170211 -4.1102085 7
-2.7666426 0.75923496 -4.2603264 7
-1.0817953 0.47806799 -2.1169138 7
-0.92003798 0.75062126 -5.4525681 7
-3.5929823 0.78790855 -4.2632232 7
-0.96876907 0.68873137 -4.5789261 7
-2.96228 0.5795477 -2.1923342 7
-1.9738971 0.53427553 -2.1755986 7
-0.95117867 0.70843285 -4.8549032 7
-3.6010628 0.60399103 -2.2062221 7
-2.1050875 0.54049385 -2.1728797 7
-2.2703986 0.55065167 -2.1946814 7
-1.7174916 0.51705885 -2.1423278 7
-2.7813342 0.57153851 -2.1835184 7
-0.86913431 0.70031464 -4.0999413 8
-1.0213611 0.62412947 -3.2017105 8
-7.3957949 0.95774257 -2.7833705 8
-2.7553792 0.79415619 -4.2684546 8
-1.0826356 0.54084438 -2.1154921 8
-3.5410573 0.83982754 -4.2539124 8
-2.7626443 0.81595111 -4.4762716 8
-0.9271524 0.83418012 -5.428514 8
-2.9653387 0.62956893 -2.1789191 8
-3.169064 0.81630051 -4.2470751 8
-3.2453287 0.64493048 -2.1696866 8
-1.9496112 0.57564956 -2.136158 8
-4.0282664 0.69415367 -2.1968713 8
-0.95912349 0.74981153 -4.5795932 8
-3.0346355 0.80945671 -4.2593727 8
-1.0063221 0.668899 -3.1955752 9
-0.95480967 0.75539947 -4.100111 9
-7.395793 1.13987 -2.7664189 9
-1.4100163 1.3894227 -8.7369757 9
-1.0806907 0.60313344 -2.1111164 9
-2.3559928 0.64224541 -2.2011395 9
-4.4701223 0.81171274 -2.1973474 9
-3.0320351 0.68599164 -2.1850216 9
-0.91728687 0.91148412 -5.3690147 9
-3.2428303 0.70153993 -2.1645184 9
-4.0269775 0.77036333 -2.1886361 9
-1.43879 0.60929948 -2.1316857 9
-0.96009135 0.78818494 -4.3851266 9
-1.0236065 0.71389133 -3.1949818 10
-0.9612112 0.80659777 -4.0910373 10
-1.4000635 1.5798143 -8.726572 10
-7.4022751 1.2851193 -2.2091856 10
-2.7598958 0.86175436 -4.2482824 10
-1.0746478 0.66549802 -2.1023667 10
-3.5823009 0.95393193 -4.2469349 10
-2.9508944 0.73065442 -2.1861906 10
-1.3500108 0.66358483 -2.1243143 10
-2.7763338 0.71522313 -2.1669903 10
-1.9686975 0.66831344 -2.1701341 10
-1.5142208 0.66334897 -2.1244793 10
-0.8683126 0.86377275 -4.082304 11
-1.0088619 0.75976568 -3.1888094 11
-1.3890572 1.7730324 -8.7219601 11
-7.3718634 1.4690636 -2.1979561 11
-2.7592673 0.89676368 -4.2468872 11
-1.1002637 0.7274555 -2.0895963 11
-3.5787849 1.0096316 -4.2415128 11
-3.1751604 0.95052266 -4.2465081 11
-1.9455479 0.71297622 -2.1560504 11
-3.3391001 0.82826757 -2.1823225 11
-0.91143823 1.0777137 -5.3515325 11
-3.8573699 0.89995319 -2.1799307 11
-1.7036793 0.71443939 -2.115509 11
-2.1171155 0.71736491 -2.1848903 11
-2.6607714 0.75264388 -2.1811872 11
-0.9340415 0.9818911 -4.8355799 11
-1.0510131 0.73430037 -2.6550965 11
-3.5981269 0.86305195 -2.1752884 11
-0.99948502 0.80640173 -3.1834998 12
-0.94569969 0.91292882 -4.0872073 12
-1.3799433 1.9658384 -8.7050838 12
-7.3778582 1.6599834 -2.1779037 12
-2.7488136 0.93335938 -4.2563114 12
-1.0713223 0.79168892 -2.0941572 12
-2.7555604 0.98184043 -4.4633331 12
-3.5395675 1.0599036 -4.2404284 12
-0.96321583 0.95829082 -4.3619461 12
-2.2235818 0.76568139 -2.1857376 12
-3.3343835 0.88715112 -2.1792784 12
-1.0564361 0.78508258 -2.6553998 12
-4.0127268 1.0007683 -2.1707683 12
-1.9441481 0.75845021 -2.1558917 12
-1.9413379 0.76237053 -2.1217833 12
-2.350292 0.77302796 -2.1857836 12
-3.5895371 0.92794335 -2.1745236 12
-1.5156746 0.76909822 -2.1257124 12
-1.3445988 0.77649593 -2.1143501 12
-1.0166034 0.85019648 -3.1716807 13
-0.94484258 0.96604466 -4.0817022 13
-2.7487235 0.96984118 -4.2558613 13
-7.3546143 1.8474655 -2.1647248 13
-1.0799614 0.85566276 -2.0783896 13
-3.1636333 1.0376689 -4.2322407 13
-3.5781317 1.1245487 -4.2344561 13
-1.7761642 2.3998082 -9.4885693 13
-3.020545 1.011296 -4.236876 13
-2.2035298 0.81131727 -2.1593862 13
-3.58307 0.99353111 -2.1717811 13
-4.4609795 1.1756251 -2.1611733 13
-0.95522118 1.017723 -4.3606095 13
-2.6593282 0.84783006 -2.1645606 13
-3.8532143 1.0470846 -2.1649804 13
-2.0928671 0.80741102 -2.1545372 13
-1.4119898 0.82995415 -2.1047325 13
-1.9837496 0.80289614 -2.1731992 13
-3.0215864 0.89603305 -2.1674399 13
-1.0173969 0.89639896 -3.1681836 14
-0.93628383 1.0191644 -4.0656829 14
-7.3630581 2.0457125 -2.1908164 14
-1.0748434 0.92097932 -2.0704713 14
-3.175837 1.0869401 -4.2314005 14
-2.3779147 0.86781693 -2.1582031 14
-2.2120709 0.85469508 -2.1753168 14
-1.7542646 0.86533266 -2.1004894 14
-1.8018155 2.6245301 -9.4643116 14
-1.0384004 0.88879395 -2.7436953 14
-1.0357307 0.88761222 -2.8753705 14
-2.78 0.91378927 -2.150023 14
-0.91219831 1.1280005 -4.5517712 14
-1.0120658 0.89157701 -2.9291873 14
-1.0731726 0.90541768 -2.2808924 14
-2.9272342 1.0361149 -4.2410488 14
-1.4928205 0.8798548 -2.1045363 14
-1.0049102 0.945871 -3.1620264 15
-7.3437452 2.2388613 -2.1761341 15
-1.0786434 0.9853431 -2.0722654 15
-2.3765934 0.91568321 -2.1476531 15
-2.9268346 1.0773675 -4.239325 15
-2.1917124 0.90358019 -2.1476307 15
-1.0647085 0.96741056 -2.2704153 15
-1.0297681 0.94195449 -2.7358513 15
-1.79203 2.8488207 -9.4316034 15
-1.040437 0.93606627 -2.8740544 15
-1.7552116 0.91562879 -2.1039348 15
-1.4095672 0.94360971 -2.0990839 15
-1.9708253 0.89609039 -2.1597142 15
-2.2462997 0.90352619 -2.1640961 15
-1.0102668 0.94141436 -2.9250371 15
-2.7771976 0.96466577 -2.1464572 15
-2.1007612 0.89749306 -2.1628482 15
-0.91658998 1.1909484 -4.5398483 15
-3.1198485 0.7148788 -4.2463274 5
-1.0788207 0.50002265 -3.1002254 6
-2.9837275 0.58496714 -2.178118 6
-1.0821134 0.55049425 -3.0982153 7
-0.97643244 0.60690504 -4.0695882 7
-0.93356562 0.69120902 -5.5753355 7
-4.5758333 0.73469579 -2.180146 7
-2.8073156 0.77132463 -4.2416239 7
-1.1741385 0.47792426 -2.0740032 7
-3.5289679 0.81836301 -4.2427564 7
-3.2410784 0.79976475 -4.235858 7
-2.9867761 0.63151878 -2.161335 7
-1.1326998 0.51112205 -2.5273991 7
-2.418256 0.59184003 -2.1772513 7
-2.0360942 0.55710381 -2.1306429 7
-2.5827398 0.6034044 -2.1688061 7
-4.1889853 0.71079123 -2.1792021 7
-0.98133874 0.64426017 -4.6778374 7
-0.98785853 0.62110478 -4.2812357 7
-3.1190672 0.79252493 -4.2471905 7
-1.0562955 0.60250491 -3.1538303 8
-7.422822 1.1284041 -2.7915425 8
-2.8008883 0.80284977 -4.2305722 8
-1.1540886 0.54299974 -2.0927591 8
-3.2408442 0.84149379 -4.23597 8
-2.4148881 0.63439846 -2.1776447 8
-2.9808886 0.67929333 -2.1625528 8
-0.98383272 0.70910138 -4.6298094 8
-4.3578844 0.80225796 -2.1769452 8
-3.8796189 0.75887233 -2.1778309 8
-0.93533015 0.77754444 -5.491128 8
-3.5737751 0.73118919 -2.1721182 8
-3.3816061 0.7142787 -2.1725564 8
-1.0847591 0.58016825 -2.7834146 8
-1.1354423 0.56411827 -2.4715972 8
-1.7781484 0.58529103 -2.1133938 8
-1.1474514 0.55450517 -2.2973006 8
-3.1193953 0.69114631 -2.1645942 8
-1.0676143 0.65281421 -3.1528621 9
-1.4026735 1.2804314 -8.7087784 9
-7.4144011 1.305564 -2.7785439 9
-2.7967563 0.83456033 -4.2245936 9
-1.1512172 0.60772276 -2.0902572 9
-2.981837 0.72713155 -2.149775 9
-0.9061259 0.9203397 -5.9555435 9
-3.1122122 0.74074078 -2.1667445 9
-4.0188775 0.84267908 -2.1695762 9
-2.4117234 0.67669302 -2.1725721 9
-3.375634 0.76892865 -2.1709056 9
-2.7666521 0.70679855 -2.1632891 9
-1.1221569 0.62245172 -2.5182955 9
-0.94258082 0.82294643 -5.0783396 9
-0.9765656 0.74050093 -4.2741594 9
-3.1304011 0.87131262 -4.2376003 9
-1.0517769 0.70224702 -3.1473603 10
-0.96514463 0.77700686 -4.0568619 10
-1.3828136 1.4743216 -8.7223854 10
-7.3350468 1.4399691 -2.1788754 10
-2.7881703 0.8690449 -4.241425 10
-1.1559662 0.67234647 -2.057076 10
-1.776356 0.68711466 -2.1170249 10
-4.5511508 0.99482954 -2.1645446 10
-2.0275109 0.69719321 -2.1267195 10
-1.1273584 0.67748111 -2.4640579 10
-2.9781985 0.77527434 -2.1463096 10
-0.96683681 0.84820575 -4.6625509 10
-3.3770366 0.82453841 -2.1601219 10
-3.5698609 0.85050946 -2.158432 10
-1.0535269 0.75220531 -3.1447971 11
-0.99494576 0.83416575 -4.0627756 11
-1.3673259 1.6671374 -8.7127819 11
-7.3283005 1.6210407 -2.1645308 11
-2.7875445 0.90312868 -4.243578 11
-1.1335163 0.73774159 -2.0735831 11
-3.840107 1.0749495 -4.2339334 11
-2.9744081 0.82369155 -2.1430922 11
-1.0702316 0.73906815 -2.7712371 11
-1.9357969 0.74154377 -2.1171858 11
-4.0085726 0.98561025 -2.1590905 11
-2.2649977 0.75413775 -2.1401863 11
-4.3479633 1.0463095 -2.1544943 11
-0.9096303 1.0500102 -5.4788013 11
-0.98735082 0.8587321 -4.2538624 11
-2.7985466 0.80127496 -2.160042 11
-0.9276526 0.98993456 -5.1196241 11
-2.8896999 0.91506767 -4.2342525 11
-1.0569733 0.80207545 -3.1425252 12
-0.98725903 0.89131087 -4.0603342 12
-1.3513943 1.8622066 -8.7044926 12
-7.3067112 1.8008744 -2.1537375 12
-2.7830381 0.93532449 -4.2366452 12
-1.1409174 0.80444306 -2.04286 12
-3.2404647 1.0132329 -4.2370305 12
-3.1230276 0.99016559 -4.2313123 12
-3.5132656 1.0660896 -4.2278848 12
-2.8892343 0.95110106 -4.2357988 12
-3.3693779 0.93629593 -2.1512027 12
-4.1534262 1.0888593 -2.1571512 12
-3.8623123 1.0293753 -2.156131 12
-1.1209236 0.79673076 -2.2737756 12
-2.5675046 0.82206702 -2.1444697 12
-0.92628992 1.0703473 -5.1083603 12
-0.98129177 0.91902733 -4.250504 12
-0.89499962 1.1570609 -5.5468407 12
-1.0498595 0.85310936 -3.1384044 13
-0.95433843 0.94974571 -4.0436387 13
-0.97666812 0.95775414 -4.110661 13
-7.3119993 1.989249 -2.1359596 13
-2.793047 0.96985102 -4.2297521 13
-1.1389918 0.87116462 -2.0413818 13
-3.094903 1.0240241 -4.2230849 13
-3.2590663 1.0607961 -4.2314253 13
-3.5112658 1.117447 -4.2257648 13
-3.1014376 0.94369769 -2.1446288 13
-1.837019 0.83989465 -2.1083634 13
-2.9137051 0.98911059 -4.2240286 13
-3.8320251 1.1957104 -4.2261596 13
-2.7947977 0.89523685 -2.1436818 13
-0.9561156 1.0475911 -4.6075864 13
-2.0577118 0.8398692 -2.1158314 13
-3.3702295 0.99455065 -2.1406586 13
-1.0950234 0.84935319 -2.5239203 13
-1.1060363 0.85998821 -2.2611051 13
-1.032994 0.90645409 -3.1325057 14
-0.93743014 1.0112894 -4.044879 14
-0.98490965 1.0143274 -4.1002846 14
-7.2954998 2.175112 -2.123456 14
-2.79004 1.0036914 -4.2264624 14
-1.1364813 0.93857217 -2.0393212 14
-3.0913258 1.0637684 -4.2196445 14
-3.2333779 1.1002333 -4.2304916 14
-3.1011147 0.997316 -2.1345959 14
-1.8351722 0.89056093 -2.1088619 14
-1.5376711 0.90584493 -2.0834417 14
-2.4688394 0.90361094 -2.1334171 14
-2.5979524 0.91682822 -2.1380706 14
-1.7011466 2.517854 -9.4793072 14
-2.2127559 0.88437575 -2.1357563 14
-2.9069712 1.0225656 -4.2147465 14
-2.2528822 0.89073634 -2.1213908 14
-0.86389196 1.4530276 -5.9206238 14
-2.7483461 0.93491387 -2.1499829 14
-2.0525117 0.88853979 -2.1080005 14
-1.0826377 0.90869689 -2.5148745 14
-3.8578732 1.1704283 -2.1411157 14
-1.0270205 0.95961154 -3.1284556 15
-0.93010855 1.0724059 -4.0417948 15
-0.96932435 1.0768656 -4.1013985 15
-2.7860584 1.0371386 -4.2209868 15
