# .PCD v0.7 - Point Cloud Data file format
VERSION 0.7
FIELDS x y z intensity
SIZE 4 4 4 4
TYPE F F F F
COUNT 1 1 1 1
WIDTH 1337
HEIGHT 1
VIEWPOINT 0 0 0 1 0 0 0
POINTS 1337
DATA ascii
0.74494487 0.33602983 -2.393261 7
-1.7433088 0.10388565 -0.47203612 7
-1.7308514 0.18123221 -1.1434 7
2.1972659 0.3768582 -3.0054173 7
-1.7411278 0.14340088 -0.81400907 7
2.2037418 0.39819437 -3.2261615 7
0.58260655 1.1978656 -9.4972229 8
-0.86011672 0.44582236 -3.1908321 8
-0.9693467 0.55304182 -4.1070938 8
-1.7381015 0.27519235 -1.3589852 8
0.58327329 0.33438903 -2.051204 8
0.74224007 0.36938357 -2.3905485 8
2.255703 0.80557466 -6.0610895 8
2.1538219 0.086685538 1.0135245 8
2.2168117 0.62617582 -4.5033207 8
2.2383409 0.724778 -5.3645525 8
2.1859429 0.41392106 -2.5416179 8
2.1608999 0.15434381 0.24059105 8
0.58272588 1.4448274 -9.4800835 9
-0.84992319 0.47721964 -3.1778495 9
-0.97571081 0.61674458 -4.1129103 9
-1.7366573 0.34418613 -1.3532695 9
0.74350917 0.40271264 -2.3868043 9
0.57666749 0.37361553 -2.134794 9
-1.730804 0.31770289 -0.95464027 9
2.2223148 0.5156253 -2.7115285 9
-1.7375716 0.2878696 -0.46191025 9
2.2258182 0.77929664 -4.8141994 9
2.1533122 0.30272222 -0.068884373 9
-2.7728598 0.98533547 -6.3209438 9
2.2443638 0.86875582 -5.4443893 9
0.58323896 1.6939523 -9.4664869 10
-0.8541047 0.51696169 -3.2156279 10
-0.97429156 0.67859578 -4.1034422 10
0.60506713 0.39997044 -1.9912267 10
0.78571272 0.4414497 -2.4022028 10
-1.727733 0.4130733 -1.3534342 10
2.2459216 1.1039722 -6.0175376 10
0.57742757 0.40513444 -2.1310408 10
2.1576483 0.38784617 1.0515327 10
-0.75394869 0.2814633 3.8201356 10
-1.1247864 0.2841731 3.8129735 10
2.2318759 0.98472595 -5.3312731 10
-2.7690969 1.1665233 -6.4171247 10
2.2184017 0.59886026 -2.7027028 10
2.2077909 0.75439358 -3.9035065 10
-1.7340089 0.40310353 -1.1185216 10
-2.7856774 1.0424767 -5.6982727 10
2.1994705 0.65636122 -3.1988442 10
-0.85018182 0.54993075 -3.2082248 11
-0.9773562 0.74267572 -4.1026545 11
0.78913277 0.47677809 -2.3978014 11
0.578076 0.4369083 -2.1273327 11
2.2513008 1.2354056 -5.9034281 11
-0.75399131 0.50670624 3.8360095 11
-1.1255461 0.51080739 3.8365722 11
-1.7369121 0.47199008 -0.16896582 11
-1.737179 0.47544411 -0.93242204 11
-2.777844 1.1853549 -5.6735663 11
-2.7726505 1.3334968 -6.4048328 11
2.153909 0.54163909 0.27278423 11
2.2379911 1.1182193 -5.3255606 11
-0.97581118 0.80523103 -4.0928612 12
0.79501921 0.51301312 -2.3927402 12
-1.7382177 0.55318725 -1.3312969 12
-2.7962151 1.2258695 -5.1768398 12
2.2393532 1.3802381 -5.8721018 12
-0.75496835 0.73398006 3.8624482 12
-1.1268017 0.73962474 3.8637123 12
2.1999118 0.94822586 -3.8793576 12
-1.7342542 0.55724019 -0.78122222 12
2.2346847 1.2317121 -5.2269826 12
-2.7753735 1.5019281 -6.3911204 12
-2.7863469 1.3346115 -5.6683617 12
2.1832702 0.74638695 -2.5078893 12
2.2336934 1.1350076 -4.7868614 12
-0.85735494 0.61215448 -3.1708398 13
-0.98083127 0.87231898 -4.0956402 13
0.6048426 0.50686347 -1.9802866 13
-1.7521095 0.62641633 -1.3131253 13
0.76916069 0.54355538 -2.3806784 13
-2.7984653 1.361699 -5.1649623 13
2.2447782 1.5620052 -5.971314 13
-0.75476718 0.96279979 3.8758416 13
-1.1287839 0.97171903 3.8960409 13
2.2230532 0.86747324 -2.7818992 13
-2.7779241 1.6408209 -6.258996 13
-1.7403399 0.63657475 -0.91323829 13
2.1547072 0.81828797 0.57053733 13
2.2253861 1.2523295 -4.7670984 13
2.237592 1.3650759 -5.2173004 13
-0.97492832 0.93335533 -4.0773406 14
0.57183212 0.53355324 -2.0893912 14
-1.7366233 0.69572306 -1.3183976 14
0.76576829 0.57850105 -2.3779325 14
-2.7984185 1.4985754 -5.1505909 14
2.1691222 0.88623846 -0.58149123 14
2.2497032 1.6897924 -5.8568964 14
-0.75538743 1.1952089 3.8986492 14
-1.1307223 1.2075636 3.9283781 14
-1.7482558 0.78186774 -0.1214149 14
2.2233834 0.95510817 -2.7730856 14
2.2377443 1.4993086 -5.2043056 14
2.210531 1.141188 -3.8197007 14
-0.85450441 0.68007302 -3.1610363 15
-0.98236465 1.0049487 -4.0844426 15
0.57659346 0.56851816 -2.0825045 15
-1.7373914 0.76890373 -1.3105303 15
-2.7960308 1.6364967 -5.1336823 15
2.1651525 0.99865627 -0.57313251 15
-0.7557162 1.4307818 3.9184227 15
-1.1286004 1.4432499 3.9331889 15
2.2308886 1.6836398 -5.3478594 15
2.2160416 1.4047581 -4.4255366 15
-2.7767048 2.0176339 -6.3384514 15
2.1525016 1.1034684 0.59770393 15
2.1912601 1.0611333 -2.9350481 15
2.1575608 1.0448999 0.013624907 15
-2.7892017 1.7869909 -5.624289 15
2.21192 1.2434365 -3.8103144 15
0.7370773 1.3231062 -9.493927 8.5
1.0460224 1.3244442 -9.4849777 8.5
1.4653124 1.3277438 -9.4775372 8.5
1.8964931 1.3322788 -9.4738979 8.5
0.73718458 1.6960371 -9.4663601 10
1.0463576 1.6989625 -9.4546642 10
1.4651707 1.7054708 -9.4429722 10
1.8954173 1.7150953 -9.4351959 10
-0.027805075 2.0627265 -9.4372473 11.5
0.20563652 2.0394247 -9.4372406 11.4
0.63260263 2.0672808 -9.419899 11.5
1.0449927 2.0759511 -9.4151325 11.5
1.4632541 2.0857666 -9.400856 11.5
1.894148 2.1016166 -9.3955517 11.5
2.1745541 2.2484419 -9.3932295 12
-0.029100761 2.4375303 -9.3894749 13
0.22473808 2.4427586 -9.3967476 13
0.63213927 2.4484041 -9.3877487 13
1.0432458 2.4568048 -9.3720703 13
1.4298521 2.4744008 -9.3758392 13
1.89314 2.4934161 -9.3558159 13
-0.030093774 2.8257306 -9.357295 14.5
0.2031097 2.8545022 -9.353159 14.6
0.63114959 2.8368008 -9.3488159 14.5
1.0424972 2.848573 -9.3352613 14.5
1.4611632 2.867101 -9.3227282 14.5
1.8916985 2.8940866 -9.3146877 14.5
2.168704 3.0527046 -9.3010092 15
2.3116188 1.3369479 -9.46521 8.5
2.6821775 1.3408459 -9.4520741 8.5
3.0649922 1.2115681 -9.4513206 8
3.5018899 1.2160386 -9.4494781 8
3.8897071 1.2192125 -9.4386559 8
2.3107395 1.7260597 -9.4263086 10
2.6806192 1.7360498 -9.4107857 10
3.097271 1.6161482 -9.4164619 9.5
3.5013263 1.6286873 -9.4089327 9.5
3.8894811 1.641193 -9.3975677 9.5
2.3235481 2.1196342 -9.3858891 11.5
2.6425586 2.089637 -9.3803196 11.333333
3.0675318 2.0211933 -9.3800144 11
3.4962249 2.0418348 -9.3593988 11
3.8872294 2.0653427 -9.3530321 11
2.2792635 2.5146978 -9.3437519 13
2.7183731 2.4527988 -9.3400192 12.666667
3.0668838 2.4327371 -9.339119 12.5
3.4984791 2.4645078 -9.3231516 12.5
3.8879757 2.4967785 -9.3124943 12.5
2.2790458 2.8536494 -9.3116875 14.25
2.6777689 2.8147709 -9.3020611 14
3.0642092 2.8499053 -9.2937698 14
3.4979208 2.8929174 -9.281086 14
3.889379 2.9364586 -9.272419 14
2.3921313 3.0700953 -9.290535 15
2.6781852 3.0949903 -9.2769337 15
3.0685441 3.138824 -9.2756958 15
3.4973927 3.1843846 -9.2517977 15
3.8857336 3.2326944 -9.2375259 15
2.5272298 0.90354598 -8.977787 7
-2.7631431 0.76048017 -7.4744396 7
-2.7629223 1.0300093 -7.2786684 8.5
-2.7642698 1.3948181 -7.2589264 10.4
-2.765928 1.7969048 -7.2023082 12.5
-2.7674952 2.1929235 -7.162746 14.5
-2.7767541 0.69682324 -6.7380295 7
-2.7722616 0.97702062 -6.8777289 8.5
-0.78301376 1.0436738 -6.9149466 9
-2.7705441 1.3777546 -6.7965627 10.8
-0.78610188 1.4398479 -6.8886733 11.5
-2.7704892 1.8082376 -6.7805777 13.142858
-0.78612792 1.7599508 -6.8495269 13.5
-2.7784352 2.1607194 -6.761889 15
-0.78823215 2.0103991 -6.8340201 15
-2.775701 0.92751086 -6.5006666 8.5
-0.79121184 0.98710823 -6.5487089 9
-2.7769406 1.3362783 -6.4135928 11
-0.79295594 1.3489342 -6.5164289 11.5
-2.7819979 1.7370222 -6.3981876 13.333333
-0.79356092 1.7184279 -6.4757471 14
-2.781853 2.0218596 -6.3484488 15
-2.7744713 0.63489628 -6.0254965 7
2.260848 0.68158144 -6.377471 7
-2.7814734 0.94873929 -6.066884 9
-0.7975657 0.93872225 -6.2340536 9
2.262006 0.92055154 -6.35606 8.5
-2.7889018 1.3372622 -6.0266862 11.5
-0.79874235 1.3398203 -6.193305 12
2.2605731 1.3249334 -6.335402 11
-2.7881331 1.7278068 -5.9610386 14
-0.79861373 1.6810148 -6.1518803 14.5
2.257853 1.7294805 -6.271019 13.5
-2.794708 1.9525621 -6.1338301 15
2.2618663 2.0049045 -6.3134365 15
-2.7857683 0.5941484 -5.563045 7
-2.7908835 0.89425933 -5.6834588 9
-0.80322915 0.87727189 -5.8355122 9
2.2579598 0.98743355 -6.0780749 9.166667
-2.790128 1.2968485 -5.6329451 11.8
-0.80698359 1.2693105 -5.7904725 12.285714
2.2582488 1.3490499 -6.0692549 11.5
-2.7930453 1.6622972 -5.6255999 14.2
-0.80743772 1.5839342 -5.8186779 14.666667
2.2555962 1.7346219 -6.0004959 14
-2.7935069 0.58721817 -5.4857941 7
2.2551589 0.62806416 -5.7621641 7
-2.8027098 0.76349103 -5.2319622 8.5
-2.7924409 0.87332237 -5.3468385 9.1999998
-0.81480789 0.86943841 -5.3709598 9.6000004
-0.81148678 0.86510026 -5.51754 9.333333
2.2539768 0.90408814 -5.6869459 9
-2.7982635 1.2293524 -5.3159795 11.8
-0.81632221 1.2664181 -5.2918396 13.5
-0.81282294 1.2666951 -5.4774885 13
2.2486365 1.3252944 -5.6302977 12
-2.7973762 1.6072919 -5.2792158 14.5
-0.81242675 1.4909174 -5.4497237 15
2.2516496 1.6566561 -5.6399508 14.2
-0.81794053 0.57505047 -5.0832672 7
2.240665 0.58025807 -5.2170491 7
-0.81974477 0.82677341 -5.0412354 9.7777777
2.2464261 0.84203017 -5.2542639 9
-0.82145905 1.1865754 -5.0232658 13.555555
2.2435517 1.238919 -5.2517843 12
2.240943 1.5844479 -5.174861 14.666667
-1.326295 0.44436452 -4.568078 6
-0.83056408 0.50970304 -4.6009169 6.6666665
2.2381027 0.54759878 -4.8491673 7
-0.82862121 0.77168691 -4.627718 10
2.2401848 0.7717793 -4.8819447 8.8571424
-0.83124715 1.0884873 -4.5912018 14
2.2377162 1.1975888 -4.8182311 12.444445
2.2405128 1.4862866 -4.843441 14.666667
-1.6730219 0.41890427 -4.3239083 6
-0.86613393 0.48477507 -4.2042718 6.75
1.1259385 0.44038066 -4.4570966 6
1.3847867 0.42098957 -4.2588592 6
2.2336767 0.51355374 -4.4696951 7
-0.87181848 0.73650002 -4.1921711 10.684211
2.2314975 0.78685963 -4.4633365 9.5
-0.87495941 0.989977 -4.1729426 14.5
2.231616 1.1708337 -4.4125166 13
2.2326589 1.4053024 -4.4132495 15
-0.89201117 0.36109659 -3.7363782 5
-0.60834163 0.37477803 -3.8471022 5
0.37332892 0.37255108 -3.8127494 5
1.5817499 0.40218359 -4.0732884 6
2.2136316 0.48756963 -4.181427 7
2.2234185 0.72540867 -4.0379295 9.5
2.2254109 1.1345896 -4.0074449 13.5
-1.0939051 0.34677178 -3.6029229 5
0.36882138 0.34998301 -3.5885761 4.5
0.72672725 0.35021919 -3.584084 5
1.847689 0.3649205 -3.6958959 6
2.2143195 0.44550434 -3.7270939 7
2.2187436 0.67353618 -3.6627069 9.5
2.2182288 1.0527071 -3.6245606 13.5
-0.85814524 0.37904239 -3.1888695 6
0.42717296 0.32210928 -3.3086972 4
0.65620869 0.2988067 -3.0821517 4
1.0682442 0.30904701 -3.1687763 5
2.0619216 0.32166779 -3.2703352 6
2.2166121 0.40253934 -3.2736783 7
-0.86096931 0.55572182 -3.1442399 11.5
2.2121992 0.6637193 -3.2423754 10
2.2122345 1.0074444 -3.2631145 13.75
0.81108481 0.26339984 -2.7293601 4
1.2103842 0.27054399 -2.7856138 5
2.163156 0.32037368 -2.8446801 6.5
2.2110648 0.37259349 -2.9639847 7
2.1918306 0.62147141 -2.8190029 10.125
2.2092216 0.63115191 -2.9836717 10
2.1889532 0.93515158 -2.7535386 13.875
2.2105236 0.99306357 -2.8997164 14.25
0.77060968 0.28771362 -2.4287522 5.5
1.2124898 0.24724713 -2.554481 5
2.1620729 0.2854526 -2.4982984 6.5
0.78152436 0.48555523 -2.3812647 11.285714
2.1714792 0.57071072 -2.4419684 10
2.1710777 0.90814912 -2.4051549 14
-1.127247 0.16781759 -1.8490117 4.5
-0.71927768 0.18083549 -1.9311751 3.25
-0.41844755 0.19563413 -2.0851712 3
0.55824953 0.24859703 -2.040062 5.5
2.1445453 0.25812507 -2.2320204 6.5
0.59453952 0.45733541 -2.0561948 11.588235
2.17048 0.54679316 -2.1803594 10
2.1660492 0.88761783 -2.1463327 14
-1.7435113 0.16698596 -1.3284451 6.5
-1.0826849 0.13698295 -1.5364158 5
-0.73732108 0.13155645 -1.4715801 4.6666665
-0.31135875 0.14864933 -1.6292133 4
0.079687119 0.15295854 -1.6627692 4
0.67089528 0.13913766 -1.5116811 5
0.84027201 0.15401092 -1.6583865 5
-1.7390485 0.44628572 -1.2736135 10.5
-1.7412697 0.73739403 -1.2367959 14.5
-1.7457042 0.12992422 -1.0396851 6.5
-0.58544046 0.11131784 -1.2695894 5
-0.27267432 0.1086089 -1.2284997 5
0.12818854 0.11208773 -1.2579615 5
0.46499538 0.12435088 -1.3746657 5
1.5729741 0.097902745 -1.0778061 6
-1.742642 0.39970252 -1.0126829 10
-1.7441609 0.71453369 -0.99176538 14
-1.744349 0.12576881 -0.6614219 7
-1.4665625 0.047861964 -0.66696239 6
-1.1609014 0.030287594 -0.4880569 6
1.1675242 0.060997039 -0.72229111 6
1.383445 0.07754305 -0.88459897 6
-1.7462305 0.36690345 -0.63209379 9.7777777
-1.7469598 0.72272444 -0.54624283 13.75
-1.7468408 0.079867005 -0.26560974 7
-0.85860223 0.01962021 -0.37554264 6
-0.52103639 0.012638301 -0.299371 6
-0.15244025 0.011886597 -0.28016925 6
0.21446867 0.016995162 -0.31876421 6
0.57432479 0.026486963 -0.40557313 6
0.87561387 0.040963113 -0.53750443 6
2.1659393 0.11418466 -0.54551554 7
-1.7475799 0.32217848 -0.17734623 9.5
2.1640241 0.38685685 -0.50008726 9.5
-1.7501045 0.73067701 -0.12996006 13.5
2.1666803 0.74115586 -0.41719294 12.666667
2.1636114 1.0144118 -0.35785484 15
-1.7440389 0.022838444 0.22310019 7
2.1682725 0.077189147 -0.22051859 7
-1.7490671 0.30804822 0.16461825 9.5
2.165786 0.29980069 -0.014659405 9
-1.7548175 0.69132203 0.28172445 12.875
2.1654646 0.70445871 0.011238098 12.285714
-1.7529694 0.93209934 0.23686099 15
2.1642704 1.0084044 0.070420027 14.666667
2.1650302 0.025285095 0.23207998 7
-1.7509613 0.22868967 0.59719467 9
2.1622586 0.27449846 0.39459825 9
-1.7530355 0.60163844 0.60154152 12
2.159066 0.67592025 0.41792822 12
-1.7554595 0.94322109 0.64837527 14.666667
2.1625528 1.0327127 0.44057918 14.6
-1.7582256 -0.044954091 0.79911375 7
2.1608813 -0.027161151 0.68590593 7
-1.7566191 0.20723593 1.0005691 9
2.1607759 0.25366449 0.74899697 9
-1.7584828 0.61977041 1.0179861 12
2.1593957 0.65551978 0.77858973 11.8
-1.7584277 0.97374845 1.0664918 14.5
2.1561229 1.0136203 0.86447406 14.2
-1.760399 0.18624063 1.3965337 9
2.1561241 0.22962272 1.1625619 9
-1.7602733 0.56275821 1.4531109 11.5
2.1553843 0.64513481 1.1957712 11.666667
-1.7630686 0.95078409 1.4966273 14
2.1530809 0.98003411 1.191251 13.8
2.1479621 1.1928954 1.3640337 15
-1.7553049 -0.15483221 1.7305145 7
-0.98425835 -0.12994745 1.5700302 7
-0.46396321 -0.12691292 1.5665846 7
0.048407748 -0.12590423 1.5713725 7
2.1576359 -0.10700786 1.3717711 7
-1.7613604 0.079653412 1.8477159 8.5
2.1556823 0.13029698 1.462045 8.5
-1.7637998 0.49342379 1.916678 11
2.1532912 0.5414809 1.5018129 11
-1.7688564 0.91819477 1.9705033 13.5
2.1544418 1.0535177 1.6269512 14
2.1553469 0.95293081 1.4484096 13.5
-1.7651023 1.1777657 1.9840856 15
2.1500084 1.2189214 1.5683317 15
-1.765473 0.055844039 2.2050395 8.5
-1.7652551 0.40930274 2.2370963 10.5
-1.7654433 0.8581785 2.2792192 13
-1.7726525 1.2305068 2.3355851 15
-1.7675816 0.020902485 2.7168608 8.5
-1.7653475 0.039238453 2.4454889 8.5
-1.7688259 0.40861347 2.7565579 10.5
-1.7690189 0.40872437 2.4912395 10.5
-1.77168 0.80221999 2.8022037 12.5
-1.7669623 0.78344601 2.5191908 12.5
-1.7710685 1.2050657 2.8370543 14.5
-1.7685084 1.1677856 2.5595303 14.5
-1.7700577 -0.30401894 2.9888048 7
-1.7704918 0.00065210462 3.018084 8.5
-1.7697022 0.4085879 3.0524344 10.5
-1.7705518 0.8218013 3.0930724 12.5
-1.7721293 1.2456145 3.1372552 14.5
-1.7702129 -0.34221074 3.3106332 7
1.0901712 -0.32605848 3.2557435 7
-1.7741925 -0.022192448 3.3544898 8.5
-1.7723042 0.40826914 3.3863511 10.5
-1.7763273 0.84535861 3.4409599 12.5
-1.7781986 1.1800286 3.4782453 14
-1.7743903 1.4046625 3.4842963 15
0.63151139 -0.38638338 3.7627058 7
-1.7358425 -0.049340338 3.7546372 8.5
-1.4790177 -0.052566528 3.7846298 8.5
0.25848204 0.059734881 3.8042645 9
0.54662949 -0.072547823 3.7920184 8.3999996
0.8640514 -0.047326028 3.7889805 8.5
-1.73377 0.29299542 3.7768536 10
-1.393803 0.36315534 3.8291264 10.333333
-0.59309095 0.39350632 3.833632 10.5
-0.22525953 0.39338866 3.8295059 10.5
0.19280855 0.37333134 3.8307061 10.4
0.58120871 0.40075752 3.8309565 10.5
0.9096449 0.44474766 3.8377166 10.666667
-1.7364585 0.63819242 3.8187332 11.5
-1.473778 0.67098117 3.8596177 11.666667
-0.59394503 0.73284554 3.8655157 12
-0.226382 0.73216975 3.8646207 12
0.17937751 0.73525631 3.8677311 12
0.58074999 0.74225593 3.8689961 12
0.86182624 0.74938738 3.8706288 12
-1.7376412 1.1069756 3.8653164 13.5
-1.4344715 1.0980401 3.8979025 13.5
-0.59483898 1.0785648 3.8992705 13.5
-0.22748099 1.0775546 3.9020834 13.5
0.19075729 1.0578687 3.8993993 13.4
0.57971931 1.0900431 3.9041905 13.5
0.86104852 1.0995741 3.9080811 13.5
-1.7385708 1.4667804 3.9014554 15
-1.4364295 1.4570115 3.9388471 15
-0.59639752 1.4319041 3.9407406 15
-0.22844945 1.4298403 3.9390149 15
0.20789333 1.434333 3.9378953 15
0.57778448 1.4437271 3.9331336 15
0.85890347 1.4556179 3.9372988 15
1.6886603 -0.38650963 3.7577906 7
2.3098843 -0.3896828 3.7702999 7
2.8882527 -0.38586763 3.7179074 7
1.1026076 -0.045462996 3.7944422 8.5
1.441353 -0.041655213 3.7941351 8.5
1.8388606 -0.036657661 3.7930255 8.5
2.2215297 -0.030440122 3.7842407 8.5
2.5756872 -0.025873095 3.7998586 8.5
3.0226498 -0.017638981 3.7972937 8.5
3.3104856 -0.011845738 3.7898803 8.5
1.1010276 0.2963331 3.8260207 10
1.4394966 0.30399331 3.8262444 10
1.839389 0.31469557 3.8337808 10
2.1454287 0.32426825 3.8302341 10
2.5210824 0.33737352 3.8382921 10
3.0181112 0.35729221 3.8286457 10
3.3138826 0.36990795 3.8370523 10
1.1004486 0.75730228 3.8771396 12
1.3798932 0.62771845 3.8573608 11.4
1.8365718 0.66961265 3.8642087 11.5
2.2236099 0.68877089 3.8686743 11.5
2.5729651 0.70824313 3.87322 11.5
3.0182128 0.73586905 3.8697286 11.5
3.307786 0.75545287 3.8671107 11.5
1.0979065 1.1091567 3.9056425 13.5
1.4383581 1.1272932 3.9149809 13.5
1.8354472 1.1513206 3.914113 13.5
2.14311 1.1732198 3.9169192 13.5
2.4737637 1.1363046 3.9091873 13.25
2.9865599 1.1163373 3.9055176 13
3.2539401 1.1416472 3.9185963 13
1.0968014 1.4684427 3.9415631 15
1.4361488 1.4904209 3.9472284 15
1.8328952 1.5204302 3.947401 15
2.1412752 1.5483251 3.9534402 15
2.5465677 1.4865757 3.9467497 14.6
3.0154076 1.5115627 3.9475474 14.5
3.3059745 1.5454047 3.9484062 14.5
0.29845273 1.1849968 -8.5072947 8.6754999
0.29520428 1.4959745 -8.4453783 10.1755
-0.85624874 0.58114588 -3.1500053 12.203
2.2215288 1.1513773 -3.3956127 15.1435
0.70349258 0.4522469 -2.2261868 11.234667
0.60994101 0.50570077 -1.9559332 13.448499
-0.64672703 0.081810623 1.7103662 8.5845003
-0.34178865 0.081153333 1.72123 8.5865002
0.023363143 0.082374841 1.7180572 8.5889997
-0.67436391 0.30163899 1.9717355 10.0845
-0.67544329 0.54003 1.9993105 11.5845
-0.89330709 1.0756247 3.9692402 13.5845
-0.89516163 1.4305855 4.0124846 15.0845
3.3465121 0.71434736 -3.216449 6
3.2878869 0.55251807 -1.8475389 6
4.2738299 0.7850157 -3.6403556 6
5.5489588 0.48258135 -1.0568352 6
4.2724257 0.82769871 -3.636342 7
3.2844574 0.58344889 -1.8413609 7
3.3452075 0.74598581 -3.2127767 7
3.2572427 0.50936592 -1.2893468 7
5.6198421 0.7285099 -2.3952937 7
5.6341953 0.77842563 -2.824178 7
5.6331005 0.84813964 -3.4544177 7
5.6001987 0.75115168 -2.593071 7
5.6496077 0.88827705 -3.8253551 7
4.2627778 0.87419194 -3.6635618 8
3.2803259 0.61446816 -1.8343463 8
3.3368545 0.7786622 -3.2189488 8
4.3211055 0.85858792 -3.5260897 8
5.5037308 0.54359066 -0.15750885 8
5.6539021 0.99386251 -4.0339174 8
5.5271869 0.60379964 -0.73032022 8
4.2693748 0.91309673 -3.6276143 9
3.277935 0.64600122 -1.8293543 9
3.34109 0.80954897 -3.2075276 9
4.5918031 0.90073675 -3.4235792 9
3.280622 0.63598859 -1.6961839 9
3.3470094 0.84817189 -3.4455843 9
4.4604654 0.89390814 -3.4387271 9
5.6506338 0.96482372 -3.2608697 9
5.5669479 0.78387475 -1.7932351 9
5.4916425 0.63240623 -0.0075879097 9
5.5273662 0.69588459 -0.81583941 9
5.5132737 0.66707724 -0.45624089 9
4.2566457 0.95979404 -3.6455839 10
3.2694743 0.67751014 -1.8171904 10
3.3361592 0.84237897 -3.2088046 10
4.5916414 0.94295692 -3.4207084 10
3.3432231 0.88779378 -3.4450986 10
3.2599421 0.66111523 -1.4500625 10
5.5907679 0.94677168 -2.6955643 10
4.3203616 0.93964314 -3.5225954 10
5.489553 0.74269295 -0.14308548 10
5.4709044 0.72151256 0.32134151 10
5.6045794 0.91000348 -2.3745437 10
5.63871 1.1272571 -3.8372636 10
4.2553029 1.0038764 -3.6418104 11
3.2691851 0.70989484 -1.8146234 11
3.3346071 0.87471658 -3.2053621 11
5.2717123 0.81626314 3.9967923 11
4.3158522 0.97823411 -3.5112457 11
3.272727 0.7070384 -1.6808237 11
5.6152444 1.1267337 -3.4182792 11
5.6325369 1.0530138 -2.9554844 11
5.6411662 1.2415409 -4.0026727 11
5.5161166 0.85783648 -0.70142281 11
5.4720597 0.83549064 0.34490299 11
5.636971 1.1913488 -3.7499149 11
4.2719488 1.0350074 -3.5824866 12
3.2727256 0.74226558 -1.7956173 12
5.2617326 1.0497131 4.0219035 12
5.602354 0.99665409 -1.9483726 12
5.633379 1.1188843 -2.9487913 12
3.337667 0.96777642 -3.4401383 12
5.5452132 0.96239477 -1.5065339 12
5.4969473 0.94240844 -0.43047571 12
5.6043549 1.0336192 -2.3598342 12
5.6210551 1.2131796 -3.4806952 12
5.5681 0.9786182 -1.766752 12
5.5961494 1.0715756 -2.6823747 12
5.4849682 0.94651318 0.038602114 12
5.6351743 1.1684105 -3.2338967 12
4.2603583 1.0844169 -3.6017528 13
3.2681384 0.77593625 -1.7877705 13
4.587872 1.0710225 -3.4076719 13
5.2546988 1.2868917 4.0617628 13
3.258347 0.79104513 -1.4413944 13
4.4521646 1.0529295 -3.4171836 13
4.3496218 1.0532755 -3.4655113 13
5.4707928 1.0511434 0.03545332 13
5.620369 1.363203 -3.8028784 13
5.6054783 1.1522872 -2.777935 13
5.5908442 1.0597725 -1.9436545 13
4.2619052 1.1324594 -3.6062517 14
4.5841503 1.1134387 -3.4000888 14
3.2568896 0.83523631 -1.4368349 14
4.3466415 1.0929976 -3.4580424 14
4.4526625 1.0954355 -3.415874 14
5.5739985 1.1755897 -2.5429764 14
5.6265507 1.4278479 -3.7217238 14
5.5089512 1.1142464 -0.76836681 14
5.6092482 1.2186978 -2.7714212 14
5.6150331 1.3605957 -3.4634738 14
4.2681532 1.1676557 -3.5714436 15
4.5850601 1.1593257 -3.3984015 15
4.4445605 1.1324342 -3.4007554 15
3.2386804 0.90380603 -1.2382157 15
5.6252708 1.5210807 -3.7525749 15
5.5915713 1.2222342 -2.3380954 15
5.544857 1.1759055 -1.4768107 15
5.5913448 1.2793586 -2.7613795 15
5.4491944 1.3025217 0.39268351 15
5.1220932 0.92297876 4.0109515 11.5
4.9776626 0.91359782 4.0079675 11.5
5.1508112 1.4384153 4.0764451 13.666667
4.9575624 1.3813081 4.0565305 13.5
5.1601348 1.7615623 4.1057034 15
4.9434557 1.7415793 4.1019511 15
3.9259493 0.1836136 3.8688083 8.5
3.6270208 0.17325717 3.8524003 8.5
3.1898971 0.15816265 3.8323593 8.5
2.8665068 0.14816827 3.8117676 8.5
5.2995806 0.81721342 3.6947107 11
3.9077547 0.62994885 3.9235101 10.5
3.6090226 0.61867803 3.9010768 10.5
3.1717265 0.60454333 3.8851852 10.5
2.8481545 0.59615558 3.8646603 10.5
5.3047438 1.1072211 3.5438628 12.333333
3.8939059 0.96822131 3.9606333 12
3.5952799 0.9562822 3.939146 12
3.1590948 0.94268048 3.9136062 12
2.8340595 0.93603337 3.9063282 12
5.278214 1.3816839 3.7677064 13.5
3.8798993 1.3124496 3.9959674 13.5
3.581044 1.3009717 3.9875698 13.5
3.1446671 1.2872612 3.9573507 13.5
2.8198349 1.2823063 3.9475899 13.5
5.2645507 1.7298486 3.810637 15
3.865593 1.6643376 4.0413952 15
3.5668254 1.6517671 4.0260386 15
3.1294727 1.6397712 4.0061769 15
2.8054628 1.6354871 3.9885182 15
5.3315268 0.81796193 3.0969853 11
5.317596 0.81763339 3.387002 11
5.3215618 1.1248028 3.1425166 12.5
5.3066983 1.5438914 3.1999202 14.5
5.2936544 1.4658518 3.4727416 14
5.2842593 1.6879385 3.497283 15
5.3682423 0.3755469 2.7067714 8.666667
5.3511834 0.75432354 2.7453976 10.666667
5.3415885 1.106305 2.7558966 12.5
5.325871 1.4979815 2.8025317 14.5
5.3813825 0.34132594 2.3811383 8.333333
5.3690901 0.69865918 2.4304113 10.333333
5.3604894 1.1804578 2.3964882 13
5.3389387 1.5506781 2.4587512 15
5.4009085 0.44731084 1.900732 8.7142859
5.3887563 0.84189534 2.0141926 11.125
5.3741088 1.2566729 2.0005407 13.6
5.3652873 1.5022821 2.0754089 15
5.4254708 0.21346703 1.5504026 7
5.4186773 0.52217323 1.5142279 9
5.4084573 0.90012497 1.5720897 11.5
5.3947554 1.2893887 1.6232219 14
5.440928 0.54912508 1.1383424 9
3.1186211 0.42056936 1.4655912 9
5.4268641 0.96624601 1.1697998 12
3.1123433 0.70407522 1.4709523 11
3.1028528 0.91868514 1.4999595 12.5
5.4112387 1.2828326 1.2480805 14.2
3.0905604 1.2113459 1.5360975 14.5
5.4580078 0.30374071 0.88101673 7
5.4654446 0.58434856 0.64898634 9
5.4514332 0.56901145 0.85763383 9
3.1367643 0.44579065 1.0834188 9
5.4500027 0.92512131 0.68568611 11.75
5.4399605 0.9606849 0.91295314 12
3.1249166 0.832762 1.109499 12
5.4371343 1.2754846 0.72952914 14.5
5.4281611 1.294317 0.92394567 14.5
3.1110868 1.1633337 1.1498904 14.5
5.4862189 0.3837575 0.28462744 7
5.4798388 0.64057755 0.31257391 9.2857141
3.1592765 0.50843894 0.61087251 9.2857141
5.4637809 1.0353335 0.41367769 12.714286
3.1440542 0.89831722 0.68334556 12.714286
5.4527311 1.3047251 0.40475392 15
3.1374357 1.1632731 0.68104696 15
5.5060787 0.43494552 -0.098635197 7
5.4988227 0.69143111 -0.10621166 9.5
3.1811719 0.5560528 0.1649003 9.5
5.4851127 1.1030192 -0.04525423 13.5
3.1667335 0.94784904 0.20485115 13.5
5.4662938 1.278506 0.15057755 15
5.52426 0.49384135 -0.54391003 7
5.1090136 0.39953077 -0.549752 6
4.8626642 0.37236899 -0.40753984 6
3.2059827 0.3660427 -0.23324585 7
5.5168624 0.7406894 -0.49537444 9.7777777
3.1996408 0.61736923 -0.22560263 10
5.5044594 1.1009253 -0.42874575 13.666667
3.1869049 0.96744442 -0.19488406 14.142858
5.5068483 0.4881061 -0.88040602 6.4000001
3.2278666 0.4276799 -0.68661714 7
5.5347676 0.78408653 -0.88419533 10
3.219101 0.66600734 -0.65831125 10.5
5.5242629 1.1261098 -0.85777009 14.142858
3.207674 0.92977375 -0.5852325 14.2
5.5671473 0.55841511 -1.3194942 6.5
4.5870681 0.46918678 -1.3278971 5
4.3750739 0.44650072 -1.2152842 5
3.2967269 0.44760978 -1.1901917 6
3.236342 0.46190262 -0.94008183 7
5.5516419 0.83011597 -1.2910038 10.272727
3.242471 0.6689465 -1.1139171 10.4
3.2318246 0.70206439 -0.92526162 11
5.5412354 1.1055336 -1.2311726 14
3.2321639 0.92092204 -1.1002297 15
3.2250929 0.94578332 -0.90476167 15
5.5870838 0.63700449 -1.8209293 6.6666665
5.5747175 0.59380227 -1.6610239 6.3333335
4.9588008 0.52139008 -1.647243 5
4.7526717 0.48908034 -1.4387511 5
3.293247 0.48200658 -1.475482 5.7142859
5.5747538 0.86943525 -1.7586486 10.333333
5.5629053 0.90141112 -1.60624 11
3.2560194 0.73841691 -1.4148792 11.722222
5.5617452 1.1345601 -1.7584928 14.333333
5.5545435 1.1418239 -1.5474818 14.5
5.5988226 0.66321397 -2.1141467 6.5
5.2019515 0.58079642 -2.0719333 5
3.3005526 0.50783849 -1.7389168 5.1999998
5.5879164 0.90991855 -2.0821426 10.5
3.2728415 0.73188633 -1.7280635 11.666667
5.5778303 1.1635487 -2.0565314 14.5
5.6110592 0.71089 -2.5093057 6.5
5.2734041 0.62931341 -2.4616244 5
4.8139791 0.61642587 -2.5179183 3
4.5046735 0.5790655 -2.3039124 3
4.183681 0.55409169 -2.2069044 3
5.6030312 0.95459288 -2.4854085 10.5
5.5939479 1.2049135 -2.4647989 14.5
5.6281881 0.75618768 -2.9107933 6.5
5.2162576 0.67493206 -2.8676178 5
4.8890309 0.65100396 -2.7807496 3.5999999
5.6162548 1.0007123 -2.8985734 10.352942
5.6061106 1.2684574 -2.8646774 14.5
5.639966 0.79771835 -3.3028908 6.5
5.0522723 0.71183056 -3.2417154 5
4.8101635 0.7017312 -3.2399616 4.5
4.4869008 0.69256055 -3.2745004 4
5.6294413 1.0702491 -3.2766137 10.5
5.6184573 1.3516412 -3.2549319 14.5
5.6539745 0.8374759 -3.7008231 6.5
4.689816 0.77788848 -3.4794908 6
4.3630538 0.77141523 -3.517487 5.8000002
3.9658749 0.69425672 -3.4742913 4
3.5276437 0.66901684 -3.4070518 4
3.345818 0.71989149 -3.3856111 5.8000002
5.6454086 1.1078864 -3.7144513 10
4.6309299 1.0213468 -3.4383221 11.555555
4.3444066 1.0111814 -3.5231557 11.608696
3.3369713 0.92879617 -3.3861921 11.347826
5.6301355 1.4310659 -3.6795225 14.142858
5.5898685 0.87818301 -4.1348505 6.5
4.2226033 0.74759156 -3.838552 5
3.8705046 0.73779398 -3.8827143 5
3.3994827 0.75861675 -3.7960708 6
5.6553926 1.1828715 -4.103055 10.076923
3.3460922 1.0201089 -3.7816205 11.266666
5.6392756 1.5111048 -4.0861993 13.8
3.3381433 1.2631514 -3.8926291 15
5.6803241 0.95868808 -4.4900017 7
3.3710277 0.83001047 -4.263546 6.6666665
5.6666732 1.195303 -4.4715424 9.5
3.3552642 1.0849724 -4.1826754 10.769231
5.6514482 1.5788817 -4.4197202 13.5
3.3466179 1.3377513 -4.1818905 14.5
4.206955 0.85745025 -4.7870898 6
3.7435296 0.84152925 -4.8153267 6
3.4115334 0.86849487 -4.6769419 6.6666665
3.3694057 1.117959 -4.6243086 9.909091
3.3540657 1.4389138 -4.5714703 14
3.3935266 0.93453354 -5.0730829 7
3.3773847 1.201848 -5.0061536 10
3.3625627 1.5658582 -4.9622092 13.888889
3.394871 1.2067227 -5.4512739 9.1999998
3.3737466 1.5965352 -5.3338728 13
3.3641117 1.8293805 -5.3520222 15
3.4026453 1.2762449 -5.8419905 9.1999998
3.3854797 1.6369433 -5.7541752 12.285714
3.37341 1.9591856 -5.7981029 14.666667
3.4779117 1.0705891 -6.4072809 7
3.5119317 1.3437049 -6.3526106 9
3.5041764 1.7595792 -6.3067827 12
3.5083957 2.1168563 -6.2688398 14.5
4.7179227 1.3023977 -8.2442484 7
4.2126074 1.2833416 -8.2507038 7
5.78722 1.8842351 -8.8996534 9
5.774816 2.1186633 -8.8627815 10
5.7606554 2.4762437 -8.8224306 11.5
5.7408266 2.9613328 -8.7656212 13.5
5.7232704 3.3305607 -8.7141552 15
5.4888763 1.4370956 -9.3092022 7
5.6371861 1.9542325 -9.3639889 9
5.3332372 1.7772777 -9.4157858 8.333333
5.6260891 2.2043738 -9.3310604 10
5.2812891 2.1906857 -9.3678169 10
5.6102467 2.5835543 -9.2852287 11.5
5.2660379 2.5679462 -9.3243952 11.5
5.5939054 2.9672587 -9.237936 13
5.2516356 2.9523208 -9.2856197 13
5.5781326 3.3608127 -9.1928339 14.5
5.2349844 3.342304 -9.2364798 14.5
4.0829806 1.4024091 -9.5047293 7
3.676486 1.3868346 -9.514823 7
3.941 1.7641335 -9.4607143 8.5
3.6868618 1.7553415 -9.4705582 8.5
3.9259319 2.1319447 -9.4152212 10
3.6716354 2.125632 -9.4344769 10
3.9344656 2.5468938 -9.368331 11.666667
3.6695454 2.4953249 -9.3764505 11.5
3.8954995 2.8824358 -9.3334694 13
3.6414902 2.8717875 -9.3319569 13
3.8796904 3.266525 -9.2843752 14.5
3.6254163 3.260632 -9.2950401 14.5
5.0229526 0.29558301 3.0922451 8.5024996
5.0038652 0.59554237 3.0931168 10.0025
3.2470748 0.88276207 -1.3998145 15.162
3.2628937 0.85820138 -1.6143872 15.1595
5.5953155 1.217128 -2.2653575 15.0385
4.3795934 1.1005518 -3.4850078 14.073001
3.3446701 1.1013678 -3.489377 15.1
3.3346262 1.0444533 -3.3284032 15.1025
4.7981591 1.6117797 -8.2175941 8.5819998
4.298707 1.59535 -8.258007 8.5845003
4.7828903 2.0209675 -8.1782379 10.582
4.2814412 1.9987557 -8.2004452 10.5845
4.9642658 2.6812093 -9.354826 12.082
4.3539395 2.6481948 -9.369256 12.0845
4.9502501 2.927855 -9.3021336 13.082
4.343389 2.8988638 -9.3357286 13.0845
4.9363642 3.3196008 -9.268858 14.582
4.3287849 3.2900255 -9.3068027 14.5845
0.79556763 0.24467485 -1.7984273 5
0.79427803 0.27974758 -1.7943082 6
-0.8691504 0.30556408 -2.0287027 6
-0.87140054 0.31771514 -2.2274308 6
-1.2871153 0.28902549 -2.0380709 6
0.67094958 0.28985918 -1.8514783 6
0.80174184 0.31481522 -1.7943962 7
-1.7476715 0.04685542 0.67630422 7
-0.87257534 0.34095031 -2.0282817 7
-1.7007775 0.33136126 -2.0429587 7
0.61902243 0.3310256 -1.9412763 7
0.66910851 0.32186541 -1.8471146 7
-0.85683787 0.38150448 -2.5009937 7
-0.85922694 0.41551575 -2.90835 7
-1.7326908 0.18207043 -0.54813153 7
-1.741574 0.094687641 0.24997425 7
-1.7172263 0.30092999 -1.7199509 7
-1.7307783 0.21359842 -0.84642118 7
2.1618457 0.27664459 -1.6609824 7
-1.7441998 0.2735635 -1.4408308 7
2.1605752 0.22586985 -1.1453295 7
2.1299679 0.0726621 1.4469718 8
-1.8004721 -0.11995521 3.7950101 8
-1.699093 0.39143044 -2.0363393 8
-1.2825361 0.38302976 -2.0262394 8
-0.86176032 0.40837911 -2.3137774 8
-1.7452402 0.16184366 0.40711451 8
2.1564069 0.30503726 -1.1379263 8
2.2065365 0.68372536 -4.6540322 8
-1.7296768 0.28680861 -0.98988098 8
-1.736511 0.21365735 -0.18891001 8
2.1368616 0.12725082 0.81166089 8
-1.7329926 0.24524444 -0.54167193 8
-1.7431231 0.18610194 0.12621164 8
-1.7311888 0.27275151 -0.84040409 8
2.1454332 0.17051516 0.31802166 8
-0.90933967 0.72079879 -4.1354032 9
2.1407187 0.19251148 1.5572542 9
0.79541081 0.38442814 -1.7844077 9
-1.6380128 0.066464663 3.8144665 9
0.18290378 0.051029205 3.8346272 9
-1.7388048 0.45237255 -2.0199187 9
0.59259319 0.39890835 -1.9647684 9
0.63652802 0.38974318 -1.881979 9
-0.86736393 0.43728033 -2.2112491 9
-1.7323625 0.26589179 0.082147479 9
-1.0222701 0.41820961 -2.022897 9
2.2118948 0.90612602 -5.2079735 9
2.188385 0.35510811 -0.78917354 9
-1.7281699 0.31923276 -0.67796022 9
2.2008946 0.45668131 -1.819346 9
2.2123673 0.81174672 -4.5495348 9
-1.7568897 0.22905262 0.70634449 9
-1.7325435 0.34472457 -0.98347235 9
0.59688205 0.4577148 -2.122767 10
-0.91123402 0.82399875 -4.1325364 10
0.81566489 0.42013946 -1.7743211 10
2.1407983 0.32103503 1.5697578 10
-1.6373849 0.25479528 3.8321366 10
0.18346931 0.23262119 3.8567123 10
-0.87423283 0.44737667 -2.0193918 10
-1.7104591 0.51362455 -2.0292563 10
0.60813552 0.42648059 -1.9229362 10
-0.85782921 0.59520721 -2.88836 10
-1.7092097 0.45857015 -1.5835893 10
-1.7202463 0.39822352 -0.93189865 10
-1.0222663 0.45780021 -2.019033 10
-1.7280658 0.37352532 -0.56037593 10
-1.7391404 0.35532087 -0.20809305 10
2.155436 0.50124758 -1.5060812 10
-1.7386074 0.44401222 -1.4237212 10
2.1428778 0.33590707 1.1044306 10
0.59262353 0.49335313 -2.1144667 11
-0.90810251 0.92437261 -4.112237 11
0.81585675 0.45596108 -1.7708368 11
2.1353595 0.44993842 1.5751125 11
-1.7954443 0.45005673 3.8391552 11
-0.87612027 0.48362076 -2.0175314 11
-1.688712 0.57100916 -2.0142446 11
-0.93289566 0.42355639 3.8330579 11
-1.2435983 0.43166775 3.8558712 11
0.61697519 0.46083802 -1.9265995 11
-0.85931212 0.5733279 -2.4863746 11
-1.7236567 0.45059067 -0.82513666 11
-1.7593522 0.41506913 1.3006986 11
2.2029586 1.1063224 -4.6059685 11
2.1572375 0.59580219 -1.6287313 11
-0.87044531 0.52848965 -2.2577817 11
-1.0792787 0.50342447 -2.0146358 11
-1.7446249 0.41469511 0.43195689 11
-1.7370033 0.42409068 -0.16746151 11
-1.7250626 0.46234059 -0.99787366 11
2.1376073 0.4523766 1.1099483 11
2.160419 0.54391879 -1.1139504 11
-1.7362447 0.44292444 -0.66224074 11
0.59604108 0.5314666 -2.1143949 12
-0.90990812 1.0294249 -4.1088867 12
0.80697465 0.49013183 -1.7633159 12
2.1442039 0.5789569 1.5138611 12
-1.798156 0.64302397 3.8676662 12
-1.7317889 0.63687158 -1.9989059 12
-0.89599484 0.52175063 -2.0115798 12
0.61319238 0.4927513 -1.9203528 12
-0.93678993 0.61018974 3.8781486 12
0.59771991 0.49874169 -1.959235 12
-1.2410557 0.61884826 3.8643074 12
0.6641559 0.48736557 -1.8590624 12
-1.4175285 0.59244871 -2.0102534 12
-0.86657208 0.58148474 -2.3032417 12
-0.867414 0.54313254 -2.1295893 12
-1.7281299 0.51677406 -0.91807199 12
2.1863146 0.59431672 -0.58773494 12
2.1378613 0.56610215 0.85524619 12
-1.7210635 0.54254365 -1.273985 12
-1.7149596 0.56284082 -1.4804577 12
-1.7497665 0.49721494 0.16359282 12
-0.9085288 1.1327951 -4.0944791 13
2.1386774 0.70328462 1.4368852 13
-1.7927307 0.83620685 3.8711915 13
-0.87188059 0.5549112 -2.0068576 13
-1.7265147 0.69846356 -1.9906757 13
0.65943402 0.51929581 -1.8526936 13
0.6210742 0.52846509 -1.9231091 13
-0.93580669 0.79782265 3.8926978 13
-1.2412138 0.808617 3.8854027 13
0.60623401 0.53527415 -1.9630377 13
-0.85791928 0.77869266 -2.8711061 13
-1.7463187 0.57643276 -0.83117086 13
-0.86273843 0.69269335 -2.5560074 13
-1.4176642 0.64528221 -2.0051494 13
-1.7630956 0.63761097 1.329373 13
-1.7170769 0.63241166 -1.5676242 13
2.1840925 0.68026036 -0.5800091 13
-1.7219537 0.66376424 -1.7840273 13
2.1939759 0.78837991 -1.7849882 13
-1.7313392 0.58124709 -0.98472464 13
2.2121463 1.3727703 -4.492301 13
-1.7488072 0.58137155 0.30622435 13
-1.7424934 0.56764936 -0.18446219 13
-0.90930378 1.2398388 -4.0873165 14
0.80673617 0.56283832 -1.7559533 14
2.1861265 0.94933015 -2.2382562 14
0.60732329 0.57019204 -1.9604845 14
2.1342192 0.83093411 1.443745 14
-1.7978183 1.0355003 3.9076638 14
0.61902726 0.56167459 -1.9181287 14
-1.7267998 0.76212847 -1.9845467 14
0.64028859 0.55360156 -1.8682446 14
-1.0781935 0.63007969 -2.0015175 14
-1.1856647 0.65269101 -2.0073633 14
-0.93536109 0.9881891 3.9109278 14
-1.2442125 1.002932 3.9200053 14
-1.7369835 0.63664871 -0.82803988 14
-1.7519597 0.71934402 1.0117399 14
2.2190888 1.7142475 -5.1376677 14
2.1609662 0.78426707 -1.0240798 14
2.1569545 0.82558393 -1.4740756 14
2.1458333 0.76785719 0.37656665 14
-1.7192551 0.72396702 -1.7773352 14
2.2133133 1.5175049 -4.4792461 14
2.1817687 0.77348542 -0.74962431 14
0.59278673 0.64406097 -2.0994363 15
0.79149246 0.59824634 -1.7611904 15
2.1348705 0.97994715 1.6256171 15
0.59412026 0.59951222 -1.9459462 15
2.1948755 1.0436606 -2.2324579 15
-0.89142418 0.63260597 -1.996876 15
-1.7972491 1.2361298 3.9268918 15
-1.7297462 0.82773995 -1.9793296 15
-0.86678386 0.66238058 -2.117367 15
0.62257308 0.59757638 -1.9173781 15
-1.1905494 0.70156687 -2.0056844 15
-0.93529058 1.1820174 3.9318995 15
-1.2396221 1.1954684 3.919632 15
-1.7408019 0.7337417 0.13669789 15
-1.7375906 0.69965649 -0.82158744 15
-0.87606275 0.70383632 -2.2476301 15
-1.7077535 0.76628691 -1.6719996 15
-0.8628239 0.79848981 -2.5460045 15
-1.7297006 0.69754541 -0.52724075 15
-1.7531819 0.82471788 1.0241681 15
2.2062006 1.6598029 -4.4548731 15
-1.726359 0.7199654 -1.2562242 15
2.1691785 0.87068206 -1.0145042 15
-1.7202762 0.74026942 -1.4634273 15
2.180701 0.86015445 -0.74135673 15
-2.7349551 1.2637095 -9.6009092 8
-3.2006743 1.7303166 -9.5586386 9.5
-2.8329067 1.7206979 -9.5558968 9.5
-3.1983125 2.1952243 -9.5085878 11
-2.8289886 2.1776595 -9.5008383 11
-3.1986179 2.5094571 -9.4796066 12
-2.8296471 2.4877663 -9.4742317 12
-3.1980379 2.8268158 -9.4486494 13
-2.8336949 2.804702 -9.4571924 13
-3.1769419 3.2571983 -9.4119692 14.333333
-2.8294146 3.2797484 -9.3998299 14.5
0.37490952 1.8223641 -9.5011234 10
0.81068778 1.7273417 -9.5067959 9.666667
1.1812592 1.6820128 -9.5118008 9.5
1.5756999 1.684417 -9.5012865 9.5
1.9795086 1.6903422 -9.502821 9.5
2.3566613 1.6945565 -9.4893847 9.5
2.7774394 1.7016716 -9.4808664 9.5
3.1134641 1.7096722 -9.4841824 9.5
0.37586474 2.1145976 -9.480505 11
0.76175559 2.1153722 -9.4698467 11
1.183538 2.1229973 -9.4768867 11
1.5775225 2.1278071 -9.4622612 11
1.9772725 2.1346128 -9.4463129 11
2.3594363 2.1476653 -9.4510832 11
2.7471356 2.1596618 -9.4411411 11
3.0455282 2.1707501 -9.4362659 11
0.41610903 2.4088302 -9.454277 12
0.76242959 2.4097805 -9.4425793 12
1.1832283 2.4179177 -9.442934 12
1.5768285 2.4243751 -9.4267712 12
1.9815049 2.4392557 -9.4311209 12
2.3579128 2.4503591 -9.4138813 12
2.7482371 2.4686248 -9.4122782 12
3.1506939 2.4900782 -9.4105577 12
0.40065259 2.8824704 -9.3967772 13.6
0.76321405 2.8574731 -9.3978529 13.5
1.1826286 2.8659768 -9.3893919 13.5
1.5783737 2.8793643 -9.385107 13.5
1.9803007 2.8958373 -9.3779078 13.5
2.3599639 2.9152386 -9.3718548 13.5
2.8152566 2.7849112 -9.3814821 13
3.11672 2.8045483 -9.3790445 13
0.41708946 3.307713 -9.354166 15
0.76437616 3.31549 -9.355382 15
1.183382 3.3252087 -9.3432827 15
1.5786091 3.3415921 -9.3368225 15
1.9817431 3.3645093 -9.3339777 15
2.3614831 3.3893926 -9.3275318 15
2.7483983 3.2562766 -9.3306837 14.5
3.0969398 3.2339067 -9.3419819 14.333333
3.3171828 1.7138994 -9.4800787 9.5
3.4488811 1.714731 -9.4632092 9.5
3.2469726 2.1779168 -9.4281845 11
3.4602439 2.1904528 -9.4404755 11
3.4549732 2.5045743 -9.3958483 12
3.319392 2.8170595 -9.3714113 13
3.4607122 2.8289981 -9.3756838 13
3.3225644 3.1426296 -9.3454208 14
3.4535055 3.1483572 -9.3260269 14
-2.2228081 0.83053142 -8.015852 7
2.6719849 0.7960586 -7.7567549 7
-0.79946458 1.0534197 -7.0150576 8.5
-0.79891092 1.4550095 -6.9768915 10.5
-0.79664809 1.8590698 -6.9243455 12.5
-0.79669112 2.2780418 -6.8896732 14.5
-0.8084268 0.9809249 -6.4734116 8.5
2.2361102 0.98491561 -6.42346 8.5
-0.80617768 1.342154 -6.4259682 10.5
2.2387819 1.3785121 -6.3887568 10.5
-0.80648071 1.8065023 -6.3886271 13
2.235513 1.7749548 -6.3408732 12.5
-0.80454344 2.1831613 -6.3421769 15
2.2410672 2.1869216 -6.3105335 14.5
-0.81533617 0.92051536 -6.0214696 8.5
2.2283013 0.93564081 -6.0475683 8.5
-0.8145988 1.3366446 -5.9805155 11
2.2342656 1.3065112 -6.0215483 10.5
-0.81316298 1.7599084 -5.9342761 13.5
2.2352536 1.6816885 -5.985127 12.5
-0.81272107 2.0213749 -5.9086876 15
2.2350867 2.0653381 -5.945405 14.5
2.225394 0.62726492 -5.6731715 7
-0.82302302 0.92132622 -5.4694195 9
2.225641 0.88391376 -5.6501384 8.5
-0.82227814 1.3253176 -5.3937993 11.8
2.2259624 1.2880547 -5.5905814 10.875
-0.81946856 1.7067342 -5.415051 14.2
2.2286248 1.7216504 -5.5914183 13.285714
2.228126 2.0247171 -5.5379362 15
-0.83071119 0.85495555 -5.0331969 9
2.2241387 0.87739938 -5.2341957 8.8000002
-0.82838494 1.2521098 -4.9856882 12
2.2257714 1.2717643 -5.2477903 11.2
-0.82815862 1.5940259 -4.9539623 14.5
2.2241364 1.6808405 -5.1394444 13.8
2.227911 1.9090889 -5.1983132 15
2.217885 0.5669862 -4.952353 7
-0.83424026 0.8006894 -4.6734748 9
2.2185838 0.86166435 -4.8961945 9
-0.83465648 1.1937237 -4.6233807 12.285714
2.2191401 1.2389607 -4.872251 11.5
-0.83376926 1.5072396 -4.6462808 14.666667
2.2201676 1.6203682 -4.8214474 14
2.2111304 0.51948684 -4.3891649 7
-0.87945789 0.78760999 -4.2272534 9.5
2.2147889 0.8015936 -4.4747362 9
-0.88257736 1.1956527 -4.1746893 13.363636
2.2147477 1.2209649 -4.4577088 12
-0.83778173 1.428457 -4.3106132 15
2.2159698 1.5829456 -4.4438348 14.5
2.2046752 0.74775475 -4.0957694 9
2.2073143 1.1295376 -4.06037 12
2.2111137 1.4780743 -4.0529885 14.6
0.82126433 0.37876245 -3.5089245 6
-0.85802674 0.41240007 -3.1576052 6.6666665
1.1851996 0.35803765 -3.3046851 6
-0.85927701 0.66552234 -3.0841374 10.5
-0.8583079 0.93361992 -3.0437155 14.5
-0.82917118 0.34575319 -2.684207 6
0.44940633 0.29469043 -2.6554475 5
-0.86669254 0.62744379 -2.6786609 11.25
-0.86598212 0.84757048 -2.6893837 15
-0.84696776 0.31201422 -2.2963634 5.5714288
-0.50533831 0.25659859 -2.2498035 3
0.4558118 0.27208513 -2.41958 4.5
0.67654961 0.28149447 -2.5152597 5
-0.87220979 0.56110048 -2.2970314 11.529411
-1.7341254 0.29642931 -1.6754433 7
-1.5770816 0.27389923 -1.9006408 6.125
-1.1277769 0.28289956 -1.9991622 5.5714288
-0.87172264 0.27814579 -2.0496044 4.8000002
0.60482872 0.28625813 -2.014765 5.5
0.69483227 0.27199915 -1.85198 5.5
1.2019653 0.21526408 -1.8626301 5
2.1473839 0.27793545 -2.1056185 6.5
-1.736215 0.53171408 -1.6832775 11
-1.6118376 0.55811352 -1.9110429 11.173913
-1.1457108 0.53420305 -2.0147474 11.5
-0.89564037 0.51422173 -2.0341897 11.666667
0.61220026 0.49535456 -1.9952624 11.588235
0.70409238 0.47021621 -1.8234216 11.5
2.1826501 0.57100356 -2.079834 10
-1.739118 0.76817065 -1.6299304 15
-1.6593354 0.77903664 -1.9006114 14.75
2.1829925 0.91344988 -2.0365591 14
-1.7350163 0.2465031 -1.4570764 6.5
-1.5659471 0.20896611 -1.5132892 5.5
-1.1253446 0.17537783 -1.4214458 3
0.84859079 0.2476469 -1.7257445 5.3333335
1.2510201 0.19733943 -1.6803057 5
2.1806962 0.2415536 -1.7242931 6.5
-1.7329032 0.50324011 -1.4311801 11
-1.7250819 0.57670808 -1.5746936 12
0.83067447 0.46086258 -1.7761723 11.071428
2.1798778 0.52440751 -1.6921422 10
-1.732651 0.73928666 -1.418249 15
-1.7237217 0.75023365 -1.5333139 15
2.1768165 0.85415268 -1.6574059 14
-1.7395241 0.20664312 -1.0634449 6.5
-1.4815978 0.14704514 -1.1230426 5
-1.0687572 0.14573674 -1.1174328 4
0.87712097 0.15418932 -1.2408583 4
1.2898103 0.15976575 -1.3053164 5
2.1822488 0.20609252 -1.3558977 6.5
-1.7386571 0.46814358 -1.0336168 11
2.1765802 0.48361921 -1.3102729 10
-1.7347918 0.70688236 -1.0209652 15
2.1762202 0.80846077 -1.2642579 14
-1.7439066 0.16122496 -0.6502642 6.5
-1.3378992 0.10546064 -0.70551491 5
-1.0911003 0.10441408 -0.6951986 4.5
-0.77337164 0.097617358 -0.63573086 4
0.64152122 0.10464159 -0.72879922 4
0.79547191 0.126692 -0.95765126 4
1.1975842 0.11634064 -0.86540896 5
2.1667824 0.16055286 -0.90686822 6.5
-1.7422953 0.42944878 -0.65296841 10.769231
2.171833 0.44558188 -0.88800168 10
-1.7426798 0.66719258 -0.60046345 14.5
2.1694317 0.77687991 -0.8532818 14
-1.7509645 0.11510201 -0.25499022 6.5
-1.0426056 0.068588078 -0.33801949 5
-0.68324584 0.066361338 -0.32424903 4.5
-0.21829489 0.072870791 -0.39448929 4
0.1498258 0.074686021 -0.42043054 4
0.59315735 0.072460324 -0.40724951 4.5
0.94805032 0.077448428 -0.46448636 5
2.1166956 0.12515083 -0.47989303 6.5999999
-1.7481523 0.39348277 -0.24635565 10.5
2.1626229 0.4186725 -0.44992208 10.071428
-1.745298 0.65483856 -0.19145751 14.2
2.1652074 0.76139253 -0.41079563 14
-1.7497516 0.064429432 0.1629746 6.5
-0.64095825 0.042924911 -0.085906982 5
-0.20367804 0.031553298 0.017594218 5
0.19727509 0.034251273 -0.015514493 5
0.58887243 0.048243999 -0.16464102 5
1.8324043 0.036492199 -0.069857955 6
2.1614389 0.12580428 -0.18394315 7
-1.7524515 0.34047109 0.16931272 10
2.1616976 0.38486195 -0.1406225 9.916667
-1.7521801 0.66007751 0.20173872 14
2.1619132 0.70831496 -0.072224975 13.444445
-1.7556467 0.06461221 0.51761413 7
-1.452793 -0.016931474 0.53296757 6
1.3233806 -0.016069889 0.47265518 6
1.5974673 0.0076779425 0.22688973 6
2.1514816 0.074497491 0.29144073 7
-1.7586465 0.30676237 0.55029702 9.7777777
2.1558731 0.3188566 0.32220566 9.5
-1.7571543 0.66538686 0.62314916 13.75
2.1585746 0.71980548 0.35514832 13.5
-1.7695689 0.014029056 0.9651109 7
-0.99793673 -0.041856736 0.77726495 6
-0.51239628 -0.057481408 0.92449009 6
-0.14533469 -0.061112046 0.95593154 6
0.22247703 -0.059711546 0.93411005 6
0.58286053 -0.052603155 0.85481822 6
1.0179186 -0.034142077 0.66155779 6
2.1424212 0.024664313 0.7450937 7
-1.7625873 0.24466977 0.96107447 9.3000002
2.1501694 0.29760185 0.70911968 9.5
-1.7614732 0.68162584 1.0186893 13.6
2.1524646 0.70323765 0.73202503 13.25
2.1513641 0.90093654 0.78039896 15
-1.7710909 -0.041247159 1.4510282 7
2.1468923 -0.012181967 1.0751003 7
-1.7669842 0.24989799 1.3307508 9.5
2.1480439 0.2525371 1.0943834 9.2857141
-1.7654444 0.60922658 1.3950633 12.714286
2.1439719 0.63157612 1.1452597 12.5
-1.7628106 0.87189704 1.3980292 15
2.1460788 0.93612939 1.1859945 15
-0.88728678 -0.053815752 1.5975052 7
-0.49830312 -0.053042918 1.5963219 7
-0.1557315 -0.05277586 1.591947 7
2.1400161 -0.063407898 1.5316437 7
-1.7709856 0.17299299 1.734152 9
2.1433811 0.16834597 1.4234632 8.75
-1.7713176 0.57836872 1.75183 12.285714
2.1498606 0.60611844 1.5011173 12.2
-1.7671769 0.88476747 1.8259352 14.666667
2.1466656 0.88231939 1.5206608 14.333333
-1.779862 -0.10353041 1.99479 7
-1.7752652 0.15152547 2.1584921 9
-1.7759447 0.56256139 2.2023511 12
-1.7731273 0.91588479 2.2466865 14.5
-1.7806848 0.13236134 2.5399504 9
-1.7797326 0.50425309 2.576139 11.5
-1.7782668 0.88768846 2.6289663 14
-1.7845861 -0.20623362 2.8872299 7
-1.7855591 0.026726186 3.007905 8.5
-1.784574 0.43689352 3.0481195 11
-1.7832818 0.85508293 3.0879655 13.5
-1.7860334 1.1144502 3.122211 15
-1.7891065 -0.00037136674 3.4226336 8.5
-1.7904149 0.40716368 3.4468579 10.8
-1.7906152 0.84446573 3.5372043 13.2
-1.7867979 1.1765966 3.5387478 15
1.1805551 -0.28331357 3.5242181 7
-1.7984149 0.069546968 3.8085003 9
-1.6950815 -0.025671124 3.7929668 8.5
-1.7982234 0.25932392 3.8277545 10
-1.6209496 0.3803421 3.8329782 10.666667
-1.3199651 0.43373224 3.849371 11
-0.74758476 0.42063808 3.8556457 11
-0.37371194 0.41602141 3.8522696 11
-0.0026425272 0.41485769 3.8657889 11
0.40578038 0.23398513 3.8334498 10
-1.5754664 0.72867799 3.874032 12.5
-1.3176481 0.71639037 3.8696194 12.5
-0.74743122 0.69928914 3.8860154 12.5
-0.37354302 0.78703398 3.8974915 13
0.016624495 0.78577524 3.9031591 13
-1.5758355 1.119755 3.916594 14.5
-1.3196115 1.1035554 3.9193888 14.5
-0.76182544 1.0984631 3.9253058 14.6
-0.41033691 1.1036518 3.9325318 14.666667
-0.0013831556 1.1644404 3.9374518 15
0.40678579 -0.31153464 3.7998366 7
0.86186761 -0.31314898 3.7967582 7
1.7455338 -0.32016635 3.808208 7
2.1820805 -0.32507116 3.8191872 7
2.2740171 -0.32646769 3.8241143 7
2.7392814 -0.33045119 3.819447 7
3.3583746 -0.33839101 3.8297601 7
0.4445768 -0.038940966 3.8224869 8.5
0.82564735 -0.038240135 3.8298836 8.5
1.2368026 -0.036341786 3.8362541 8.5
1.6239673 -0.03377074 3.8437796 8.5
2.0277514 -0.029590935 3.8442078 8.5
2.4121983 -0.025543332 3.854044 8.5
2.7947915 -0.020284414 3.8598189 8.5
3.2003303 -0.013906777 3.8610754 8.5
3.6408408 -0.0067052841 3.8686104 8.5
0.18367879 0.41546321 3.8725128 11
0.41821414 0.32574499 3.8692927 10.5
0.8261469 0.33087271 3.8652835 10.5
1.2371695 0.339306 3.8724537 10.5
1.6237049 0.35002971 3.8789039 10.5
2.0294921 0.36416751 3.8856406 10.5
2.4109385 0.37962329 3.8897567 10.5
2.8133326 0.37712145 3.8958607 10.4
3.2019548 0.41836601 3.9051914 10.5
3.6264367 0.442105 3.9119563 10.5
0.10968401 0.59973526 3.8961606 12
0.42793506 0.69638073 3.9021635 12.5
0.82724506 0.70564806 3.9045477 12.5
1.2380576 0.72058773 3.9102716 12.5
1.6230491 0.73886311 3.9127855 12.5
2.0301216 0.76375526 3.9249177 12.5
2.4112992 0.79046202 3.9293857 12.5
2.7962177 0.82155794 3.9427319 12.5
3.1682849 0.81669283 3.9452643 12.333333
3.6989028 0.71223038 3.9392414 11.666667
0.18540119 1.1683522 3.9529533 15
0.4171018 1.0948803 3.9393754 14.6
0.82788593 1.0896534 3.9424319 14.5
1.2384784 1.1110415 3.9480214 14.5
1.6231917 1.1374168 3.9506879 14.5
2.0307758 1.1733832 3.9652433 14.5
