# .PCD v0.7 - Point Cloud Data file format
VERSION 0.7
FIELDS x y z intensity
SIZE 4 4 4 4
TYPE F F F F
COUNT 1 1 1 1
WIDTH 1234
HEIGHT 1
VIEWPOINT 0 0 0 1 0 0 0
POINTS 1234
DATA ascii
-7.0649967 2.2148306 -9.6349525 11.475206
-6.7868419 2.0519121 -9.6175194 10.333333
-7.0140324 2.4770315 -9.6214676 15
-3.3155499 0.19530043 -9.5613852 8
-0.63873094 0.34943277 -9.5108175 8
0.61592019 0.31721032 -9.545785 8
1.6235183 0.35229957 -9.5634518 8
-3.2801323 0.64074963 -9.5755939 9.1549997
-2.7198036 0.71954435 -9.5330315 9
-0.56722051 0.73997223 -9.5143909 9
0.53429413 0.74352682 -9.5292425 9
1.0212709 0.74386185 -9.5611534 9
1.4260477 0.76914763 -9.5437059 9
1.7443116 0.77352083 -9.5381355 9
2.1118126 0.78112435 -9.5379324 9
2.4768364 0.78289241 -9.5203505 9
-3.2968397 1.0864606 -9.5793877 10.155
-2.6374757 0.97155887 -9.5051832 9.3999996
-1.8394464 0.97691303 -9.446702 7
-0.84616387 1.0740136 -9.5550718 7
-0.57553178 1.1306386 -9.5154333 10
0.13753659 1.1400557 -9.5111599 10.1665
0.59159803 1.1466701 -9.52633 8.75
0.83851302 1.1523092 -9.5647793 10
1.3119466 0.98133248 -9.5263577 8.75
1.7213771 0.98350692 -9.5212412 8.75
2.1213839 0.98439223 -9.5110788 8.75
2.5214393 1.0203533 -9.5031528 9
3.0694163 1.1258994 -9.4368448 7
3.4115949 1.128472 -9.3983183 7
3.8321371 1.0778372 -9.4164057 7.5
4.0189171 1.1195608 -9.4788666 9
-7.1406622 1.504055 -9.5940886 7
-6.6580844 1.482221 -9.3945475 7
-6.2455521 1.5074058 -9.5775614 7
-5.8386402 1.5745847 -9.4064226 6
-5.3684287 1.5384051 -9.5262861 6.5416665
-4.9822116 1.5126561 -9.2795267 6.5039001
-4.6132774 1.5202345 -9.5029993 5.9523811
-4.1243925 1.408245 -9.3497458 6.25
-3.7779336 1.4608575 -9.5423555 7.0333328
-3.3609784 1.4706013 -9.5424709 7.6955953
-2.9905744 1.4653454 -9.5530615 7.3822751
-2.5977216 1.4309605 -9.5553732 8.0576391
-2.1756842 1.4689021 -9.554286 7.5770659
-1.8049169 1.4734571 -9.4479513 8.4986258
-1.4701314 1.4893696 -9.5388441 8.8000002
-0.90643835 1.4386793 -9.5330973 9.7023811
-0.64798546 1.4335448 -9.4849625 8.393939
-0.2313482 1.4260019 -9.5495138 7.6722503
0.22551702 1.464479 -9.5316858 7.7188959
0.64826518 1.4650595 -9.5237722 7.9055834
0.98254848 1.4338062 -9.5219555 8.0116262
1.3826005 1.4376158 -9.5256834 8.1855068
1.8051558 1.4242299 -9.5183582 7.8175001
2.1688015 1.4436128 -9.4951591 7.6720853
2.5908263 1.4493892 -9.477438 7.8327384
3.0054989 1.45954 -9.4551668 7.7543855
3.387687 1.4300539 -9.4391222 7.5821424
3.7733974 1.4247383 -9.4183331 7.6210527
4.0556521 1.4517969 -9.421649 7.7425594
4.5756283 1.5614855 -9.501812 10.116
5.5157547 1.3924201 -9.3160467 7
5.7851491 1.4797273 -9.317276 7
-7.3567963 1.8550555 -9.4635096 7.8650789
-6.9715576 1.8438473 -9.5120459 7.5
-6.5833178 1.8219762 -9.5115099 7.7551346
-6.1650162 1.8354316 -9.5532169 8.8599415
-5.766634 1.8184122 -9.5711727 9.068922
-5.3965378 1.8366839 -9.5624332 9.8102016
-4.9837279 1.8122587 -9.5037127 10.593577
-4.5824404 1.8272409 -9.5798178 11.367299
-4.2133417 1.7952014 -9.5822115 11.491254
-3.8121147 1.7979959 -9.5653734 12.130626
-3.3722005 1.7934585 -9.564106 11.884801
-2.9728906 1.8006717 -9.5573406 11.837711
-2.5956311 1.7825063 -9.5416603 12.143693
-2.194541 1.8006163 -9.5433474 12.436
-1.8194227 1.797424 -9.5118961 12.74983
-1.4618065 1.8299743 -9.5098114 13.107143
-0.92284346 1.8549314 -9.5174971 11.891979
-0.65879625 1.7707776 -9.4585037 10.46244
-0.24603899 1.8102506 -9.5190744 10.510416
0.23709218 1.8262523 -9.4647665 11.828586
0.60162133 1.7877394 -9.4883213 11.264263
0.97009176 1.8022561 -9.4885111 11.589957
1.3844033 1.7746032 -9.4792833 11.519093
1.8341353 1.8011839 -9.462059 12.259153
2.205097 1.7803166 -9.4671564 11.542258
2.5935907 1.7831249 -9.453867 11.264669
2.9853506 1.7584032 -9.4248877 11.0333
3.3882306 1.7726786 -9.4261608 10.589598
3.8065305 1.7870634 -9.3881054 10.240211
4.08917 1.7559648 -9.4103975 9.5853605
4.5576439 1.977056 -9.4829636 11.116
5.4554749 1.7696991 -9.3933525 8.416666
5.7265105 1.766647 -9.3149843 8.75
-7.3083358 2.1956401 -9.473279 10.155416
-7.0153251 2.2023056 -9.4769382 11.499772
-6.5982947 2.2107809 -9.5434952 12.307782
-6.173697 2.1710229 -9.5516014 12.6
-5.7934756 2.14732 -9.5486603 13.248787
-5.4300971 2.1404788 -9.5476503 13.580281
-4.9903874 2.0928259 -9.5557384 13.750917
-4.6094599 2.1163797 -9.5452986 13.784633
-4.179255 2.1413429 -9.5341072 13.985493
-3.8113167 2.1373608 -9.5222597 14.203758
-3.3954089 2.1266119 -9.5251055 13.982121
-2.9993517 2.1970315 -9.5170231 13.581944
-2.5988252 2.1832547 -9.5012875 13.727436
-2.1503439 2.2289979 -9.5214033 13.658333
-1.7481593 2.1888726 -9.5001516 13.95
-1.4326556 2.2048421 -9.4945984 14.033334
-0.89400506 2.186218 -9.4792824 13.7979
-0.64635885 2.2003217 -9.4068851 13.388016
-0.21815464 2.2009721 -9.4834127 13.143792
0.2451435 2.187099 -9.4653597 13.451581
0.62002707 2.1910486 -9.4540405 13.480649
0.97447348 2.1481812 -9.4534445 13.39375
1.4062686 2.1416907 -9.4464312 13.377976
1.8463672 2.1318741 -9.4499216 13.400001
2.1991475 2.1740339 -9.423543 13.390973
2.6020021 2.1575015 -9.4184628 13.438843
3.0206695 2.1583941 -9.3922329 13.616092
3.4379048 2.1438668 -9.3986664 13.261912
3.8187442 2.1708252 -9.3534813 13.023255
4.0879021 2.1923149 -9.3500214 13.004929
4.5397787 2.3343055 -9.4364319 11.8525
5.4742317 2.1318314 -9.3173628 10.5
5.7098231 2.1889923 -9.2671385 11.1875
-7.2718096 2.6114898 -9.4352455 13.142221
-7.0766706 2.5681031 -9.4647694 13.464328
-6.6224823 2.5720134 -9.4911022 13.752455
-6.19981 2.5864618 -9.4901495 13.628572
-5.7750883 2.5433331 -9.5017614 13.629464
-5.4200497 2.5217786 -9.4910412 14.1875
-4.9652953 2.4899051 -9.4892578 14.52381
-4.705843 2.4393787 -9.4961939 14.583334
-4.3799443 2.4580474 -9.4765444 14.571428
-3.2434292 2.5095401 -9.5014372 15
-3.0292842 2.5826266 -9.4787779 13.349999
-2.5795062 2.5947983 -9.4742603 14
-2.2217555 2.5891602 -9.4821587 14.033335
-1.759517 2.6664882 -9.4542189 14.7
-1.4249943 2.7054615 -9.4376841 15.070666
-0.94534492 2.5811572 -9.4509554 14.4573
-0.5936631 2.5503035 -9.4115477 14.65297
-0.16826546 2.5144808 -9.4321289 14.459292
0.23527859 2.5103045 -9.42097 14.318781
0.67675734 2.4932475 -9.4528904 13.708333
0.98550373 2.5242386 -9.4318094 14.116616
1.3477331 2.514993 -9.4244623 13.884615
1.8123692 2.4897671 -9.4608145 13.482142
2.197803 2.5373914 -9.4215975 13.910001
2.5969632 2.5501492 -9.3844194 13.922222
3.0105219 2.5926609 -9.3284874 13.785714
3.4411771 2.5651367 -9.3099174 13.76875
3.8136013 2.5862248 -9.3522568 13.023809
4.1644874 2.6044028 -9.327116 13.901445
4.54145 2.6112657 -9.3261671 13.907166
4.939949 2.6607552 -9.3075161 13.883
5.4486933 2.5891535 -9.2842541 13.078409
5.6461201 2.6233296 -9.2498093 13.16425
-7.2443337 2.950135 -9.4083424 14.625
-7.0331621 2.9902678 -9.4432583 14.5
-6.5837808 3.0034988 -9.5054102 14.642858
-6.1889853 2.9385319 -9.4956379 14.75
-5.7275462 2.8570595 -9.507122 14.5
-5.4163828 2.8719835 -9.5014658 14.8
-3.0264139 2.8703275 -9.4577017 14
-2.5067132 2.8413882 -9.4742527 15
-2.1051083 2.8326061 -9.4482422 15
-0.030093774 2.8257306 -9.357295 14.5
0.2031097 2.8545022 -9.353159 14.6
0.59833878 2.8589146 -9.3811483 13.866666
1.1125629 2.857275 -9.3623266 14
1.5197685 2.8732326 -9.3539181 14
1.9359996 2.8949618 -9.3462982 14
2.2999611 2.9729218 -9.3187714 14.4375
2.6779771 2.9548807 -9.2894974 14.5
3.0831578 2.9310925 -9.3161697 14
3.4434929 2.9803424 -9.3198729 14
3.8057511 2.9563255 -9.3153505 13.822222
4.2156539 2.9689136 -9.3217211 13.778821
4.5323997 2.9920163 -9.3637877 13.9099
4.964509 2.9155219 -9.2978487 14.251573
5.4023366 2.9835231 -9.262722 14.0795
5.6770186 2.9271264 -9.2162113 14.330875
-7.2674026 3.2619338 -9.469285 15
-6.9747553 3.2245617 -9.508213 15
-3.0031781 3.2684734 -9.405899 14.416666
0.59073281 3.3116016 -9.3547745 15
1.183382 3.3252087 -9.3432827 15
1.5786091 3.3415921 -9.3368225 15
1.9817431 3.3645093 -9.3339777 15
2.3614831 3.3893926 -9.3275318 15
2.7483983 3.2562766 -9.3306837 14.5
3.0969398 3.2339067 -9.3419819 14.333333
3.5817761 3.3265173 -9.3303833 14
3.8025072 3.2872922 -9.2952051 14.428572
4.2636085 3.3090818 -9.3199911 13.924583
4.5247617 3.3599746 -9.3126869 15.089
4.9642897 3.32935 -9.3117781 13.84
5.2895246 3.2954502 -9.2824879 14.29325
-2.3292289 1.1245764 -8.8748398 6
-1.8162047 1.0673261 -8.9652481 7.3428574
-0.87330246 1.1179942 -8.8623333 9
-0.62472457 1.1263361 -8.9190702 7.5
2.5272298 0.90354598 -8.977787 7
3.8650489 1.1541855 -9.1903324 7
-7.3560638 1.5071273 -8.940629 7
-6.9492145 1.5697088 -9.0900097 7
-6.2468128 1.5713096 -8.8893328 4.3333335
-5.8227115 1.5251554 -8.9527407 4.5
-5.3962502 1.4949976 -8.9873152 4
-4.9803438 1.4523593 -9.0064535 5.5202003
-4.5898061 1.4036816 -9.078887 5.0833335
-3.817888 1.2841992 -8.9210577 5.25
-3.3704553 1.2422807 -8.953043 5.75
-3.0997899 1.2698425 -8.9519291 5
-2.7085807 1.2904466 -9.1632795 4
-2.1034067 1.2478304 -9.0736179 4.9499998
-1.6842242 1.4231969 -8.9629173 9.6364784
-1.5512331 1.4759234 -8.8191481 10.393148
-0.92749846 1.3726327 -8.877346 9.3814793
-0.71712095 1.4119087 -8.9660454 8.4199867
-0.30419591 1.2423861 -8.8608837 6
0.38411772 1.4895798 -8.8233881 10
0.57848799 1.4041283 -8.9273005 8.0166664
1.0546681 1.2848781 -9.0386209 5
1.4857527 1.2856244 -9.0372572 4.6666665
1.852783 1.2828243 -9.0185223 5.5
2.2493873 1.3085999 -8.9598083 4.5
2.5318122 1.3522112 -9.0807114 4.833333
3.014941 1.320758 -8.9302883 4.5500002
3.3892753 1.3462467 -9.0043478 5
3.8636374 1.4500149 -8.9848852 7.840909
4.0313959 1.4219614 -8.9460392 7.1333327
5.8261147 1.4626846 -9.0563164 7
-7.3574848 1.8339479 -9.0017357 7.921875
-7.0731716 1.7875174 -9.025774 7.125
-6.6978927 1.6575158 -9.0015745 5.4000001
-1.6837072 1.7411186 -9.0433645 13.077313
-1.5661631 1.8230942 -8.8746061 13.214272
-0.96300298 1.7327309 -8.853569 14.0674
-0.72679055 1.7914152 -8.972868 12.565999
0.59680462 1.7555417 -8.8584719 12.214286
3.8825543 1.8260657 -8.9806633 11.717921
4.0411787 1.8056177 -8.9834909 11.992089
5.8038883 1.7547106 -8.9887609 8.9972219
-7.3064308 2.195966 -8.9690228 11.692838
-7.141706 2.2152505 -8.9858007 13.434561
-1.6263359 2.0565312 -9.1155472 14.3125
-1.4892336 2.1271541 -8.9093266 14.566625
-1.172858 2.0479693 -8.8007975 12.5
-0.69069237 2.1792827 -8.9559393 14.200624
3.84589 2.1380346 -9.0049953 13.385714
4.0351739 2.0108793 -8.9991999 15
4.4470778 2.1893666 -9.190197 12
5.2560682 2.2549231 -9.1199093 12.1775
5.7830148 2.1184888 -8.9995966 11.379894
-7.2907729 2.6105976 -9.0161543 13.516667
-0.68057132 2.4514544 -8.9725618 14.8705
3.7281902 2.5967634 -9.1944618 14
4.4476705 2.5568428 -9.1490917 13.5
5.2571092 2.5181441 -9.0916424 13.1775
5.7517328 2.516993 -9.0177107 13.813929
-7.2682681 2.9849379 -9.0417652 14.642858
3.569057 2.8139088 -9.1894951 15
3.7311749 2.8326035 -9.1707344 15
4.4569397 2.9346509 -9.1161175 15
5.2626896 2.9216022 -9.0519123 14.6775
5.684155 2.9484782 -9.0503883 14.796634
5.5781326 3.3608127 -9.1928339 14.5
5.7049847 3.2254748 -9.1914854 15
0.19348723 0.34162715 -8.508832 8
-0.8788954 0.6648016 -8.6444864 9
-0.028042629 0.74248171 -8.4627867 9
0.18316919 0.69127399 -8.4692583 9.1665001
-3.7485478 1.1558511 -8.5650644 6
-3.2314985 1.1943922 -8.6312904 5
-2.911957 1.1888144 -8.515893 5
-2.6249478 1.1473066 -8.474412 5.3333335
-2.2463269 1.1124533 -8.6003723 5.5
-1.7315589 1.0371699 -8.723999 6.75
-1.4037199 1.0530787 -8.6174669 6.8571429
-0.94346386 1.0678353 -8.595788 7.2400799
-0.61721623 1.1130148 -8.5184412 7.1458335
-0.26026797 1.1967869 -8.4561272 6
0.25313556 1.1078346 -8.5368652 7.83775
0.5197925 1.1583019 -8.6540585 6.1333332
0.86856401 1.1993445 -8.599741 4
1.390869 1.1703534 -8.4946413 4.7777781
1.7095747 1.1829772 -8.4602013 3.5
2.3565588 1.1656706 -8.4236841 6
2.4368544 1.1633825 -8.5401621 6
2.8510785 1.1943398 -8.5063524 6
3.8965678 1.1231015 -8.5712967 7
4.0190816 1.0017141 -8.4816875 7
5.5833893 1.1621598 -8.4115486 7
-7.3484292 1.4441952 -8.5610456 7
-6.843329 1.5904872 -8.4789104 5
-6.6733341 1.5812314 -8.4719315 4.25
-6.2329187 1.5309366 -8.6117153 5
-5.8073683 1.4799341 -8.602252 4.625
-5.3728275 1.401516 -8.6030073 4.75
-4.853549 1.3540679 -8.6232948 6
-4.6027503 1.3021413 -8.6037836 5
-4.3228869 1.2773756 -8.6153917 5.6666665
-3.8542137 1.2578444 -8.5518513 5
-3.3105373 1.2323986 -8.6835384 5
-2.6484427 1.2120401 -8.7392921 4.6666665
-1.6373808 1.2584115 -8.7277679 5.5
-1.4013855 1.4229401 -8.7112007 10.086599
-0.96540564 1.3795663 -8.6661901 9.7927961
-0.71705556 1.4241484 -8.6099272 9.1638851
-0.013572663 1.5584776 -8.6240005 10.0115
0.23786071 1.4150102 -8.543292 9.0430784
0.48807073 1.4228096 -8.652607 9.1057339
1.0530286 1.2408332 -8.6548243 5
1.7304264 1.2324822 -8.6906357 5.5
2.0338042 1.2574111 -8.7947989 4
2.6050639 1.2598256 -8.6065598 4.5
3.1145408 1.2819016 -8.6047087 3.3333335
3.4271443 1.2993603 -8.6516619 4.25
3.8619905 1.4264392 -8.5593901 8.1106462
4.1546507 1.4558122 -8.5753613 8
5.5663571 1.3862877 -8.4636993 8.25
5.8182244 1.4340918 -8.6114988 7
-7.3348584 1.8308269 -8.6164627 8.4379511
-7.0848136 1.70174 -8.6891308 6.0444441
-6.6840844 1.6033125 -8.6302299 4.6666665
-1.6191868 1.7194479 -8.790616 14
-1.4276198 1.7574382 -8.7326221 13.461666
-0.98775387 1.7362452 -8.6762781 12.973086
-0.71100479 1.8041238 -8.6050034 13.251465
-0.0025322735 1.7709944 -8.5498877 12.0115
0.19272199 1.7210822 -8.5078173 13.016274
0.51151389 1.731812 -8.6151161 12.876279
3.8774536 1.8154453 -8.6058588 12.453089
4.0239124 1.7528203 -8.60672 12.5625
5.564343 1.6790588 -8.4578667 9.75
5.776607 1.7234693 -8.5841818 9.3327732
-7.3015742 2.2076843 -8.5653439 12.69132
-7.1680622 2.1346338 -8.6068583 13.716834
-1.4178785 2.1620505 -8.7377787 14.060332
-0.92945677 2.156096 -8.6676073 13.608334
-0.67242438 2.1825254 -8.6076136 14.440177
3.8772318 2.135788 -8.6012192 12.75
5.7567096 2.1552422 -8.5984459 12.932832
-7.2917461 2.5829854 -8.6327343 13.651516
-0.81650054 2.4050303 -8.4471397 15
-0.64351469 2.417794 -8.7184153 15
5.6966071 2.5656328 -8.6157455 14.237575
-7.2734342 2.9123306 -8.7331944 14.722222
5.6955333 2.8737156 -8.6552677 14.330944
5.7232704 3.3305607 -8.7141552 15
-0.9287591 0.73821336 -8.3460512 7
4.6957808 0.68859857 -8.2198324 8
-4.419838 1.1870898 -8.1757841 6
-4.1985769 1.1590736 -8.2452641 6
-3.677511 1.0968844 -8.1480808 6
-3.3398309 1.154822 -8.2075806 4.3809524
-2.8788936 1.1491808 -8.0934563 5.7222223
-2.6309767 1.1305724 -8.1389389 3.75
-2.3197608 1.0111904 -8.1848097 5.6666665
-1.638006 1.1118264 -8.2129173 4
-1.3287524 1.075681 -8.2057037 4.9000001
-0.88575935 1.1112001 -8.1860332 6.7870369
-0.63108313 1.0846562 -8.1232996 7.25
-0.11837858 1.1755054 -8.2282181 5
0.28605506 1.1129695 -8.2343912 5.5416665
0.63496786 1.1262362 -8.195116 5.6666665
0.80632746 1.1173027 -8.1527758 4
1.3971131 1.1271092 -8.1622648 4.1666665
1.7992177 1.1400533 -8.1807861 5.25
2.2415979 1.1523821 -8.1971283 4.3000002
2.5231411 1.1593155 -8.2249508 5.3333335
3.0715036 1.1624047 -8.1542873 5.6666665
3.4838486 1.1654284 -8.2348881 6
3.7823589 1.1644866 -8.1267185 6.6693749
4.2260389 1.1679282 -8.1663151 6.666667
4.5322647 1.0774697 -8.2180052 7.4451432
5.5961509 1.1450964 -8.1843987 7
5.6033239 1.1721917 -8.3436184 7
-7.3471651 1.4796693 -8.1813421 7.375
-6.9022117 1.5869299 -8.159914 4
-5.8926039 1.4333987 -8.1978369 3.5
-5.4299779 1.3680474 -8.3186865 4.6666665
-4.9697447 1.2851964 -8.1355495 4.875
-4.6284513 1.2717644 -8.1507568 4.25
-4.1887579 1.2702264 -8.2612667 5
-3.8717935 1.2069457 -8.088685 5
-3.464622 1.2081819 -8.3931742 3
-2.8684838 1.2691724 -8.0088835 8.833333
-2.7862599 1.3027416 -8.0031509 10
-0.85638201 1.4020867 -8.1576166 11.583673
-0.72272718 1.404179 -8.1886549 9.6013823
0.03825587 1.208456 -8.3506079 5
2.1407409 1.2072788 -8.340023 4
3.0455985 1.2111742 -8.1826077 3.5
3.4234681 1.2253658 -8.2829723 4.6666665
3.9189675 1.4536425 -8.2440233 9.3809052
4.1663618 1.4334159 -8.2014685 8.7132149
4.6215153 1.4041854 -8.1768837 8.2780952
4.9967184 1.4411767 -8.1316185 8.1513519
5.5139289 1.4124134 -8.1988335 7.9444447
5.7205071 1.4301786 -8.1919346 7.3351846
-7.323091 1.840458 -8.1801882 9.101923
-7.1919746 1.6521857 -8.0103445 5.5
-0.86121875 1.6882271 -8.1525784 14.2
-0.72766513 1.746224 -8.1988564 13.605999
0.15710557 1.6851887 -8.2902975 15.0775
3.9001348 1.7754073 -8.2284737 12.724171
4.1505785 1.8041198 -8.1497555 12.76839
4.6148911 1.7909315 -8.1592312 12.619411
4.9757895 1.8036114 -8.0978594 12.145183
5.5717154 1.8712065 -8.2624893 11.166667
5.7486444 1.7689178 -8.1849785 10.560886
-7.2988629 2.1660714 -8.1549997 13.007629
-7.1833053 2.139123 -8.338212 14.666667
-0.8009181 2.2948914 -8.3664169 15
-0.67374641 2.1406221 -8.2299471 14.560607
3.8921509 2.0829709 -8.2119513 14.25
4.1883411 2.068012 -8.117816 14
4.6097016 2.0850174 -8.1442814 13.263667
4.989593 2.0897849 -8.0653 14
5.5723104 2.2931104 -8.2151785 13.579592
5.710989 2.1519864 -8.2209435 13.514994
-7.3001089 2.5812864 -8.2060852 14.04643
5.5924058 2.6168664 -8.2071638 14.533333
5.627532 2.5698419 -8.267417 14.59525
-7.2731266 2.8302643 -8.2632828 14.916667
5.7029867 2.8050957 -8.2550192 14.666667
-0.88527811 0.24368598 -7.8750172 8
-0.88128221 0.62031901 -7.8210192 9
2.6719849 0.7960586 -7.7567549 7
-4.441288 1.1436141 -7.9076767 6
-4.1256289 1.1779945 -7.792829 5
-3.756917 1.1722028 -7.8055334 5.3571429
-3.3010781 1.1717454 -7.7949762 6.3611112
-2.9956095 1.1243483 -7.7996721 6.2879124
-2.6630578 1.1188335 -7.7696838 6.3472223
-2.2753038 1.0048916 -7.8194547 5.5
-1.7774322 1.0674258 -7.9257116 4
-1.331917 0.99235666 -7.7605958 4.9000001
-0.88800991 1.0608565 -7.8072886 7.5507936
-0.67011017 1.0685724 -7.7737479 6.890625
-0.20629853 1.0828875 -7.7831221 5.25
0.27858928 1.0440542 -7.7733006 5.3333335
0.52803165 1.0583817 -7.7817745 5
1.0267731 1.0737979 -7.8681498 3.25
1.2662482 1.0625198 -7.8412433 5.5
1.722101 1.0940204 -7.8393149 4.5
2.1612515 1.1086586 -7.8801222 4.7333331
2.5892034 1.0994693 -7.8016548 4.8333335
2.9721732 1.0901098 -7.7921934 5.3333335
3.4255848 1.1175733 -7.8718781 4.8333335
3.8444259 1.0764941 -7.6615896 5.5999999
4.2620492 1.0900414 -7.7334957 6.3333335
5.58006 1.1172923 -7.8624954 7
-7.373847 1.4257196 -7.8001137 7.5714288
-6.9046574 1.4842744 -7.6595526 5.5
-6.561636 1.446334 -7.7371063 5.5
-6.0916672 1.3902317 -7.741899 4.6666665
-5.7915373 1.3401845 -7.6954117 5.5
-5.4016695 1.4689305 -7.7167068 8.48353
-5.0951152 1.4635854 -7.742372 9.5717402
-4.6060653 1.4089739 -7.7469716 9.1330004
-4.170258 1.3786699 -7.7465701 9.7837057
-3.8204134 1.3843013 -7.7442183 11.030481
-3.4519672 1.3659964 -7.7441478 11.099058
-2.9867811 1.3750038 -7.8158612 11.16734
-2.667114 1.3751769 -7.8139687 11.492422
-0.85106981 1.3712345 -7.8081427 12.502581
-0.71681768 1.4212575 -7.8033023 10.545562
4.1755958 1.2225076 -7.9142132 4.5555558
4.6079402 1.2233518 -7.9699717 5.5
4.9325771 1.2359124 -7.7450333 5.5
5.5487552 1.3654661 -7.8178773 8.0642853
5.7096162 1.4147757 -7.738903 7.8535242
-7.3108745 1.8273172 -7.8227863 9.7452717
-5.3986797 1.7470959 -7.6730099 13.21309
-4.9657841 1.7391105 -7.6959572 14.022728
-4.57233 1.7340857 -7.6866198 14.399429
-4.1282725 1.7150983 -7.6951084 14.625
-3.8152893 1.6788782 -7.6980743 14.605899
-3.509342 1.7385659 -7.6939697 14.166666
-2.8864632 1.7346479 -7.8027115 13.8
-2.6947973 1.707065 -7.8422408 14.089088
-0.88394469 1.7452661 -7.765811 13.309524
-0.70573503 1.7657607 -7.8070035 13.754422
5.0840163 1.9982984 -7.9966903 15
5.5830984 1.8429983 -7.7920804 11.639456
5.7273645 1.7820681 -7.8211064 11.442071
-7.305007 2.1288218 -7.7807899 13.354174
-5.4449549 2.0361331 -7.6147189 15
-2.6277533 2.0449347 -7.8382282 14.5
-0.893866 2.1456773 -7.7651305 14
-0.70110404 2.1291368 -7.8283725 14.814285
5.5755982 2.1898892 -7.8232546 13.9
5.7096262 2.1311882 -7.8017297 13.751666
-7.2957006 2.6001444 -7.7946396 14.265278
5.5938191 2.4842882 -7.7155533 14.833333
5.7074494 2.5835946 -7.8202872 13.400001
5.6840076 2.9545133 -7.6292496 13
5.6616483 3.3028398 -7.6091557 14
-2.7631431 0.76048017 -7.4744396 7
-0.89751542 0.57629669 -7.2635012 9
-2.814307 1.009541 -7.5997229 3
-2.6657481 1.0663488 -7.4136243 6.2588177
-2.2526813 0.99817204 -7.3828173 4.166667
-1.7526239 0.95292526 -7.449688 5.2222219
-1.2886784 0.95563579 -7.464983 4.25
-0.86900419 1.088025 -7.4139562 7.6894627
-0.67774326 1.0702322 -7.3942466 7.0876818
-0.17210978 1.0196711 -7.3923473 5
0.18403667 0.98038387 -7.2111993 6
0.62616616 0.9788909 -7.3410025 4.7599998
1.0248826 1.0058912 -7.4178433 4.3333335
1.4992801 1.0008857 -7.3699408 4.5333333
1.7932717 1.0157367 -7.4302011 4.7142859
2.1458046 1.0270255 -7.3836999 4.2857141
2.6086693 1.0295827 -7.3699403 4.75
2.9966881 1.0262982 -7.3923945 5.3333335
3.4186442 1.0694933 -7.4490662 5.25
3.8638103 1.047483 -7.338675 5.3333335
4.1961966 1.1264217 -7.4329643 4.5
4.6219239 1.1598974 -7.4662414 5
4.9188962 1.1661776 -7.3741074 5.6666665
5.5111027 1.0731235 -7.452364 6.75
5.6929588 1.0632538 -7.3788605 7.3333335
-7.3542266 1.5211952 -7.3727312 6.9423804
-6.8159542 1.4418019 -7.2518663 4
-6.5679026 1.4260724 -7.3644352 4.1875
-6.0178394 1.3270944 -7.251194 4
-5.4979367 1.4269818 -7.3805037 8.3201103
-2.6718876 1.3509262 -7.4217315 12.069203
-0.84954315 1.3375233 -7.4033813 13.10682
-0.72437251 1.3881762 -7.3838692 11.215913
5.1226311 1.2016615 -7.3016815 5
5.5000963 1.2673452 -7.4524899 7.875
5.7168455 1.4100929 -7.3840847 8.2403297
-7.3220906 1.7946967 -7.375535 10.136091
-5.4558597 1.8344254 -7.3944626 13.630952
-2.6633894 1.7509032 -7.4538722 13.406061
-0.8748123 1.783659 -7.3524218 13.5
-0.71735024 1.7100997 -7.4240108 13.954229
5.5877953 1.7550701 -7.4059052 11.451389
5.6992173 1.8241138 -7.4157686 12.592343
-7.3100004 2.1160214 -7.4053154 13.502436
-5.4310279 2.144346 -7.3589425 14.666667
-2.6793859 2.0409806 -7.5869656 14
-0.95274985 2.3146977 -7.244669 14
-0.68711007 2.093411 -7.4037414 14.625
5.5865512 2.1797326 -7.4376402 13.695
5.6720047 2.1810877 -7.3781466 14.296154
-7.3087091 2.5316715 -7.3855047 14.3
5.5821538 2.4583809 -7.3366294 14.888889
5.6684966 2.5707223 -7.4949017 14.5
5.688303 3.1184783 -7.5034509 15
-2.8558407 0.52389592 -6.9648347 9
-0.93447548 0.63808042 -6.8890152 7.8333335
-0.61828709 0.77531576 -6.9811802 7
-2.8772378 0.90149212 -6.9687896 10
-2.6916208 1.0720193 -6.9590302 7.6907625
-2.1661906 0.91744065 -6.9720078 4.25
-1.6934166 0.93261564 -7.1652155 4
-1.3437941 0.88274777 -6.9237628 5
-0.86693329 1.0520428 -7.0027285 8.6846228
-0.72291481 1.0446166 -6.9608932 7.6844211
-0.17666352 0.95349985 -7.0075378 4.9166665
0.13165466 0.9428941 -6.9590349 5
0.597148 0.93021333 -6.9616308 4.8000002
1.1904632 0.9224602 -7.0201378 5
1.3950571 0.93483245 -6.9970422 5
1.7978325 0.94733018 -6.9641361 4.5555553
2.235446 0.96405095 -7.0051107 4.8333335
2.5748661 0.97211272 -7.0029922 4.9166665
3.0198834 1.0046058 -7.0216784 4.9166665
3.3663564 1.0229138 -7.0192161 5.1333332
3.7659793 1.0103576 -7.0443182 5
4.2339396 1.0945868 -7.1414752 4.5555558
4.7092218 1.1121354 -7.0945153 4.9000001
5.0462093 1.1248038 -7.1076331 5.6666665
5.4416146 1.0830952 -7.0396347 6.1999998
5.6710601 1.0787637 -6.927701 7.1199999
-7.3873196 1.525633 -6.9394388 6.8052635
-7.0705433 1.457341 -6.9667292 4.5
-6.531208 1.3635337 -6.9831414 5
-6.2131915 1.3298867 -6.9577255 4
-5.9850197 1.2429557 -6.8562851 5.5
-5.4942346 1.4370215 -6.9960647 9.7300644
-2.8921285 1.2804434 -6.9610353 11
-2.6841373 1.2912275 -7.0156612 12.671483
-0.86224031 1.3211457 -7.0161328 13.24575
-0.73752397 1.413666 -6.9900575 12.137243
5.5764794 1.2387546 -7.1123509 8.5
5.7060137 1.4092944 -7.0364671 8.8176308
-7.3371449 1.7807498 -6.9982462 10.71768
-5.4620414 1.7335314 -6.9999771 14.142473
-2.9136209 1.6639018 -6.9647746 12
-2.6692102 1.8063847 -7.1137938 13.857142
-0.89844424 1.7751409 -6.8793459 13.875
-0.73319978 1.7467116 -6.9755168 13.947252
5.5816154 1.6874874 -7.0340691 11.58
5.700129 1.7940685 -6.983849 13.027829
-7.3105392 2.1026816 -7.0106502 13.760453
-5.4442821 2.0385466 -6.9163051 15
-2.934612 2.0779142 -7.1204104 13
-2.7674952 2.1929235 -7.162746 14.5
-0.90783876 2.2958159 -6.9796195 14.5
-0.7663452 2.1283591 -6.9496865 14.833333
5.588347 2.1731021 -6.9533472 14
5.6586609 2.1899147 -6.9887075 14
-7.2933412 2.4680088 -7.0408273 14.448572
5.5789456 2.4269419 -7.0067911 15
5.6843009 2.6254041 -6.954989 13
5.6732221 2.9392898 -6.9276323 15
5.6355886 3.2568252 -6.9111624 14.5
-2.8565528 0.50246352 -6.5159202 9
-2.7767541 0.69682324 -6.7380295 7
-0.92194682 0.66170633 -6.7433844 8
-0.63815022 0.73172247 -6.6613369 7
0.46645805 0.78344429 -6.5554643 6
0.80540979 0.76404881 -6.4048119 6
3.927604 0.5654555 -6.4148426 7
-5.5298471 1.1590317 -6.4612942 7
-2.8686764 0.86540431 -6.5053735 10
-2.6927223 1.0470734 -6.5765738 8.2176867
-2.2977407 0.8672539 -6.6214204 4.8095236
-1.9030737 0.87499332 -6.6116753 4
-1.4193894 0.86837554 -6.6114993 4
-0.88018602 1.025944 -6.5887985 9.2560873
-0.72994697 1.0207846 -6.5940371 7.7950754
-0.26831853 0.88696408 -6.6541362 5
0.23836012 0.87911111 -6.5854759 4.5
0.52892286 0.8977676 -6.627449 4
0.93023568 0.86565775 -6.6438031 5.5555553
1.4119148 0.87798899 -6.5894656 4.9523807
1.759209 0.88920546 -6.5916348 5
2.2681363 1.0134547 -6.5300989 7.8043661
2.5282359 1.0410578 -6.5872145 7.5571432
2.9724476 1.0546215 -6.5809174 7.5222225
3.4093139 1.0636928 -6.5998292 7.4947367
3.7904019 1.0238837 -6.5921245 6.2285714
4.3067889 1.0256724 -6.7038498 4.5
4.68893 1.0608441 -6.697988 4.9444442
5.0401382 1.0869845 -6.6654663 5.2083335
5.5179524 1.0717155 -6.6197534 6.9499998
5.7177453 1.0811491 -6.5664587 7.8571429
-7.3858948 1.5104939 -6.5746274 6.8913045
-7.0982862 1.3672396 -6.5691395 5.3333335
-6.7369061 1.3329488 -6.7670546 5.5
-6.2553263 1.2849612 -6.5281277 4.25
-5.815836 1.2448589 -6.6673889 4.8888888
-5.5051808 1.3988324 -6.552104 10.039382
-5.1726069 1.203331 -6.7828293 3
-2.9005005 1.4160423 -6.5117931 11.5
-2.6969211 1.3202758 -6.603056 13.218472
-0.86805993 1.3350004 -6.5746598 13.429729
-0.74591374 1.3899829 -6.5915661 12.750548
2.2957065 1.3639472 -6.5037994 12.923077
2.5538163 1.3271681 -6.5250859 12.761193
2.9904916 1.3284322 -6.5380163 12.715341
3.4426768 1.375988 -6.5535159 12.328336
3.6025391 1.3061801 -6.5124421 10.666667
5.591845 1.4409469 -6.5904422 9.958333
5.7136393 1.4048535 -6.6035705 9.1769743
-7.3509059 1.7819387 -6.5969629 11.352046
-5.4582906 1.711947 -6.54141 14.478639
-2.9247787 1.972759 -6.5051007 13
-2.7072735 1.8369424 -6.6767206 14.452381
-0.87067223 1.7526734 -6.574779 14.25
-0.73418504 1.8073543 -6.5415902 14.31
2.2814367 1.7136618 -6.4388251 14
3.3859978 1.6338943 -6.5967102 15.049333
5.5887327 1.8084607 -6.650178 13.225
5.6772056 1.7691324 -6.5938206 13.520182
-7.306726 2.1571717 -6.5868034 13.864182
-2.9241869 2.0219989 -6.795917 13
-2.7784352 2.1607194 -6.761889 15
-0.948897 2.1941483 -6.6991682 14
-0.72253752 2.0386367 -6.7347388 15
5.5885468 2.1960869 -6.5387101 14.5
5.6624665 2.1465242 -6.5949636 13.872727
5.6856718 2.6434407 -6.4960656 14.25
-0.87114233 0.27095869 -6.3118396 8
2.1713758 0.32817954 -6.1213326 8
-2.7744713 0.63489628 -6.0254965 7
-2.1942205 0.7880103 -6.227746 6
-1.6631832 0.78917539 -6.3896594 6
-1.3824786 0.76570201 -6.0497036 5.5
-0.91427952 0.62168747 -6.2266097 7.9553571
-0.72111565 0.75258845 -6.1402769 7
0.56363916 0.7810595 -6.3118715 6
1.1387367 0.77877617 -6.136023 5.3333335
1.4946826 0.79514122 -6.1506877 5.5
1.6055444 0.77352399 -6.0064545 6
2.2240872 0.69689274 -6.2473831 7.8333335
3.6860294 0.57612002 -6.3840809 8
5.5174866 0.66352224 -6.2429438 7
5.7548895 0.65416861 -6.0739365 8
-6.6794386 1.1940497 -6.1768522 6
-6.2798147 1.1546472 -6.2772555 6
-5.7639532 1.1390188 -6.3069415 5
-5.5479074 1.1695615 -6.1627932 5.7380948
-2.7063015 1.0401413 -6.2060237 8.8320494
-2.1977363 0.83569223 -6.2126913 4.0416665
-1.726819 0.82938075 -6.3120565 4.5
-1.3045856 0.82889324 -6.3725863 5
-0.88286012 1.0141226 -6.2040153 9.9553375
-0.73634857 1.0228399 -6.1929278 8.479495
-0.12606923 0.86634797 -6.2462907 4.3333335
0.16560224 0.85566145 -6.2411361 4.4444442
0.79874915 0.88328296 -6.3563948 4
1.396089 0.83483982 -6.2332067 4.7857141
1.8826079 0.84659249 -6.2534299 4.875
2.2653034 1.0306867 -6.2008786 8.9417143
3.4836233 1.057053 -6.1979241 9.1366835
3.7064321 1.0557842 -6.3124108 8.2051277
4.2351165 0.98405409 -6.3439708 4
4.7196932 0.99178874 -6.1613932 4.583333
5.0095048 1.0583819 -6.2822757 4.3499999
5.4807739 1.0489573 -6.2487979 6.7222223
5.7044077 1.1131904 -6.2170901 7.4094443
-7.3949847 1.4818745 -6.1783533 7.4675922
-7.0117545 1.2970494 -6.1444473 5.3333335
-6.6685309 1.3022243 -6.207212 5
-6.1931114 1.2536029 -6.2331414 4.3333335
-5.8817759 1.2058822 -6.2682886 5
-5.5116701 1.3819526 -6.2108221 10.619061
-2.7061098 1.3452512 -6.2190909 13.798909
-0.87663954 1.3748894 -6.1952929 13.613457
-0.75688386 1.348261 -6.1876769 12.980129
2.2687895 1.3924136 -6.2167425 13.484307
3.1055241 1.5127591 -6.3851247 15.1595
3.4854188 1.3736829 -6.2779536 12.269296
3.660913 1.3681635 -6.3016953 12.368091
5.58742 1.4227635 -6.1873541 10.228571
5.7043052 1.4270563 -6.1818709 10.232489
-7.3558531 1.776051 -6.1925802 12.167017
-5.4432883 1.6769749 -6.1563315 14.467063
-2.7670782 1.774519 -6.2836828 14.083333
-0.86806762 1.735114 -6.2332602 14
-0.7506147 1.7804451 -6.2431765 14.410714
2.276051 1.8092533 -6.2125883 13.910714
3.4974144 1.801332 -6.2672963 12.388889
3.6332736 1.7564785 -6.2939453 13.5
5.5795937 1.8262653 -6.2197127 14.139999
5.6919427 1.7312002 -6.1907973 13.656746
-7.3172669 2.1606743 -6.2371788 14.247986
-2.7792788 2.0197468 -6.3434501 15
-0.89029938 2.2364528 -6.2899876 14.833333
2.2181275 2.1029594 -6.2558985 14.7
3.5120566 2.1975334 -6.2855034 13.357142
3.6270802 2.1316724 -6.3299065 13
5.5905733 2.2294552 -6.1648884 15
5.6729083 2.1599088 -6.2193837 13.625
3.5022519 2.6140833 -6.2882061 14.527778
3.6069429 2.4238384 -6.271534 14.5
5.668375 2.6839616 -6.2384343 14.25
3.4638629 2.9763963 -6.2330904 15
5.6156096 3.2215276 -6.3176813 15
-0.87855238 0.38755509 -5.7379036 8.5
2.1489737 0.31489542 -5.8069677 8
-2.4767509 0.74342662 -5.728404 6
-2.147886 0.74672157 -5.7602477 5.4444442
-1.8082157 0.74608749 -5.8032498 5
-1.409848 0.74699128 -5.8887024 5
-0.93779653 0.69548351 -5.7762179 7.0452385
-0.72924584 0.69843012 -5.7360787 7
-0.18687415 0.75821733 -5.8101234 5.3333335
0.13953115 0.71963531 -5.7120399 5.3333335
0.64087784 0.75731164 -5.7392135 5
1.0860438 0.78633052 -5.8279366 4.5
1.4501452 0.75242251 -5.7871118 4.875
1.8229213 0.75910234 -5.808341 5.5
2.2108281 0.66159618 -5.7342086 7.3714285
5.7533894 0.65073967 -5.6560855 7.5
-6.6784468 1.1506987 -5.6982284 6
-6.1903501 1.1614976 -5.7702827 5
-5.8441539 1.1349068 -5.8382864 5.25
-5.545476 1.1346015 -5.7928462 6.1801276
-2.7230508 1.005241 -5.7908349 9.0784674
-0.8838765 1.0010622 -5.806181 10.447801
-0.76537251 1.0079342 -5.7886391 9.1844673
-0.15805489 0.80518985 -5.9309974 3.425
0.25997132 0.80750042 -5.9655542 3.5
0.64603835 0.8231414 -5.9677296 5
0.98147196 0.81267613 -5.9331946 5
1.2548023 0.81716269 -5.9796152 5
2.251761 0.97658193 -5.7889915 8.9856958
3.4274688 1.0134828 -5.7613788 8.9985819
3.8479214 0.88132292 -5.840641 5
4.2823515 0.92158037 -5.8398905 4.5
4.6464524 0.95144159 -5.7377729 4.5999999
5.022831 1.0098287 -5.886004 4.625
5.4420638 1.0610924 -5.8202114 5.75
5.7132664 1.0702565 -5.8110838 7.2833328
-7.3920631 1.4633379 -5.7904453 7.8174758
-6.9096336 1.2507453 -5.6508913 4.5
-6.5875449 1.2518725 -5.8382435 5.75
-6.2623582 1.2154598 -5.8989182 6
-5.5074635 1.3851535 -5.8714056 11.836353
-2.7158215 1.3413804 -5.830935 14.019611
-0.87516922 1.3426412 -5.7981625 13.261906
-0.75878865 1.3414688 -5.7964182 13.509645
2.2518597 1.3674589 -5.7812233 13.461983
3.3844664 1.3220972 -5.8400764 12.549256
5.5803437 1.318417 -5.707952 10.023809
5.6922164 1.4208496 -5.8213472 10.763948
-7.3562427 1.7782302 -5.7911181 12.564263
-5.4498734 1.6720653 -5.8196354 14.370276
-2.7901268 1.7256984 -5.7369752 14.400001
-0.89368778 1.7281921 -5.7545547 14.3125
-0.75641048 1.7655671 -5.7929254 14.124008
2.2355525 1.6572173 -5.8179407 13.957143
3.3927512 1.7860873 -5.8340163 13.157143
5.5784426 1.7198555 -5.7973404 13.817953
5.6824493 1.7343429 -5.8006425 13.609265
-7.3008161 2.1242282 -5.8099523 14.137987
-0.88187361 2.1587558 -5.8349509 15
2.1361988 2.1182528 -5.8105898 14.5
3.3902118 2.2269659 -5.8635507 14.166667
5.6682639 2.1678195 -5.8033652 14.1875
3.3335476 2.648663 -5.7163019 14.5
5.6497841 2.5845973 -5.8638139 14.333333
5.6043091 3.0424607 -5.7940388 15
-0.88232267 0.28754026 -5.3037729 8.25
0.30518728 0.027100958 -5.4760809 7
2.005044 0.060384549 -5.3126683 7
-2.8027098 0.76349103 -5.2319622 8.5
-2.6626928 0.72348791 -5.4077487 6.3240743
-2.1730273 0.73317951 -5.3801637 4.3333335
-1.7961239 0.72556943 -5.4357915 4.5999999
-1.350086 0.68396014 -5.4827075 5.4000001
-0.91101104 0.72111577 -5.4045777 6.6944447
-0.75287747 0.73643047 -5.3786736 6.0055556
-0.28736901 0.72978264 -5.3568087 5.3125
0.075301655 0.73794776 -5.4539752 4
0.54447126 0.71392858 -5.4977517 5
1.0031314 0.72623652 -5.4760227 4.8000002
1.4177554 0.71541148 -5.467494 5.1999998
1.6633787 0.69661182 -5.3537941 5
2.2339308 0.72424865 -5.3447628 7.0242419
3.5801175 0.67053461 -5.4737716 7
4.1291428 0.70611346 -5.4513326 7
5.2625842 0.77043855 -5.2807965 7
5.7621584 0.70156324 -5.3315144 7.5
-7.0840187 1.1702838 -5.3943419 6
-6.4335365 1.1322416 -5.398818 5
-6.2549424 1.1279545 -5.3663406 5
-5.8585129 1.0668721 -5.3521018 5.5
-5.5455871 1.1063778 -5.3729982 6.4206347
-2.7315259 1.0252959 -5.4461546 10.064721
-0.87290603 0.98691523 -5.3913708 10.745267
-0.77664793 1.0064518 -5.4151697 10.362413
2.2484217 1.0072486 -5.3834791 10.075176
3.4199982 1.0121869 -5.4265027 8.9321775
3.807205 0.82170713 -5.3744974 4
4.2855473 0.87510437 -5.4110117 3.5
4.5818944 1.0192332 -5.3259015 7.0073538
5.040688 0.96028954 -5.4426303 4.25
5.4019637 1.028195 -5.4412932 5.7142859
5.7111988 1.1159345 -5.3801165 7.3733335
-7.3843622 1.4329224 -5.3916445 8.302515
-6.9650278 1.2342176 -5.438262 4.75
-6.6663527 1.2143815 -5.2308006 6
-5.5034685 1.3762181 -5.3894267 12.160871
-2.7177799 1.3038977 -5.4516249 13.895609
-0.88062358 1.3405298 -5.3589211 13.666862
-0.76439941 1.3225694 -5.4129395 13.324122
2.2557383 1.3217566 -5.3813953 13.475198
3.3737853 1.3618802 -5.3569126 13.143528
5.5770798 1.2880211 -5.4252582 9.8989897
5.674962 1.4148982 -5.4028382 11.174467
-7.3557687 1.7539297 -5.4013553 12.940708
-5.4279742 1.7595761 -5.5148406 14
-2.7973762 1.6072919 -5.2792158 14.5
-0.89030999 1.7166979 -5.3981047 14.349999
-0.76820707 1.7251194 -5.3670201 14.266665
2.2461534 1.6859832 -5.382349 14.321428
3.3888936 1.8312299 -5.4879827 13.6
5.5698791 1.6854297 -5.3781548 13.395833
5.6694322 1.7162323 -5.4188261 13.909036
-7.3067017 2.1421893 -5.3985829 14.122046
-0.95231307 2.1982281 -5.3747091 15
2.228126 2.0247171 -5.5379362 15
3.3609815 2.247062 -5.4867148 15
5.5858812 2.0308142 -5.4652023 14.5
5.6829085 2.2263741 -5.4585204 13.994445
5.6305089 2.5984061 -5.4345455 14.875
-0.90060967 0.32661724 -5.018939 8.2619047
1.5710154 0.033023 -4.8240643 7
2.243963 0.37199959 -5.0826197 7
-2.6930382 0.75515193 -5.0550084 6.2857141
-2.2197497 0.64735353 -5.0697093 6
-1.8945842 0.66308224 -5.0612049 5.5
-1.484915 0.65523934 -5.0717969 5.25
-0.92103916 0.68568337 -4.9692674 7.2981987
-0.6535387 0.65520197 -5.011477 5.9851856
-0.01551342 0.67573386 -5.0855436 5
0.31435817 0.6742841 -5.0419059 5.5
0.64418185 0.63075936 -4.9963236 5.6666665
1.0494891 0.66241831 -5.0297723 5
1.3935207 0.67101574 -5.0620399 5.0999999
1.6486154 0.67486161 -5.1166172 6
2.2295148 0.6961323 -4.9924092 7.5285711
3.4410722 0.7310527 -4.9386187 6.6190476
3.782918 0.79704046 -4.8572712 5
4.0013676 0.79715085 -5.159761 6
5.7299323 0.71700811 -5.0441599 7
-7.3778396 1.1705028 -4.9875088 7
-6.8264771 1.1539888 -5.0598722 5
-6.6160274 1.1177896 -5.1683683 5
-6.2023511 1.0522444 -4.9339476 4
-5.7953873 1.0289477 -5.0229421 4.1666665
-5.5290318 1.0998068 -4.913013 7.2046232
-2.7427759 0.98060024 -5.02035 9.8790483
-0.89567143 0.95977437 -5.0067096 11.222459
-0.77998942 0.98074931 -5.0251164 10.273809
2.2379508 0.99388832 -4.9635177 10.361125
3.4088068 0.98020315 -5.0606766 9.732172
3.7435296 0.84152925 -4.8153267 6
4.2988038 0.85015535 -4.8534379 4.3333335
4.5933232 0.97646528 -4.9868388 7.2021275
5.0575595 0.90798551 -4.9879928 4.8666668
5.355341 0.9486025 -5.0058575 5.4444447
5.6892948 1.0726024 -5.0449333 7.7437501
-7.3881617 1.4317303 -4.9906387 8.7203655
-5.502254 1.3230332 -4.9713092 12.010387
-2.7331338 1.3164475 -5.0624962 14.231829
-0.89706773 1.3922859 -5.0430274 13.69256
-0.77489847 1.3328313 -5.0232983 13.340625
2.2500236 1.3621308 -4.9765034 13.645805
3.3721452 1.3983122 -4.9796638 12.839505
5.5786977 1.4542366 -5.0127926 11.599999
5.668057 1.4272231 -5.0372095 11.92073
-7.3502522 1.7583277 -5.0175972 13.454726
-5.4355307 1.7658757 -5.0412922 13.736111
-2.7960308 1.6364967 -5.1336823 15
-0.89593887 1.8597261 -4.9817157 14.428571
-0.76568288 1.7233006 -4.97609 14.607142
2.2489972 1.7296205 -5.0399203 14.366667
3.3746443 1.83571 -4.9498606 14.375
5.5644059 1.736903 -4.9797125 14.117857
5.6685348 1.7232763 -5.0554857 13.850595
-7.2878656 2.2104807 -4.9562554 14.555555
-0.95705801 2.1688943 -5.0163479 15
2.1346498 2.0355849 -5.1442442 15
5.5749459 2.0284836 -5.1276021 14.5
5.6678643 2.1683307 -5.0468783 13.928572
5.6228428 2.6093988 -5.0663195 14.75
-0.60938442 -0.042734116 -4.5143976 7
-0.123263 -0.025930211 -4.6413693 7
-0.88081408 0.28231397 -4.5719504 8.333333
0.9693619 0.012210786 -4.7944779 7
2.1638651 0.1871841 -4.7100062 7
3.601254 0.26588702 -4.7752399 7
4.1985097 0.28870124 -4.7251816 7
5.2664051 0.32663256 -4.4703779 7
-2.6787391 0.71711773 -4.5994539 5.950397
-2.2614155 0.66327655 -4.647944 4.1071429
-1.903303 0.62301546 -4.5965405 4.8888888
-1.4682624 0.57313043 -4.5758691 5.4000001
-0.92657208 0.64617819 -4.6162133 7.5321102
-0.74863511 0.66422838 -4.5776277 7.174603
-0.19892481 0.61137366 -4.6090193 4.5
0.23602858 0.61361289 -4.5882101 5
0.70891011 0.59331262 -4.5486255 4.5
1.059006 0.56862706 -4.5461574 5
1.3586361 0.6062988 -4.6105928 5.25
1.7339007 0.58579314 -4.5729551 6
2.2031016 0.62721467 -4.6029725 7.7275362
3.4110477 0.76303929 -4.5481267 6.2222219
3.7253354 0.74747926 -4.4374518 4
4.2238798 0.77389997 -4.4327841 4.5
5.6974277 0.71038836 -4.6355262 7.8888893
-7.3741751 1.1102387 -4.5006623 6.9270835
-7.0631132 1.1594701 -4.7088695 4.875
-6.5704346 1.0743887 -4.6472383 4.8000002
-6.1915727 1.0168505 -4.6459928 5.2222219
-5.7669764 0.9826405 -4.5195837 4.25
-5.5016699 1.0794319 -4.5405283 7.4666672
-4.4781899 0.85944074 -4.5131469 3
-2.7505238 0.99667394 -4.6002827 10.961338
-0.89237535 0.97898674 -4.5912914 11.807585
-0.7849111 0.97224206 -4.6050858 10.364583
2.2256236 0.96537733 -4.5981922 10.47758
3.3809738 1.0165601 -4.5973911 11.35721
4.206955 0.85745025 -4.7870898 6
4.5851622 0.81295824 -4.5010672 4.833333
4.8831768 0.8403827 -4.5330629 4.3333335
5.4824944 0.96186143 -4.5194345 7.0999999
5.6678329 1.0816321 -4.6042829 8.1756115
-7.3878689 1.3966907 -4.599185 8.748889
-5.5018754 1.3049936 -4.5838842 12.18086
-2.7268014 1.3124688 -4.618484 14.060782
-0.89249951 1.3724121 -4.6140795 13.655738
-0.77899271 1.3621231 -4.5713239 13.104545
2.2300894 1.3507174 -4.6193547 13.400372
3.3447373 1.3898004 -4.5814633 13.178572
5.5697894 1.3991295 -4.4959955 11.175
5.6552696 1.4186305 -4.6103282 12.388103
-7.347156 1.7520287 -4.6202483 13.69484
-5.4468985 1.764708 -4.6101432 13.5
-0.90627009 1.7643837 -4.5706286 14.251514
-0.77376765 1.697821 -4.5580807 14.666667
2.2610097 1.7774408 -4.6236444 14.375
3.3580601 1.7227486 -4.547965 13.833333
5.5547071 1.7552075 -4.4994617 14.166667
5.6397109 1.7364755 -4.5936255 13.83539
-7.2981439 2.1901877 -4.5613766 14.165816
-0.95862699 2.1326418 -4.6188016 15
2.3111858 2.1590483 -4.566072 14.875
3.3158431 2.2019773 -4.5285654 14.25
5.5522323 2.1172237 -4.5103431 15
5.6240273 2.208777 -4.6324797 14.3
-7.3046513 2.5121226 -4.6369357 14.75
5.5779104 2.6216917 -4.5571108 15
5.6309614 2.4850199 -4.7963705 15
-1.1728636 -0.061749563 -4.3008261 7
-0.39703441 -0.049682572 -4.0251832 7
-0.97629791 0.2521807 -4.0864763 7.958333
1.4608932 0.2765125 -4.1899347 7
2.1733994 0.26133084 -4.2181792 7.5999999
5.6846056 0.3397885 -4.1704922 7
-7.42202 0.7851339 -4.0590425 7
-4.035645 0.78070629 -4.153337 3.5
-3.9004867 0.76141483 -4.1866555 5.6666665
-3.3722937 0.74180245 -4.2081928 6.2314816
-2.9608526 0.7431426 -4.2326822 6.0814538
-2.7056618 0.68513435 -4.2565866 6.5138888
-2.2650025 0.60222656 -4.2019949 5.1666665
-1.7723262 0.56434977 -4.2290635 4.9333334
-1.3470833 0.56952041 -4.1859632 5.75
-0.95132542 0.64690161 -4.1956162 8.2018642
-0.76425022 0.61662388 -4.2657251 7.21875
-0.25527242 0.54367638 -4.1920424 5.25
0.12604702 0.55112541 -4.143671 5.5
0.59667802 0.5451659 -4.1258955 5.1999998
1.0659889 0.54718858 -4.1831779 5.0999999
1.4470327 0.48204118 -4.2023287 5.75
2.2100639 0.61378014 -4.2002287 7.9261904
3.3953674 0.73832339 -4.1946788 6.2448974
4.2498698 0.74670148 -4.1650147 3
4.5861802 0.77923709 -4.1924496 4
5.6729631 0.70000225 -4.1703386 8.5
-7.3801847 1.1302781 -4.1470656 6.9185181
-6.9907999 1.1180711 -4.2728758 5
-6.6929722 1.0678463 -4.3447685 4.8333335
-6.1907396 1.0024078 -4.1931343 4.25
-5.7121925 0.95857215 -4.1945014 4.5
-5.463933 1.037973 -4.2467446 7.7615337
-4.9664745 1.0425951 -4.2318826 9.0077572
-4.6181178 1.0296968 -4.2215919 9.2965021
-4.1754909 0.99211496 -4.2278829 9.4607153
-3.8216169 0.97168142 -4.2306571 9.7684288
-3.3601713 1.0055734 -4.2257719 11.232703
-2.9911256 0.96842283 -4.2301946 11.488609
-2.7690215 0.97121936 -4.2694526 11.484375
-0.91108149 0.98487729 -4.1711612 11.815029
-0.77894443 1.0021056 -4.2914124 10.283333
2.2017951 0.96293408 -4.2007837 10.856597
3.3650658 0.98621845 -4.2347269 11.027425
4.3637176 0.98676413 -4.0104408 9
4.7036519 0.8165099 -4.171093 5
4.9245315 0.85530227 -4.3143482 5
5.5350313 1.0227195 -4.2247205 8.1199999
5.6681843 1.0182557 -4.1982064 8.1322346
-7.3897705 1.4082044 -4.1978817 9.4174261
-5.4496374 1.3283952 -4.2518253 12.653652
-4.9677329 1.3078336 -4.2293296 13.919044
-4.5883594 1.298732 -4.2245407 14.277662
-4.2626143 1.2820847 -4.2099137 14.402117
-3.7712181 1.3302615 -4.2106156 14.385729
-3.3989177 1.3311535 -4.2013273 14.173334
-2.9471314 1.2921773 -4.2013836 14.180556
-2.7273226 1.3485427 -4.2909083 14.096319
-0.90437961 1.3882598 -4.1820931 13.70388
-0.78328109 1.4037213 -4.217134 13.273808
2.2318769 1.3357822 -4.2431931 13.436952
3.3409016 1.3472476 -4.1583443 13.375
5.5548363 1.4685456 -4.2215981 11.860001
5.6354561 1.3951133 -4.202632 12.250667
-7.3458161 1.7526536 -4.2076874 13.548587
-5.4035945 1.8318943 -4.2960882 14.125
-5.1298237 1.7849137 -4.2009935 14.5
-4.6153173 1.6993614 -4.1964593 15
-4.3755293 1.6270229 -4.2025342 15
-2.7132821 1.6256522 -4.3817463 14.5
-0.91574186 1.7869058 -4.1727881 14.636364
-0.77540296 1.8060509 -4.0880017 14.666667
2.2593908 1.712077 -4.2245879 14.111111
3.3361053 1.7283283 -4.2503371 14.333333
5.5331192 1.7971299 -4.2016892 14.1125
5.6364551 1.7788457 -4.2210746 13.738096
-7.331058 2.2099578 -4.1686559 14.111111
2.370712 2.1182301 -4.1653857 14.5
5.538825 2.1287296 -4.1713901 15
5.6076336 2.1813223 -4.2406173 14.388889
-7.3321548 2.5257449 -4.1856694 15
2.4009895 2.4316714 -4.098896 15
5.579196 2.5202236 -4.2534714 15
-0.84933758 -0.072599277 -3.8039303 7
-0.99295813 0.35393417 -3.6696506 5
-0.60834163 0.37477803 -3.8471022 5
0.37332892 0.37255108 -3.8127494 5
1.4837866 0.23692971 -3.619195 7
1.847689 0.3649205 -3.6958959 6
2.1654446 0.30866453 -3.7710807 8.2857141
-4.7016211 0.78724301 -3.7646484 4.5
-4.2939219 0.78312808 -3.6439838 4.5
-3.7421257 0.68102008 -3.8281765 5
-3.4373558 0.68108159 -3.843123 4.9333334
-2.9984186 0.64968139 -3.8050976 5.6666665
-2.5434895 0.56313914 -3.7525723 5.3333335
-2.2548492 0.5798828 -3.8007629 3.9000001
-1.7861055 0.55349702 -3.9026761 3.25
-1.4227827 0.55030572 -3.847712 4.833333
-1.0352715 0.55454111 -3.832896 5.0886664
-0.60011142 0.51477242 -3.7786095 4.6666665
0.08309941 0.54843765 -3.9890962 4
0.55506718 0.50351417 -3.694104 4.5
1.0017624 0.52029461 -3.8608017 5
1.5668521 0.46883324 -3.6162486 6
1.8682624 0.48798805 -3.8300095 6
2.1975789 0.64210898 -3.7679157 8.8482141
3.3766475 0.71463817 -3.7760293 6.9111109
3.8651714 0.69211793 -3.8407481 5.5
4.2740531 0.7554394 -3.754699 6
4.9837508 0.76757479 -3.71224 4.25
5.6645408 0.69006938 -3.7774725 7.5
-7.3723602 1.1408021 -3.7200506 6.6948056
-6.9171848 1.0665729 -3.8281567 4.625
-6.6006279 1.0130291 -3.8069839 5
-6.1983957 0.97592533 -3.8342915 4.5
-5.734683 0.9007901 -3.7912765 5.5
-5.4676328 0.878304 -3.7082105 3.5
-5.0265551 0.84571958 -3.8066874 3.5
-4.7131047 0.81594354 -3.8141611 4.3333335
-4.2745476 0.80793345 -3.9526803 5
-0.87005281 1.0210354 -3.9567652 10.532
2.2100587 1.0255017 -3.7803481 11.640404
3.3472059 0.9691931 -3.7604656 11.481456
4.2934961 0.99904966 -3.7774537 9.8051729
4.5774684 1.0104734 -3.8879788 9.4430838
5.050014 0.8239252 -3.8353653 5.5
5.4441338 1.0262065 -3.7742431 8.1111107
5.6478314 1.0377523 -3.7843051 8.6785717
-7.3772283 1.4187135 -3.811852 9.9956064
-0.76396036 1.2868416 -3.9374051 12.032
2.233561 1.4058393 -3.8221853 13.644611
3.324527 1.3710473 -3.7433121 13.589999
4.2738194 1.3210279 -3.8168428 12.982456
4.587791 1.3208407 -3.8551743 13.421484
5.5705295 1.4860889 -3.7687125 13.018747
5.6246672 1.37625 -3.8302007 12.196474
-7.3432565 1.7529567 -3.830888 13.192619
-0.9618876 1.9384708 -3.8167095 15.1525
2.2982848 1.713336 -3.8011546 13.55219
2.403584 1.9952106 -3.837702 14.016
3.3146257 1.7955234 -3.8319836 14.5
5.5430861 1.787267 -3.7821693 14.369699
5.615726 1.7991695 -3.8775539 13.599999
-7.3167181 2.2090089 -3.825067 14.028571
2.3649681 2.0875833 -3.788702 14.5
2.4399705 2.2945418 -3.8170953 15.016
5.5689602 2.1713929 -3.8502128 14.75
5.6022739 2.2238297 -3.8565753 15
-7.3205848 2.4748645 -3.8317919 15
2.3970318 2.4067855 -3.7841072 15
-0.83309841 0.29049027 -3.3275075 7
0.36882138 0.34998301 -3.5885761 4.5
0.57695007 0.33616424 -3.4463906 4.5
0.97492313 0.3090682 -3.3930669 6.25
2.1479838 0.27329347 -3.3925798 7.7727275
4.4230485 0.29242766 -3.4193251 7
-7.4117727 0.73950267 -3.5833356 7
-4.6892395 0.76645184 -3.4330399 5.3333335
-4.2931948 0.769665 -3.3379931 5
-3.7066562 0.66558284 -3.4525013 5.6666665
-3.3538589 0.63386005 -3.4092255 5.3333335
-2.6048672 0.57405663 -3.5165222 5.75
-2.194277 0.54033244 -3.3378701 5.166667
-1.7244751 0.51117557 -3.3290377 5.6666665
-1.3397884 0.49542797 -3.4128747 5.25
-0.91776282 0.62080157 -3.2995579 8.5420341
-0.63205534 0.5078755 -3.3627653 6
-0.15756901 0.46798483 -3.4178901 4.9000001
0.2947042 0.48326543 -3.4778509 5
0.5943436 0.4553436 -3.260097 5.5
0.88278127 0.46532992 -3.4182453 5.5
1.2300162 0.45456508 -3.439193 6
1.7988584 0.44487265 -3.3122797 6
2.2025485 0.62903386 -3.3834555 8.7728462
3.3666136 0.71343017 -3.3395741 7.0010991
3.9658749 0.69425672 -3.4742913 4
4.3175092 0.70947295 -3.462868 6.5690002
4.5487552 0.70038563 -3.4004266 6.3472228
5.0012646 0.68672413 -3.3741944 5.375
5.410924 0.66159308 -3.2806535 6
5.6437302 0.7193535 -3.3550007 7.375
-7.4027538 1.1084654 -3.37185 6.9358974
-6.9579296 1.0431812 -3.3849347 5
-6.6097708 0.99461257 -3.3986237 4.6999998
-6.0588284 0.92339003 -3.2317986 4
-5.7773232 0.87857962 -3.2507112 5.5
-5.3672009 0.85479736 -3.3791411 4.6666665
-5.1959 0.82499027 -3.4379685 6
-4.7901096 0.80111057 -3.3096323 5
-0.91879529 0.96734649 -3.2605512 12.020425
-0.77456772 0.90938979 -3.2310805 10.5
2.1990082 1.0507356 -3.3742828 12.326162
3.3336802 0.94265604 -3.3580856 11.304919
4.3207259 1.0048977 -3.4924726 10.995571
4.5659313 0.99478453 -3.3866999 11.019031
5.5387883 1.0813823 -3.3542607 9.8518524
5.6291828 1.0143191 -3.3767583 8.8812733
-7.3829079 1.3952112 -3.4033566 9.9881878
-1.2102661 1.4803649 -3.3570848 13
-0.95617753 1.3188865 -3.24406 13.85
2.2231836 1.3723927 -3.4249744 13.465686
3.2926569 1.328699 -3.3713503 14.035714
4.3080816 1.2888775 -3.474154 13.168134
4.6246338 1.2709631 -3.3896508 13.365079
5.5677619 1.4221373 -3.4099867 12.555304
5.615994 1.3257942 -3.4178557 12.497024
-7.3521709 1.7373222 -3.386014 13.265584
-1.2322906 1.8054023 -3.300503 14.5
-1.1927924 1.6940951 -3.2254705 14
2.3407307 1.772671 -3.436007 13.5
2.4000707 1.9786484 -3.5953276 14
