# .PCD v0.7 - Point Cloud Data file format
VERSION 0.7
FIELDS x y z intensity
SIZE 4 4 4 4
TYPE F F F F
COUNT 1 1 1 1
WIDTH 723
HEIGHT 1
VIEWPOINT 0 0 0 1 0 0 0
POINTS 723
DATA ascii
6 49.682533 0.034515817 0
200 58.058346 0.04333945 0
6 51.531895 0.037397996 0
200 49.62191 0.034894507 0
5 50.931252 0.034262668 0
4 46.31992 0.023392491 0
4 47.948223 0.023883734 0
200 49.650082 0.025900805 0
3 57.724842 0.027829703 0
200 54.493065 0.026346901 0
7 53.067764 0.040937129 0
200 53.77224 0.034140047 0
200 62.802795 0.028844528 0
13 53.521023 0.026903067 0
200 51.546856 0.026829258 0
200 47.894512 0.033330597 0
200 46.033398 0.035180919 0
5 57.207661 0.039583582 0
200 56.424816 0.041875694 0
4 53.089737 0.045914188 0
8 50.465851 0.045725122 0
200 41.390873 0.048252668 0
9 45.555264 0.06206603 0
5 45.509697 0.059835386 0
24 38.87627 0.062708549 0
11 43.383015 0.058756661 0
7 41.789627 0.052359607 0
6 36.795033 0.052436758 0
200 33.280499 0.058798004 0
6 33.104515 0.059990533 0
200 45.546413 0.037683427 0
200 42.969917 0.040274579 0
200 46.442802 0.042446189 0
200 41.827164 0.046720982 0
10 39.315655 0.043864135 0
200 39.905491 0.047792111 0
200 39.997261 0.045446422 0
200 38.314281 0.042666458 0
7 45.840019 0.041092608 0
200 32.685387 0.035891585 0
200 38.132435 0.043697283 0
200 36.362206 0.042731155 0
200 44.608185 0.052926201 0
5 45.052002 0.067546569 0
200 45.601559 0.063019887 0
200 47.097973 0.061295174 0
200 36.377453 0.068828486 0
200 50.586956 0.040114999 0
200 50.822971 0.040674496 0
14 58.609646 0.04242748 0
5 61.878384 0.041265432 0
200 53.957069 0.040448256 0
6 54.19096 0.040666252 0
200 58.04055 0.041988447 0
8 47.924679 0.033669334 0
200 54.821648 0.040142186 0
6 51.611603 0.043247674 0
200 58.2901 0.042558908 0
200 46.333138 0.041474525 0
6 45.484734 0.04749484 0
200 36.983276 0.041307252 0
5 36.817577 0.045202602 0
4 50.493839 0.032787632 0
200 46.582256 0.032738935 0
200 44.968292 0.035856619 0
6 41.510868 0.040538102 0
6 37.846794 0.032520771 0
5 39.22044 0.037022118 0
200 37.137356 0.043530323 0
200 37.082535 0.045846693 0
200 34.040588 0.043076288 0
200 31.187607 0.051446911 0
6 40.088711 0.07532429 0
200 34.710571 0.070131138 0
7 29.032251 0.056862123 0
8 27.710489 0.051667303 0
7 41.697273 0.046818797 0
200 49.533333 0.037629195 0
5 52.917591 0.045918513 0
8 55.21452 0.052941822 0
5 55.024143 0.048094004 0
4 46.967541 0.036339264 0
5 51.931236 0.038902886 0
200 37.081577 0.043221518 0
200 48.589756 0.041051369 0
6 40.016945 0.03120211 0
7 45.739697 0.031689312 0
200 50.34222 0.035733853 0
10 36.574013 0.045514051 0
6 41.172504 0.05342843 0
7 46.055199 0.049845681 0
200 35.844082 0.05189706 0
7 37.09243 0.053485159 0
200 30.095013 0.039017506 0
5 30.081989 0.036816489 0
6 29.436014 0.045556713 0
6 25.892656 0.040047951 0
5 24.967422 0.045151427 0
200 21.421183 0.033197813 0
200 26.745447 0.039602429 0
4 24.824053 0.038534433 0
200 27.705309 0.035703093 0
200 28.605444 0.034441154 0
200 24.666208 0.035978016 0
8 23.191895 0.040356129 0
8 25.419945 0.040492367 0
200 20.877045 0.040973898 0
7 19.190258 0.040150058 0
200 19.730381 0.042576753 0
200 18.184404 0.03997812 0
7 15.660818 0.041187327 0
11 16.936071 0.036690082 0
4 18.258995 0.028744938 0
200 17.513931 0.03274956 0
200 19.130802 0.033957355 0
200 20.134932 0.034504794 0
7 24.774933 0.041523054 0
200 18.580513 0.035659537 0
3 20.281704 0.033049192 0
200 17.548889 0.042954471 0
200 13.164148 0.040939726 0
7 15.0978 0.042949002 0
200 15.336856 0.039044432 0
6 18.350403 0.044852935 0
200 15.824445 0.040603459 0
200 13.08387 0.044130512 0
6 19.017874 0.03666215 0
200 20.286497 0.042093687 0
4 18.43874 0.038494222 0
18 16.21793 0.040155604 0
200 18.729534 0.039735001 0
200 16.915039 0.036656264 0
200 14.379096 0.037287947 0
200 14.206977 0.035382122 0
200 16.437704 0.045949414 0
200 16.467838 0.041662145 0
200 19.608967 0.043931123 0
200 18.951649 0.038332894 0
200 16.867762 0.036289237 0
10 16.624826 0.034962326 0
4 17.799709 0.03810855 0
14 16.695429 0.036015898 0
200 15.964502 0.037848927 0
200 15.879792 0.039769419 0
200 16.89463 0.035339352 0
200 17.332554 0.033638474 0
200 14.352805 0.035684749 0
8 18.217142 0.038506038 0
5 13.842103 0.038570058 0
7 17.461164 0.039725635 0
200 18.51219 0.040764514 0
200 18.575426 0.04038975 0
200 19.305386 0.033971652 0
8 20.320707 0.037010755 0
200 20.479551 0.032829452 0
200 16.702005 0.034766156 0
4 20.626337 0.037921112 0
4 16.952435 0.03737111 0
200 18.285444 0.036094137 0
4 15.814585 0.038448084 0
6 14.410193 0.030041993 0
5 16.825218 0.036820929 0
200 16.611921 0.040801812 0
5 18.09726 0.036850959 0
200 18.92116 0.03160999 0
6 16.460623 0.032975741 0
10 13.981062 0.033135142 0
200 15.549655 0.037133526 0
200 18.779791 0.040114712 0
200 18.44331 0.03992746 0
200 15.598401 0.037136793 0
5 17.292536 0.034088716 0
7 10.685061 0.032981008 0
5 12.751775 0.037016299 0
4 13.455528 0.033724643 0
4 15.724851 0.033465125 0
200 13.28182 0.033650391 0
5 18.383276 0.036337554 0
5 18.588425 0.036030322 0
6 16.77841 0.037559874 0
4 21.602333 0.038204994 0
200 19.544785 0.035765849 0
200 12.733801 0.037687801 0
5 14.002227 0.033070404 0
5 13.670279 0.030611398 0
3 13.908623 0.031286314 0
5 15.27478 0.036965534 0
200 18.236967 0.036156964 0
4 19.597216 0.037484087 0
200 18.173353 0.037047364 0
200 12.291435 0.029811062 0
3 15.784905 0.031008454 0
200 17.283926 0.038028006 0
200 13.233986 0.036663078 0
4 19.07506 0.038100351 0
200 16.176079 0.038018629 0
5 16.333069 0.036332075 0
10 15.110604 0.037851688 0
200 13.102453 0.038587522 0
8 14.753748 0.041718177 0
4 19.908052 0.040711638 0
4 17.707756 0.037431873 0
6 18.855618 0.033325139 0
5 16.217031 0.033087697 0
5 14.780524 0.035064131 0
200 15.926681 0.03554887 0
200 16.542772 0.036147855 0
200 16.308273 0.034713414 0
200 14.92854 0.034695826 0
200 16.042646 0.036927465 0
200 13.274323 0.035974775 0
7 13.128658 0.034251358 0
200 14.148169 0.032959517 0
3 15.062209 0.03575078 0
7 15.913531 0.035322074 0
6 17.731291 0.036882188 0
5 21.49769 0.039000563 0
6 18.55154 0.036376562 0
200 16.903738 0.036262751 0
200 15.254753 0.036115691 0
7 17.771713 0.037629295 0
200 17.063652 0.035248555 0
200 14.565694 0.035875011 0
6 14.517855 0.032753807 0
4 19.305206 0.039611269 0
200 16.878492 0.03640813 0
200 18.313906 0.040747393 0
200 17.489254 0.036846742 0
5 19.416876 0.036385532 0
6 16.081802 0.038817648 0
5 16.273075 0.035282813 0
8 17.6786 0.038169269 0
200 14.490255 0.032035612 0
6 15.833884 0.038017813 0
4 15.24901 0.038258504 0
4 19.425016 0.035983462 0
200 13.067091 0.037041001 0
4 17.528185 0.035945702 0
200 17.736837 0.037905522 0
9 14.168137 0.038063571 0
200 17.904135 0.039182886 0
200 15.948819 0.038626261 0
6 16.877892 0.037556551 0
7 18.218359 0.033046216 0
200 12.364066 0.031158846 0
200 13.135397 0.030823603 0
200 14.073715 0.033899855 0
200 15.983348 0.033310592 0
6 16.103638 0.03640721 0
200 15.784245 0.035156284 0
4 17.379047 0.039028596 0
7 15.178311 0.036698073 0
200 15.349147 0.037407931 0
5 16.520226 0.038166188 0
200 16.159195 0.033362366 0
200 19.156376 0.033443928 0
200 15.13271 0.030116672 0
6 15.100379 0.033672683 0
5 13.97303 0.039622784 0
7 15.678172 0.03734855 0
5 18.813227 0.037664533 0
200 20.179977 0.034272742 0
7 19.037771 0.035476018 0
200 15.111743 0.037012845 0
200 16.056063 0.041303959 0
200 14.051054 0.042227473 0
200 17.3267 0.035042185 0
4 15.061317 0.033032015 0
4 17.299377 0.037432976 0
200 15.253102 0.037704811 0
4 13.50679 0.031301379 0
200 15.20524 0.036920808 0
5 15.765622 0.036802679 0
200 14.952733 0.032942902 0
200 17.637341 0.036861591 0
5 20.304281 0.038366925 0
200 16.609371 0.038448263 0
200 19.651653 0.039511282 0
200 10.681236 0.031684991 0
4 15.3381 0.037177354 0
200 18.92325 0.037932973 0
5 17.927418 0.03484584 0
200 15.902382 0.037338912 0
200 19.910959 0.038085751 0
200 14.374992 0.032476682 0
200 15.345136 0.033075191 0
200 16.126579 0.034773745 0
5 16.895393 0.035156671 0
6 13.939481 0.035895228 0
200 14.959741 0.03553275 0
200 24.157833 0.038460623 0
200 20.842352 0.03881612 0
200 19.401188 0.033981457 0
5 16.766901 0.036217645 0
5 19.574623 0.035511717 0
9 18.401039 0.033596639 0
200 16.858461 0.0406336 0
200 17.823139 0.040030576 0
200 20.695341 0.038842414 0
5 20.989964 0.038506262 0
10 19.171024 0.038333226 0
4 20.574009 0.038776178 0
200 16.246206 0.035390254 0
200 17.608635 0.037349209 0
200 15.646029 0.038232818 0
200 15.299396 0.036694117 0
200 19.25832 0.036142655 0
200 19.847 0.034322347 0
200 16.671232 0.036672752 0
5 16.28146 0.038566988 0
8 13.503935 0.031181032 0
5 13.343304 0.031704914 0
4 17.703382 0.034192853 0
5 15.681873 0.035707269 0
200 14.992916 0.032725219 0
200 15.963311 0.03790975 0
200 21.061745 0.033482339 0
17 21.515409 0.035057444 0
8 14.910709 0.0420315 0
8 15.244162 0.04212584 0
200 19.96489 0.038145315 0
5 17.855587 0.042125419 0
200 17.606092 0.058052704 0
200 15.938565 0.054167043 0
4 15.841311 0.033266347 0
7 20.638237 0.03630903 0
5 15.141707 0.032487109 0
3 17.005581 0.030894641 0
200 16.966866 0.032683354 0
200 14.769677 0.042929851 0
200 14.765736 0.04175568 0
5 12.265427 0.044835728 0
11 12.650286 0.043576777 0
200 14.198119 0.04956216 0
200 12.910836 0.046850733 0
200 14.659491 0.053803157 0
8 13.074787 0.042664357 0
200 13.799668 0.036867708 0
13 10.83856 0.035514809 0
200 14.605459 0.034782711 0
10 14.063151 0.034919746 0
8 14.571838 0.043750189 0
200 11.419013 0.039917644 0
8 14.186008 0.044401936 0
200 10.289408 0.053793754 0
5 12.197071 0.043362912 0
3 11.970252 0.046184115 0
10 9.3658342 0.038273409 0
200 11.941204 0.039854694 0
200 10.721207 0.041186657 0
200 18.631914 0.044540044 0
6 15.254793 0.045262095 0
7 16.522446 0.041806646 0
5 17.10504 0.045527928 0
200 19.556103 0.050436918 0
200 19.801849 0.05198326 0
5 18.876675 0.046640702 0
200 19.635939 0.048870776 0
200 18.665848 0.054114219 0
200 18.481501 0.06119369 0
200 18.251678 0.057152603 0
7 19.09885 0.065896519 0
200 20.556644 0.059152093 0
200 18.193705 0.063488141 0
7 14.028394 0.052510615 0
200 15.031923 0.03756658 0
4 17.454786 0.03361477 0
4 14.489503 0.036829822 0
200 13.019348 0.041760601 0
5 14.56041 0.043310009 0
200 13.191395 0.042099524 0
200 15.185272 0.052869219 0
200 16.561779 0.048020028 0
200 18.99029 0.055158429 0
200 15.761883 0.048743941 0
6 15.51558 0.064865738 0
200 11.565928 0.062978029 0
10 19.241304 0.043109834 0
14 14.451458 0.042080872 0
200 9.6100607 0.041183267 0
200 14.313306 0.040353052 0
4 12.16136 0.043142475 0
4 12.472285 0.043711983 0
6 18.651217 0.042219725 0
200 20.45298 0.039616216 0
6 19.405146 0.050166 0
200 20.845345 0.054994404 0
10 32.570728 0.069241464 0
10 47.896229 0.055226065 0
10 41.61414 0.069890864 0
200 47.798225 0.064650282 0
200 43.533012 0.052936062 0
200 43.187164 0.06361796 0
200 35.623627 0.058469996 0
200 43.116184 0.053400237 0
8 46.913181 0.057969857 0
7 44.931316 0.077232838 0
7 40.879314 0.075369842 0
12 42.740276 0.087897114 0
200 41.97773 0.083916754 0
16 37.855034 0.093528062 0
200 48.737614 0.056284856 0
8 44.897465 0.049854975 0
200 54.251896 0.065130815 0
8 47.352276 0.10063624 0
200 36.853207 0.086205721 0
200 37.445011 0.090331107 0
9 36.036774 0.092397436 0
200 36.990871 0.099699862 0
200 41.842003 0.067757718 0
200 37.134373 0.060461793 0
200 42.015251 0.065844752 0
200 38.295639 0.061616875 0
9 44.236916 0.064632401 0
200 38.623207 0.070338972 0
200 45.556709 0.057089567 0
7 44.391563 0.058409803 0
7 39.116295 0.055918023 0
200 33.339222 0.057828341 0
200 48.21994 0.05988948 0
8 46.425114 0.057473224 0
6 45.977757 0.05641662 0
13 41.228767 0.051145401 0
200 55.132854 0.050904199 0
5 56.750904 0.054560773 0
200 64.187828 0.047069073 0
22 46.400398 0.049784191 0
6 45.752525 0.044422548 0
200 54.75745 0.048868336 0
6 58.018661 0.042737335 0
200 52.433701 0.046160914 0
200 45.876877 0.043945987 0
5 49.113838 0.04476377 0
200 54.908234 0.041768797 0
200 45.719177 0.039992083 0
6 58.23447 0.042784687 0
16 53.89727 0.042547841 0
200 45.09642 0.048095211 0
200 49.745632 0.050354309 0
200 45.432457 0.045618385 0
200 50.314213 0.058064498 0
200 46.782166 0.044903837 0
200 45.916595 0.062733024 0
10 38.743935 0.052253902 0
200 36.895527 0.062818617 0
9 35.218132 0.066159256 0
200 32.559059 0.06699504 0
5 35.17004 0.067763224 0
8 32.977009 0.061118688 0
200 34.8848 0.065715827 0
200 32.220104 0.052474465 0
6 46.644474 0.077964425 0
200 39.145615 0.076470308 0
10 46.218155 0.061681926 0
7 53.81012 0.046231311 0
8 37.728706 0.037221275 0
200 30.64624 0.039262321 0
200 34.482471 0.04505809 0
200 34.701702 0.043334473 0
200 34.97913 0.04842126 0
200 24.447474 0.054383099 0
200 25.114407 0.04721991 0
6 20.899488 0.045077931 0
8 23.519108 0.046498407 0
8 26.271774 0.051248003 0
200 28.257212 0.0499174 0
9 28.842073 0.050790243 0
14 32.076405 0.061759859 0
200 29.86862 0.063944586 0
200 26.755638 0.069546349 0
200 36.613834 0.047934633 0
200 32.813515 0.066837512 0
200 25.839396 0.057540622 0
200 26.096016 0.061140377 0
8 26.134121 0.05582206 0
200 21.278601 0.056056816 0
200 17.269764 0.062846124 0
200 17.244116 0.063350618 0
7 19.207731 0.045941666 0
200 21.435627 0.048835073 0
5 23.106798 0.055965882 0
6 23.108942 0.051023461 0
13 19.838165 0.066077091 0
200 13.127518 0.077026151 0
200 17.671782 0.064200714 0
8 29.447025 0.059387751 0
200 34.169571 0.066421241 0
10 30.419003 0.054412473 0
200 48.187305 0.051032707 0
200 41.422157 0.055101 0
200 53.890598 0.057228431 0
8 44.682594 0.058945488 0
200 51.151138 0.058063641 0
200 51.455917 0.06163599 0
8 52.406853 0.050495349 0
200 45.402004 0.049304772 0
7 50.281734 0.045932073 0
10 32.663559 0.047215607 0
8 38.38063 0.039210156 0
7 26.783133 0.035965528 0
200 27.018341 0.05119494 0
200 14.69237 0.048221204 0
200 10.615328 0.039498094 0
7 13.743042 0.036730893 0
200 15.352404 0.040268444 0
200 15.318789 0.049624078 0
200 12.353914 0.05324335 0
7 11.752653 0.049492463 0
200 14.951132 0.054521207 0
200 16.086935 0.054740418 0
5 23.422153 0.03991751 0
7 25.588573 0.048048969 0
8 19.511345 0.044103455 0
200 20.975578 0.044989485 0
5 23.919104 0.045670424 0
200 21.758667 0.046050586 0
200 15.533589 0.055067576 0
200 21.086498 0.057157613 0
7 25.631773 0.061467018 0
200 25.365202 0.053131141 0
200 18.952372 0.058810677 0
200 31.244448 0.057635467 0
6 41.462761 0.061621077 0
200 41.132668 0.069275074 0
200 43.679485 0.069763556 0
200 32.843235 0.076213852 0
200 38.519131 0.07379654 0
10 49.367073 0.054538283 0
200 38.72036 0.046451092 0
200 34.968723 0.048363019 0
200 41.942516 0.047894206 0
6 42.977539 0.058550864 0
200 34.368965 0.052573986 0
200 30.915958 0.055022195 0
200 23.110704 0.055173181 0
9 24.947083 0.058032971 0
33 22.393629 0.050977044 0
200 13.937764 0.053677984 0
7 14.804242 0.051907822 0
200 15.756605 0.061705045 0
15 14.945313 0.063899055 0
12 14.034643 0.061436776 0
35 14.149872 0.060329806 0
17 17.167923 0.066116452 0
200 20.946671 0.046761513 0
200 21.241503 0.0549093 0
200 20.593893 0.052395783 0
200 18.152037 0.059247814 0
200 19.620779 0.062285855 0
200 22.813297 0.062127784 0
200 29.255047 0.066067725 0
200 28.826233 0.061321232 0
200 26.693106 0.050753444 0
200 23.753267 0.0483477 0
200 25.508526 0.048222069 0
40 20.522156 0.0525329 0
200 27.03627 0.049861304 0
200 30.791143 0.057390627 0
9 22.943632 0.050343279 0
200 25.699863 0.063688986 0
200 33.501709 0.047722612 0
200 23.365049 0.054835707 0
14 19.982155 0.042830557 0
10 20.778706 0.041101925 0
200 17.45293 0.049365956 0
200 14.641012 0.045039132 0
16 16.815216 0.044432905 0
200 19.21258 0.053753428 0
6 18.588915 0.051852167 0
200 17.036816 0.043292426 0
200 16.396957 0.049445689 0
200 18.099407 0.048103061 0
7 16.112354 0.04719618 0
200 20.101051 0.048995018 0
13 16.449154 0.052378498 0
200 14.88677 0.049358174 0
200 15.252454 0.049653221 0
9 14.790551 0.047012117 0
42 14.049561 0.050667934 0
200 14.850144 0.049311608 0
7 15.519533 0.043398343 0
200 19.079927 0.050748963 0
200 22.900923 0.051656388 0
10 22.002323 0.049818363 0
200 24.03266 0.041552361 0
200 27.033203 0.046971679 0
200 29.224239 0.050598089 0
200 27.694864 0.053452246 0
200 39.520222 0.045490056 0
200 37.006294 0.047942951 0
7 39.473942 0.051838532 0
200 52.691254 0.052454852 0
200 51.342049 0.05609864 0
10 68.08979 0.069373965 0
5 60.391029 0.062968686 0
8 60.930141 0.055815823 0
200 56.684204 0.040416576 0
200 50.565483 0.056395188 0
8 54.360813 0.062288154 0
200 50.49342 0.065331809 0
6 63.402626 0.082870357 0
200 45.413479 0.074432366 0
13 46.684277 0.076823078 0
200 45.742882 0.072959743 0
5 37.987289 0.048993394 0
200 46.811005 0.047373123 0
200 44.284969 0.048135657 0
7 42.793003 0.047276743 0
200 45.718575 0.045660373 0
200 42.730606 0.044577595 0
200 53.829514 0.045436554 0
200 56.260895 0.047520351 0
6 50.385857 0.037979394 0
200 51.095188 0.038987286 0
7 53.826759 0.042682096 0
6 51.925568 0.03974938 0
5 53.926262 0.041101288 0
200 48.038803 0.040920075 0
17 50.063362 0.039743889 0
200 47.529217 0.038874138 0
200 44.522346 0.041025937 0
200 43.821251 0.038999517 0
200 42.016582 0.034712538 0
8 44.715919 0.039482836 0
200 46.740841 0.040205516 0
4 49.358395 0.0388324 0
200 44.231018 0.043460198 0
200 46.378826 0.042068679 0
200 46.375309 0.037388504 0
7 49.655739 0.036995757 0
6 50.202984 0.041957665 0
4 47.241558 0.039348308 0
5 40.963593 0.040298741 0
4 46.23534 0.041082639 0
5 54.143574 0.038387384 0
200 51.965534 0.039631952 0
7 49.806484 0.038995534 0
5 55.70528 0.041490488 0
200 50.395031 0.038299933 0
200 41.608482 0.038103573 0
4 44.300461 0.038258124 0
200 50.528374 0.036550779 0
8 49.109974 0.039633941 0
200 44.46936 0.038475607 0
200 51.397049 0.040117245 0
6 40.801205 0.03908008 0
7 43.5653 0.039277799 0
3 48.939129 0.040043849 0
200 44.650154 0.039644726 0
34 47.492218 0.040641543 0
5 42.912807 0.037232026 0
200 40.137135 0.037606105 0
200 48.265049 0.040310238 0
4 44.27261 0.040218785 0
200 46.43758 0.038559832 0
8 51.276466 0.043780599 0
4 47.451851 0.037784692 0
200 46.012985 0.037388023 0
200 46.347416 0.034251191 0
200 46.305096 0.039322246 0
5 49.165863 0.036820538 0
200 47.809452 0.036194846 0
6 44.932888 0.039321307 0
200 51.487377 0.039129205 0
4 47.795078 0.038606521 0
11 50.908165 0.038363092 0
5 52.916698 0.037594717 0
200 46.713081 0.038068999 0
200 53.720654 0.037101138 0
6 56.32103 0.038435787 0
200 52.010067 0.039001185 0
200 44.805561 0.040183157 0
4 55.234352 0.037470192 0
7 51.636677 0.040744945 0
200 44.992031 0.037164405 0
6 42.599182 0.036031932 0
11 51.067825 0.039432991 0
200 47.787243 0.040134639 0
7 47.203579 0.038958799 0
10 48.270458 0.040336821 0
8 50.256153 0.0372223 0
200 41.028698 0.036549237 0
4 44.06498 0.038801931 0
3 49.296516 0.040171348 0
4 43.122589 0.039961789 0
9 48.355034 0.038235463 0
7 45.225559 0.037870895 0
4 42.597809 0.03987962 0
6 55.029152 0.039501876 0
6 43.001331 0.039226037 0
3 46.258026 0.038501408 0
200 44.314396 0.040677615 0
7 48.506744 0.035724796 0
5 45.006702 0.037611935 0
5 43.837017 0.041221973 0
200 49.908169 0.038726684 0
6 44.403145 0.038844638 0
6 36.267719 0.039151505 0
7 43.446732 0.038985949 0
7 44.087444 0.03817784 0
200 40.265701 0.037841398 0
200 43.073196 0.037598852 0
9 47.699516 0.038785614 0
200 46.802444 0.035888597 0
200 46.947433 0.038798202 0
4 46.526577 0.038315576 0
5 50.805225 0.036187738 0
200 40.806446 0.037402324 0
5 43.40659 0.039527223 0
4 45.512581 0.037419144 0
7 48.176418 0.039744962 0
200 51.377979 0.039219856 0
4 41.796093 0.040234435 0
200 51.060329 0.039179966 0
6 45.857338 0.039156396 0
3 39.08329 0.038343076 0
200 52.97261 0.036779296 0
200 44.058533 0.036461834 0
200 44.006996 0.03722968 0
5 41.962532 0.037257452 0
200 43.360016 0.042158067 0
200 48.276318 0.036927994 0
6 49.680573 0.040841516 0
