# .PCD v0.7 - Point Cloud Data file format
VERSION 0.7
FIELDS x y z intensity
SIZE 4 4 4 4
TYPE F F F F
COUNT 1 1 1 1
WIDTH 1188
HEIGHT 1
VIEWPOINT 0 0 0 1 0 0 0
POINTS 1188
DATA ascii
2.1927147 1.4153239 -3.0113416 14.286497
3.3100581 1.2879134 -3.1151836 13.66561
5.5845113 1.434368 -3.0222344 13.325809
5.6069674 1.4018517 -3.0813055 13.226604
-7.3594623 1.7625149 -2.9874666 12.681369
-1.2130723 1.821701 -3.0419083 14.555556
-0.88962394 1.7543141 -2.9883749 14.670588
-0.76752454 1.7068722 -3.0243034 14.833334
2.2684224 1.7489848 -2.9957783 14.177777
3.2841573 1.7394854 -2.9477134 14.75
5.5762668 1.6921369 -3.0726559 14.765958
5.6359138 1.736375 -3.0246696 14.388889
-7.3495927 2.1715453 -2.9882271 14.031354
-0.90976256 2.1051939 -2.9687119 14.833333
2.36024 2.2117376 -3.000869 14.666667
2.4132359 2.2378514 -3.1269023 15
5.5441723 2.0394511 -3.0390589 14.791667
5.6261234 2.1328008 -3.0174563 15
-7.3469601 2.4907668 -2.9728477 14.890322
-0.88332433 -0.062140189 -2.5483105 7
2.1258271 -0.081139758 -2.7988648 7
-6.0751648 0.36883914 -2.5103083 7
-2.8749468 0.38736621 -2.5464215 6
-2.5988529 0.33335084 -2.5733798 7.2800002
-2.1337101 0.37319371 -2.5673406 6.9166665
-1.7182529 0.25124729 -2.6511333 6.125
-1.434384 0.38433704 -2.5989196 5
-0.8719821 0.28452578 -2.6229844 7.1218591
-0.53031975 0.29108143 -2.6833014 5
-0.2060059 0.35864869 -2.613667 5.2104168
0.19396298 0.35782856 -2.5938504 5.4117646
0.55749971 0.27387324 -2.5404637 4.8905172
0.96403319 0.31500354 -2.538022 5.994483
1.2943467 0.33769774 -2.5953102 5.6428571
1.9099795 0.36623389 -2.5696521 6
2.1514845 0.26202187 -2.5697551 7.8071427
3.3561375 0.37593293 -2.5168352 7
5.5958796 0.28572768 -2.4428675 7
5.6158743 0.33058852 -2.7058384 7
-7.4282684 0.68039596 -2.6724734 7.2857141
-6.0673671 0.63911062 -2.5672641 7.3912449
-5.910306 0.78097689 -2.652909 7.1205001
-5.3291268 0.78400832 -2.5814106 4.5833335
-5.0086474 0.73412406 -2.5602126 5.0666666
-4.5891514 0.71828079 -2.5571752 4.7666669
-4.1727324 0.67050219 -2.5787551 4.7600002
-3.8109541 0.63693416 -2.62679 4.6935482
-3.4063394 0.59710008 -2.5998075 4.5185184
-2.9717937 0.54024321 -2.6266229 4.9193549
-2.6144779 0.53172547 -2.629446 5.5555553
-2.2114964 0.49405003 -2.6424079 5.0766668
-1.8029453 0.46130073 -2.6220431 4.6790123
-1.4476639 0.4407945 -2.6398144 4.7647057
-0.90680516 0.63368499 -2.6322346 10.388282
-0.61198223 0.44584608 -2.6209538 5.3872023
-0.21776077 0.41584846 -2.6730397 4.8125
0.20220146 0.43992439 -2.6454279 4
0.63744611 0.42777795 -2.5775065 5.3000002
0.86209041 0.47626853 -2.4918747 7.5888891
1.295985 0.42922592 -2.6810551 6
1.8451064 0.49286979 -2.6109514 7.0714283
2.1616871 0.63943583 -2.6037462 9.6972504
3.3214974 0.62459451 -2.494868 7.7120037
3.7989392 0.52415127 -2.5933719 5
4.191421 0.55338991 -2.5990725 4.8636365
4.576942 0.59189069 -2.581733 4.6418443
4.9684148 0.61039376 -2.6881087 5.8201151
5.4042382 0.63118732 -2.4596715 6.015625
5.6215506 0.7013855 -2.6275461 7.068697
-7.4150147 1.0506895 -2.6203392 8.0093832
-7.0363188 0.98956048 -2.6136751 6
-6.5796061 0.94037998 -2.6412139 6.1932855
-6.0950103 1.0109878 -2.6456616 8.3667727
-5.9142451 0.93616593 -2.6119101 6.9046807
-5.4609599 0.81755108 -2.5680106 5.125
-5.0188298 0.80388862 -2.6373096 4.5
-2.8040857 1.0327542 -2.525876 11
-2.4987025 1.0867759 -2.4689541 11.25
-2.2045717 1.1845316 -2.4229717 11.666667
-0.89476717 0.96188861 -2.6436887 13.45551
-0.79696816 0.92289257 -2.5727456 12.666666
1.9575911 1.0929053 -2.6505849 13.5
2.1685002 1.0497894 -2.6066735 13.041241
3.3008368 1.0232009 -2.5794599 12.895047
5.5748816 1.0334327 -2.5572302 10.459412
5.6125774 0.96196347 -2.7318754 9.4495211
-7.3913069 1.3814251 -2.6021683 10.129666
-2.8401089 1.4414008 -2.4470444 12.5
-2.588891 1.4506658 -2.4103184 12.6
-1.2377931 1.4181836 -2.7642527 12.75
-0.89491326 1.4002132 -2.6156251 13.795653
2.183218 1.3690434 -2.6094155 14.253462
3.2815595 1.3331831 -2.6678007 14.188016
5.5801005 1.3609606 -2.6692646 13.425244
5.6271091 1.3441638 -2.6439393 13.440475
-7.3633523 1.7600424 -2.5746434 12.732772
-1.2617364 1.9425204 -2.6877031 15
-0.87576485 1.7368904 -2.5958261 14.612784
-0.7884168 1.7509952 -2.4745259 14.75
2.2482853 1.7575753 -2.6297863 14.442029
3.2591305 1.6262627 -2.7586095 14.5
5.5338058 1.771883 -2.6217418 14.325001
5.6486354 1.7680278 -2.6041601 14.5
-7.3517456 2.1789093 -2.5793338 14.049999
-0.92516851 2.0615113 -2.5795083 15
2.3874397 2.2514157 -2.6963625 15
2.4142964 2.2552605 -2.6079581 15
5.5065784 2.0118036 -2.7537878 15
-7.3410206 2.4916406 -2.5725207 14.855073
-1.7819791 -0.00084400177 -2.3225875 7
-1.2022994 -0.035262108 -2.3258848 7
-0.87549156 -0.032575957 -2.1987484 7
-0.64518106 -0.02243197 -2.2239139 6
-0.29000688 -0.17326611 -2.2386711 7
-6.0198164 0.39950979 -2.3964329 7
-5.9977732 0.38264605 -2.2904589 7
-5.4529972 0.37145251 -2.2859867 7
-5.1145177 0.36252949 -2.278367 7
-4.5248814 0.37970978 -2.2711158 7
-4.233264 0.37840164 -2.2623777 7
-3.6119556 0.36142021 -2.254241 7
-3.4310627 0.3682493 -2.2668874 7
-2.9533358 0.3109031 -2.2682714 7.181818
-2.5737264 0.27583802 -2.259661 7.2098761
-2.1496329 0.30928183 -2.2566352 7.147059
-1.7800448 0.28095752 -2.2593551 7.0083337
-1.4302679 0.27036279 -2.2230411 7.0791135
-0.9256556 0.27158767 -2.1550517 6.4163284
-0.52393967 0.23156205 -2.2565646 3.6877551
-0.21761343 0.32695845 -2.1765461 4.9142861
0.26126352 0.32207268 -2.217078 5.3333335
0.58451003 0.28937307 -2.1465383 5.5565681
1.008422 0.26901212 -2.2965984 6.8387408
1.4111925 0.32818893 -2.2133343 6.4285712
1.8047836 0.35049644 -2.1263855 6.1999998
2.1511455 0.2621356 -2.1434822 7.2391381
3.3382618 0.31453225 -2.1731951 7
5.5908957 0.3193751 -2.0379293 7
5.637434 0.26312724 -2.3282447 7.25
-7.022665 0.72923636 -2.2826447 8.5
-6.5845666 0.78009593 -2.2463207 8.4285717
-6.0875359 0.65369838 -2.2820191 7.6254725
-5.8184085 0.6761629 -2.2486825 7.6453242
-5.3987327 0.66571921 -2.2466321 7.4396825
-4.9696083 0.68076444 -2.2307498 7.1614981
-4.5979767 0.67556614 -2.2250121 7.1660366
-4.1877446 0.65261412 -2.2182693 7.112227
-3.7928843 0.63715756 -2.2152622 7.4149947
-3.4072204 0.62285036 -2.2114234 7.5843439
-2.9811571 0.60696954 -2.2142608 7.7181745
-2.5944939 0.61029005 -2.2075512 8.0670614
-2.1867621 0.60291249 -2.1995757 8.2616434
-1.7983397 0.58954078 -2.19751 8.4271374
-1.4058679 0.60423356 -2.1547792 9.1012106
-0.95805955 0.57337636 -2.1646979 11.130333
-0.71320575 0.51448554 -2.2318325 7.75
-0.17026448 0.41311064 -2.2337046 4.458333
0.19069836 0.40232447 -2.2473967 5
0.6423099 0.55894679 -2.1399944 10.608887
0.97051883 0.58665544 -2.2991199 9.1267834
1.3474731 0.50904506 -2.2114408 8.7129316
1.8960114 0.57505834 -2.267302 8.3000002
2.1699059 0.59721106 -2.141746 9.9772406
3.3102005 0.63833708 -2.1201031 8.570466
3.7525387 0.48259625 -2.0402458 4.9950247
4.1529012 0.51058149 -2.0505614 4.869565
4.5586696 0.55725616 -2.209342 4.6666665
4.9640226 0.57513326 -2.2099471 4.975379
5.49752 0.63362473 -2.2823308 6.5086908
5.6115804 0.68283862 -2.3329759 7.0483665
-7.3563948 1.0248454 -2.2864499 8.1424847
-6.9847007 1.0373842 -2.2314336 8.2253084
-6.6220465 1.052438 -2.2220678 8.9555435
-6.1724038 1.0175054 -2.2323217 9.0369606
-5.8305006 1.0002317 -2.2132258 8.7501354
-5.3801274 0.97547901 -2.1979849 9.061018
-5.0026641 0.9732936 -2.1922662 9.6559048
-4.6086926 0.98597127 -2.1878369 10.292746
-4.1977129 0.9940573 -2.1786113 10.944638
-3.7862349 1.0158892 -2.1686962 11.679711
-3.4014416 1.0083899 -2.1640081 11.859446
-2.9843547 1.0094391 -2.1577332 12.164129
-2.5923119 1.011649 -2.1544948 12.179184
-2.1953323 1.0209661 -2.149379 12.374331
-1.7911575 1.0052595 -2.1482513 12.246358
-1.3941778 1.0131729 -2.1238556 12.802494
-0.96488148 1.0078806 -2.1993124 12.643036
-0.72798157 1.1332523 -2.2065444 11.666667
0.66726756 0.96320617 -2.1592517 13.583587
0.97145557 0.96005845 -2.2560501 12.455052
1.3478242 0.87868106 -2.1464822 10.373275
1.9535538 1.0646245 -2.143204 13.083333
2.1713977 0.96717554 -2.1313796 13.448944
3.2846737 0.97962427 -2.1765656 13.740169
5.5849581 0.97160012 -2.274276 10.360759
5.611136 0.93026054 -2.3097043 9.9241076
-7.3366594 1.3611088 -2.2580702 10.180517
-6.9887176 1.4004775 -2.1938739 10.886668
-6.5857482 1.4187888 -2.1840663 11.780149
-6.1970949 1.3838139 -2.1747894 11.893539
-5.8120728 1.4004278 -2.1669662 12.603426
-5.3815765 1.3622581 -2.1654632 12.718853
-4.9922605 1.3688586 -2.1620443 12.927818
-4.594418 1.3589574 -2.1578681 13.433903
-4.2034998 1.3765556 -2.1542909 13.674455
-3.8136954 1.3749088 -2.1459608 13.845186
-3.4148235 1.3838519 -2.1362386 13.963693
-2.9855824 1.388658 -2.1195757 13.682608
-2.582989 1.4133255 -2.1070955 13.674662
-2.172004 1.4133285 -2.1079454 13.577443
-1.778288 1.4017515 -2.0970902 13.436704
-1.4246902 1.4037615 -2.086786 13.713771
-0.95308584 1.3918635 -2.1766608 13.799092
-0.75483942 1.5664712 -2.1976829 13.5
1.943979 1.2731866 -2.1710491 15
2.1807261 1.3529589 -2.1877432 14.28126
3.2550004 1.36353 -2.2219706 14.157828
5.5663104 1.3093591 -2.2847519 13.614205
5.6340904 1.3747463 -2.3260076 12.5
-7.314023 1.7604495 -2.2413247 12.699351
-6.9923215 1.7872454 -2.1426101 13.107465
-6.5895386 1.8080633 -2.1413732 13.387903
-6.1903877 1.8020623 -2.1345499 13.63342
-5.8070378 1.7949793 -2.1297674 13.989722
-5.3860035 1.7683753 -2.1313376 14.070943
-4.9994192 1.7634609 -2.1251607 14.283067
-4.6122665 1.7527933 -2.135211 14.502831
-4.2238107 1.7194983 -2.136759 14.55729
-3.8007751 1.7144405 -2.1321998 14.475631
-3.3956492 1.7331523 -2.1110592 14.557895
-2.9670973 1.7486616 -2.0857682 14.42
-2.5785439 1.7713779 -2.0757539 14.313889
-2.1594105 1.752954 -2.0738578 14.209909
-1.7742076 1.7114984 -2.0502155 14.426102
-1.4405262 1.7019145 -2.0365055 14.638463
-0.91533744 1.7378021 -2.1614285 14.533189
-0.78734142 1.7328678 -2.1345189 14.75
2.1848667 1.6797552 -2.1669204 14.70238
3.2325587 1.6050092 -2.1868942 13.75
5.5136385 1.7918618 -2.2284255 14.475718
5.6334324 1.6964467 -2.2819374 14.5
-7.3278904 2.1769476 -2.2288246 14.027248
-7.0190649 2.1679478 -2.1132126 14.351398
-6.614543 2.1773467 -2.1091397 14.52
-6.1911297 2.1547885 -2.1020713 14.620741
-5.8074803 2.136411 -2.0857387 14.658174
-5.39643 2.12798 -2.0631146 14.684763
-5.0364838 2.0652895 -2.0259898 14.50225
-2.9310994 2.191653 -2.1033359 14.6
-2.5921741 2.1698163 -2.0977423 14.714286
-2.2006595 2.1780264 -2.0723424 14.690475
-1.8113389 2.2846682 -2.0045462 14.5
-0.90201074 2.0308919 -2.1250949 15
5.4519958 2.0843012 -2.0427012 15
-7.3352242 2.4942558 -2.203162 14.800595
-7.0231304 2.487149 -2.0860529 14.888889
-6.6804757 2.4526885 -2.0749564 14.875
-6.2982469 2.4820216 -2.0253541 15
-5.9531751 2.4632821 -2.0133448 15
-1.7170964 -0.059974033 -1.8228313 7
-1.430608 -0.07489875 -1.9242193 6.9538465
-1.0145183 -0.056030322 -1.8980696 7
-0.61065406 -0.035019636 -1.8996342 7
-0.18195558 -0.041918039 -1.6978307 7
0.028283954 -0.068493843 -1.6486492 7
0.63433295 -0.012223472 -1.7868778 7
0.92318672 -0.0094530778 -1.7200069 7
1.41339 -0.017637918 -1.8440804 6
1.677492 -0.019844342 -1.6236283 6
2.1423914 -0.01374469 -1.8245709 7
-1.7184852 0.25186309 -1.7592223 7.7568011
-1.4929239 0.23673612 -1.9058118 7.0998096
-1.0391114 0.22991633 -1.928695 7.142622
-0.62103099 0.19145414 -1.7771621 5.2541823
-0.21824943 0.23944931 -1.7720658 5.5263157
0.17689261 0.24961206 -1.7970475 5.6608696
0.68542147 0.25522777 -1.8080257 7.1585441
0.93502694 0.22658284 -1.7505397 6.8647289
1.2554129 0.18640895 -1.7425294 5.06599
1.7041932 0.049093638 -1.6425785 6.090909
2.1628728 0.24177435 -1.7619265 7.3314681
3.0244794 0.21040428 -1.9058065 7
3.3317556 0.36762396 -1.7226095 6.7666664
3.7944174 0.37720713 -1.7344165 6
4.1559329 0.38860321 -1.666976 6
5.5437994 0.26870218 -1.7883345 7
5.6770668 0.24127232 -1.9042089 7
-1.6923051 0.64497107 -1.7965131 12.741881
-1.4239578 0.66056168 -1.9376479 12.536114
-1.014099 0.64508313 -1.9553221 12.87353
-0.67449456 0.55873322 -1.9429944 7.5
0.67112285 0.5306161 -1.8625456 12.545924
0.88491136 0.56010234 -1.7655406 12.212662
2.1671622 0.58160794 -1.755007 10.288717
2.8037188 0.53443885 -1.8249784 8.6365004
3.2947013 0.60001868 -1.7117012 8.658946
3.7422864 0.44679397 -1.6565237 4.1157894
4.146606 0.47604907 -1.7415197 4.3651686
4.5646839 0.50479913 -1.7597687 4.7869701
4.9387794 0.53272653 -1.7460192 4.9685187
5.5607495 0.62724078 -1.8819748 6.7116408
5.6062875 0.62925285 -1.9453321 6.6585364
-1.7154943 1.015631 -1.8213112 13.833395
-1.3934878 1.0327708 -1.9406037 13.232018
-1.0099514 1.0391331 -1.9432096 13.448049
-0.73006892 0.96238315 -1.9821405 11
0.56169742 0.95929527 -1.9319844 13.564285
1.0705687 0.84771353 -1.8387214 12
2.1693368 0.92730767 -1.7442828 13.351457
2.7893465 0.87257755 -1.7818089 10.1365
2.9559202 1.1153865 -1.9666839 11
3.2674837 0.96035874 -1.8309951 13.836112
5.5661712 0.98469514 -1.86316 11.327757
5.6296844 0.92791224 -1.8748493 10.8
-1.7230003 1.4123368 -1.8237742 14.622996
-1.4072974 1.3925427 -1.9454098 14.667171
-1.0439754 1.4081374 -1.9547733 14.5
-0.7522732 1.386734 -1.8926332 12.75
1.9586741 1.2872615 -1.993732 15
2.1797864 1.3326554 -1.7920104 14.085729
3.1103678 1.410015 -1.804325 13.666667
3.239027 1.3511387 -1.8205481 14.160901
5.5489173 1.283456 -1.8795326 13.882676
5.6184893 1.371724 -1.9174616 13.2
-2.864861 1.8292831 -1.9847682 14.5
-2.5955505 1.8641245 -1.9788193 14.792857
-2.1255713 1.866233 -1.9816346 14.666667
-1.7694464 1.8607632 -1.9502345 14.793334
-1.4734721 1.7949687 -1.9741738 15
-0.97240019 1.8064867 -1.9704338 14.725
-0.77803731 1.8288958 -1.7447839 14.5
2.1693828 1.7120177 -1.8412993 14.642858
2.9363663 1.6750596 -1.8663049 13.5
3.2123747 1.8306299 -1.7880625 15
5.4976392 1.7670723 -1.8221401 14.33063
5.6145067 1.6713684 -1.7535169 15
-2.8851023 2.3809593 -1.9949765 15
-2.5430605 2.2511799 -1.9570714 15
-2.1680176 2.1764736 -1.9567922 14.833333
-1.8554668 2.0966594 -1.9790558 14.9
-0.89028788 2.1191123 -1.9478922 14.833334
2.9235168 2.0201507 -1.8092027 15
5.4613495 2.0786445 -1.7917534 14.928572
-2.9588904 2.4844947 -1.9798284 15
-2.5433726 2.4128122 -1.9741254 15
-2.1947322 2.4824224 -1.9739857 15
-1.7331356 -0.072152697 -1.4355044 6.9666667
-0.60569835 -0.032724101 -1.3259763 5.6666665
-0.24373093 -0.03312999 -1.3463805 6
0.25021461 -0.028594958 -1.3093039 6.3333335
0.61466825 -0.024407854 -1.2668182 5.4444447
1.0625799 -0.039193109 -1.373657 6.5
1.8161831 -0.017359383 -1.4003972 6
2.1137218 -0.0035411939 -1.2792084 6.833333
-1.7325796 0.22438729 -1.4300503 7.3571167
-1.5256084 0.17759687 -1.5040649 5.3265152
-1.0727303 0.16565065 -1.4606932 3.2962184
-0.59636492 0.11660166 -1.3701468 4.5632181
-0.24564873 0.12273526 -1.405462 5.4074073
0.2004431 0.1170439 -1.4293886 5.6428571
0.59584892 0.10031903 -1.3446125 5.2083335
0.89794236 0.15075245 -1.2795936 4.2325583
1.2973702 0.1402455 -1.2918457 5.1065574
1.8227091 0.017253589 -1.3614665 6.1578946
2.1577544 0.21987227 -1.3637186 7.3876162
2.5929618 0.034024954 -1.4194779 7
3.3233595 0.35378203 -1.368055 6.5949583
3.7924016 0.36642998 -1.3982999 5
4.2140951 0.36519739 -1.3583859 5.8333335
4.5406208 0.39005306 -1.3899618 6
4.8488855 0.3987408 -1.2601645 6
5.5534744 0.29708102 -1.490732 7.3000002
5.6242838 0.26009583 -1.4184248 7
-1.7313807 0.62576902 -1.4688388 13.021714
1.9412189 0.59837294 -1.5220108 9.1000004
2.1663291 0.60167617 -1.3385785 11.17153
3.2704723 0.61444008 -1.37128 10.175899
3.7315316 0.42457938 -1.5815134 4.0588236
4.1587563 0.45808664 -1.549718 4.0495868
4.6177158 0.4707447 -1.3450948 4.1660209
4.9551554 0.49608156 -1.3908861 4.7684383
5.5467148 0.59667277 -1.4650997 6.7052755
5.6241231 0.53739077 -1.464075 8
-1.7642224 1.033561 -1.4295373 13.637981
1.9469678 0.95650345 -1.5121627 12
2.1648419 0.92639416 -1.3543911 13.414617
3.2485249 0.94729662 -1.4315504 13.673804
5.5487676 1.0174913 -1.4788499 12.558716
5.6275101 0.92752802 -1.5600939 11
-1.7820394 1.4043592 -1.4358315 14.715592
1.9637188 1.3291816 -1.3919592 14.666667
2.1708519 1.3509908 -1.4015027 14.177164
3.1860106 1.4021682 -1.379719 14.203703
3.2235916 1.3200144 -1.4500643 14.236842
5.5216217 1.3543203 -1.4085467 13.846246
5.6076498 1.354851 -1.5239522 13.5
-1.8654184 1.672412 -1.401504 15
2.1577065 1.7294525 -1.3995402 14.572916
3.1877522 1.6459265 -1.3790674 14
3.2205153 1.6043935 -1.4575028 13.5
5.4872885 1.7964866 -1.4570391 13.898031
5.4617844 2.0944214 -1.3859345 14.952643
-1.7512693 -0.067689084 -0.9979282 7
-1.3844056 -0.016125992 -0.91230577 6
-0.95448363 -0.031730264 -0.97363245 5.5
-0.61706048 -0.031270549 -1.0113037 4.8333335
-0.28773537 -0.022504196 -0.94593167 3.6666667
0.16962194 -0.019350128 -1.0543679 6.5
0.60269338 -0.020942243 -0.97079915 5.1153846
0.99158865 -0.01599591 -1.012236 5.4285712
1.3782167 -0.039167721 -1.0252813 6.4444447
1.7580204 -0.049652126 -1.0515451 6.6666665
2.0568905 -0.066712521 -0.99536794 6.8333335
-1.743144 0.21058716 -1.013857 7.6620827
-1.4687146 0.13411257 -1.0954553 5.0508475
-1.0486475 0.12767635 -1.0982407 4.1961641
-0.63541013 0.063130952 -1.0056775 4.567647
-0.27423525 0.10163742 -0.98002541 4.2380953
0.18641673 0.1265405 -0.99305725 5.181818
0.62565255 0.068597905 -0.96825123 4.8240743
1.0385116 0.10189688 -0.85633278 4.7316236
1.2530385 0.11515329 -0.8908875 5.2291665
1.7673914 0.06773863 -1.0116199 6.1555557
2.1591349 0.20425527 -0.95858836 7.5208416
3.3267815 0.35536715 -0.96966773 6.115624
3.7374561 0.34494635 -0.98830926 5
4.1393247 0.358381 -0.98058671 5.3333335
4.5560975 0.37030572 -0.9457128 5.6666665
4.9364343 0.37367207 -0.90505219 5.75
5.4973693 0.28337777 -0.98678732 7
-1.7409539 0.61123067 -1.0236171 13.105308
1.961908 0.57848668 -1.019241 8.9666662
2.1678495 0.62096554 -0.91881633 11.868382
3.2515807 0.60531926 -1.0002478 9.9602938
4.2220316 0.42214158 -1.0452951 3.8571429
4.6148152 0.43918821 -1.0377427 4.594203
5.0904593 0.47480592 -1.0879843 4.7566409
5.5099311 0.57941347 -1.0736926 6.9506688
5.6078386 0.56998777 -1.0885675 9
-1.7651279 1.0153661 -1.0050138 13.800268
1.9732833 1.0176731 -1.0777878 12.1
2.1617303 0.96042049 -0.97154796 13.574378
3.1939237 1.1328245 -0.97627115 11.785714
3.2301328 0.96355492 -1.0069189 13.222589
5.5330873 0.98244917 -1.0805786 12.937926
5.600708 0.91910684 -1.1499276 11.2
-1.7885826 1.3765941 -1.0331208 14.737654
1.9714193 1.3553884 -1.0635591 14.527778
2.1809864 1.4205348 -1.0162065 14.107618
3.1754889 1.3891137 -0.97147983 14.021739
3.2117238 1.3684151 -1.0341592 13.5
5.4901228 1.3573431 -1.0049653 14.211098
2.1605425 1.7845298 -1.0075624 14.858974
3.1883276 1.7825692 -0.98178649 14.25
5.4688945 1.8194873 -1.0279292 14.584249
5.4137802 2.1340401 -0.87662959 15.084249
-1.7491174 -0.03911281 -0.52530956 7.0749998
-1.2959466 -0.026344998 -0.5728941 5.4615383
-0.99336606 -0.020749038 -0.601825 4.5
-0.64687157 -0.025425166 -0.64018446 4.2727275
-0.21078174 -0.041356951 -0.52914226 6.1999998
0.18446796 -0.02594783 -0.57290924 6
0.65286857 -0.016844893 -0.62389588 4.5588236
0.92498821 -0.016830141 -0.53000498 4.5789475
1.2852621 -0.02434638 -0.54477543 5.3333335
1.7971481 -0.046661783 -0.67663288 6.5
2.1428597 -0.058207236 -0.59486502 6.9000001
-1.7464958 0.19061556 -0.62292022 7.7404976
-1.3326119 0.086888403 -0.68189812 5.0330577
-1.068373 0.082870103 -0.66290909 4.501163
-0.74161333 0.081102408 -0.63383472 4.0707073
-0.23406361 0.075525947 -0.51837283 4.5882354
0.16650976 0.06811744 -0.43879583 4.1203704
0.61716092 0.08111427 -0.63241804 4.2133703
0.95883924 0.067728691 -0.49672559 5.053719
1.3798826 0.029611781 -0.59267801 5.8421054
1.7942797 0.037994426 -0.60873073 6
2.1422975 0.21015689 -0.54534769 7.9076447
3.2804627 0.33523718 -0.57958734 6.2575164
3.7534924 0.29557681 -0.5772987 5.1578946
4.1666636 0.34656981 -0.59852368 4.521739
4.5427699 0.37049213 -0.57254875 4.7666669
4.8910303 0.38714448 -0.45930845 3.601449
5.4641457 0.29507998 -0.53203696 6.6666665
5.6011381 0.26719469 -0.74383855 7
-1.7455524 0.57788509 -0.62092972 12.831972
-0.56216162 0.74578953 -0.41675526 3
-0.31650987 0.75007564 -0.54313725 3
2.1635675 0.63409662 -0.50993097 12.27207
3.1974025 0.7966758 -0.43368244 9.5
3.2344086 0.60664153 -0.60478777 10.532699
4.2511692 0.41006064 -0.67651594 4
4.5722904 0.42171595 -0.68217158 4.875
4.8971548 0.42725077 -0.60686946 3.6592765
5.4509783 0.55789858 -0.68091297 6.9654627
-1.7694854 1.0124712 -0.63299507 13.604155
1.9331658 0.9791919 -0.78054476 12
2.1668098 0.94708639 -0.58800572 13.00155
3.1891439 1.0328338 -0.55296278 12.349817
3.2197504 0.89776033 -0.62251973 13.606673
5.5138059 0.98087287 -0.6802814 13.583521
-1.7987132 1.3596644 -0.64608932 14.64375
1.9304504 1.3447678 -0.74476266 14.5
2.1841707 1.432955 -0.58928525 14.027632
3.1640158 1.3480706 -0.59485096 14.138889
5.476902 1.3633536 -0.61143059 14.480437
-1.7866688 1.691794 -0.50725794 13.5
2.1531284 1.7966105 -0.55103225 14.8125
3.1622014 1.7166317 -0.70185781 14
-1.8097606 2.1576025 -0.43040514 15
2.0907242 2.073278 -0.40002966 15
5.4278011 2.1812165 -0.59552622 14.842834
-1.7204913 -0.045861091 -0.17347847 7.2083335
-1.3855972 -0.023906525 -0.2013761 5.3859649
-0.98582286 -0.029943751 -0.1553711 4.4347825
-0.63956976 -0.038762264 -0.19748835 5.4285712
-0.19935095 -0.031814422 -0.1264403 5.3333335
0.2774356 -0.018655421 -0.21227983 5.1794872
0.60340083 -0.016963499 -0.23579304 5.2307692
0.96447498 -0.01697675 -0.18386555 4.3928571
1.3872947 -0.023882573 -0.22403699 5.3103447
1.7901329 -0.03382175 -0.12074243 6.1999998
2.1149821 -0.063495472 -0.236296 6.875
-2.0158601 0.35346001 -0.20164967 9
-1.7462889 0.21964416 -0.2278768 8.4392033
-1.3294052 0.0077164154 -0.19289829 5
-1.0364202 0.055852614 -0.31655207 4.9583335
-0.65390986 0.047407486 -0.19835082 4.7484989
-0.23916048 0.063560441 -0.36958957 4.0733943
0.17925061 0.037104271 -0.088871688 4.9012346
0.589149 0.050285053 -0.23611432 4.8518519
0.96933228 0.036242809 -0.25223863 5.2941175
1.4013528 0.032230861 -0.16335326 5.8095236
1.8302253 0.040835034 -0.085777074 6.0108814
2.1574087 0.22164886 -0.17191276 8.2347746
3.2680771 0.30237159 -0.18809743 6.2554178
3.7658875 0.25925189 -0.20679256 4.75
4.1629477 0.31322467 -0.17422394 4.4166665
4.6794705 0.36613092 -0.14025824 3.3763888
5.0780587 0.38055229 -0.070659533 4.7423611
5.3826504 0.33974698 -0.24631539 6.0735292
-1.7513915 0.62603492 -0.20454501 13.436365
-0.84891909 0.73951459 -0.095500812 3
-0.70963979 0.74292696 -0.28702265 3
2.1606529 0.67202735 -0.14554642 12.892236
3.1970332 0.66504782 -0.13629837 10.173591
3.2173679 0.58494145 -0.18206613 11.104147
4.6936102 0.40605101 -0.21029341 3.875
5.1207938 0.40939301 -0.12602906 4.7457447
5.4703584 0.59239805 -0.31178376 8.0207453
-2.0340691 0.91972625 -0.25514936 10.75
-1.7653408 0.99502593 -0.22266881 13.560053
-1.5958414 0.85357213 -0.0024147034 11
2.1657529 0.99366778 -0.18177116 12.95545
3.1837316 0.97521073 -0.19166873 13.140359
3.2164586 0.88130695 -0.26875097 13.837619
5.4931278 1.0021358 -0.24837378 14.395276
-2.0544164 1.319066 -0.19032025 12
-1.7940216 1.3644729 -0.24851274 14.220312
2.1757908 1.4365135 -0.19500566 13.980952
3.1501606 1.3484714 -0.20532002 14.279999
3.2093036 1.3556079 -0.26480341 12
5.4537678 1.3740456 -0.21003824 14.468301
-2.0639029 1.8010529 -0.26499677 13.5
-1.787728 1.7870517 -0.20841646 13.666666
2.1752353 1.7384489 -0.14010996 14.813518
3.1595321 1.7689111 -0.19294289 14.071428
5.4184222 1.6070919 -0.12331247 13.8
-1.7831961 2.0415742 -0.21196063 14.5
3.1718199 2.1088374 -0.28613853 15
-2.0201325 -0.0064243078 0.047692299 8
-1.7342099 -0.042014666 0.19255255 7.2307692
-1.3665358 -0.022845142 0.1869456 5.3333335
-0.97244316 -0.023842376 0.20113289 4.6710782
-0.61302555 -0.042571623 0.18789904 4.9333334
-0.13298814 -0.077168122 0.22123989 6.1111112
0.16816036 -0.026900694 0.27413878 6
0.54258007 -0.024707174 0.16185954 4.78125
0.99205035 -0.022207676 0.20650403 4.4250002
1.4635096 -0.017207155 0.26138458 5.6144576
1.6114386 -0.050030321 0.25857201 6.25
2.1290491 -0.036165964 0.20065548 7.0416665
-2.0318861 0.3214016 0.092129707 9
-1.7492248 0.19912615 0.18711051 8.3877897
-1.3354034 0.0084976032 0.1641174 5.1111112
-0.99162769 0.0049066218 0.24948362 4.1999998
-0.53229117 0.0026714988 0.37848204 4
-0.21367492 0.027807653 0.028359855 5
0.16935302 0.027935514 0.020376511 5.0943398
0.58264959 0.019226925 0.20691282 5.5151515
0.97810686 0.020455891 0.18177925 5.5
1.4458436 0.018198071 0.28119567 5.804348
1.6452898 0.034431834 0.20431361 6.0585365
2.1526918 0.20547937 0.25620189 8.2774439
3.1953971 0.32422927 0.28846225 6.8888888
3.2345843 0.30636737 0.18546137 5.5851846
3.8081768 0.22460978 0.20258856 4.9814816
4.1939468 0.29781723 0.29172003 3.2625
4.5392351 0.33061329 0.21134244 3.4865532
4.8933158 0.34972203 0.24675801 4.7094173
5.4091396 0.33561984 0.23192669 6.4189396
-1.7535336 0.64187276 0.19391124 13.397355
-0.95645261 0.73473954 0.23032501 3
2.1519952 0.67044526 0.26694635 12.921517
3.1909754 0.58008677 0.28165439 12.406855
3.2077029 0.54678786 0.093319029 12.039921
5.125432 0.41132444 0.060629755 5
5.4973407 0.59758854 0.091727488 8.6552496
-2.0669575 0.8133797 0.19000244 10.5
-1.763484 1.0168668 0.18011974 13.68582
2.1453969 1.0097603 0.22868541 12.47235
3.1719348 0.92344832 0.20426561 13.198279
3.2104058 0.82268512 0.00039124489 14.666667
5.4745097 0.9817335 0.14756876 14.183469
-2.0835023 1.3124572 0.25523949 12
-1.7781965 1.3556881 0.17445561 13.946192
2.1465566 1.409236 0.20837069 14.027135
3.139446 1.3123404 0.19968435 14.18116
5.4282842 1.3790506 0.20151931 14.353518
-2.1065581 1.8164454 0.1984868 13.5
-1.7782689 1.8029276 0.23186816 13.5
2.1413426 1.7580391 0.17161627 14.722222
3.100646 1.7402774 0.21955502 14.625
5.393889 1.7864133 0.23488288 14.694805
-1.8073626 2.2736754 0.32571507 14
2.0807817 2.012418 0.22785139 15
3.1613073 2.0953674 0.0050778389 15
5.4249225 2.1629078 0.27097845 14.768201
-1.7410226 -0.047522206 0.60552669 6.9305553
-1.384057 -0.028290253 0.57131773 5.8666668
-1.0037714 -0.038717575 0.71060598 5.4527779
-0.64730543 -0.04779217 0.66466099 4.5862069
-0.23872919 -0.060321506 0.62777203 4.7272725
0.21861941 -0.049131375 0.64729905 5.75
0.66203892 -0.047583591 0.67418247 4.8282828
1.0268768 -0.030984232 0.65076828 5.6076388
1.367636 -0.0261898 0.49800485 5.5915494
1.6314235 -0.0030279681 0.67429209 5
2.1307516 -0.050831739 0.70125061 6.98
-2.0639505 0.28425455 0.43098736 9
-1.7476294 0.18940316 0.5752936 8.478529
-1.3067662 0.0081033977 0.62688929 5.125
-1.0693197 0.0038888343 0.53188509 5
-0.67075819 0.0094063021 0.63078898 4.6666665
-0.31233531 0.0045763329 0.71114099 4
0.26430073 0.0082950015 0.63603681 5.8571429
0.6514982 0.013635772 0.5789296 5.1594205
1.0158836 0.0092266379 0.57191855 4.8333335
1.3930244 0.020297391 0.5534938 5.3777776
1.8158207 0.10620779 0.64969987 6.4117646
2.1513445 0.1871566 0.66408396 8.3574629
3.1923733 0.29029477 0.68461907 6.4274092
3.2313106 0.25675651 0.64863908 6.0686378
3.8451827 0.20268497 0.58594626 4.8461537
4.2085047 0.26843861 0.6995526 4.9023256
4.4726992 0.29177415 0.6173923 4.8485665
4.8804731 0.32776317 0.48770693 4.9890742
5.4279933 0.3439002 0.58389282 6.4693003
-2.0744443 0.62393486 0.47369957 10
-1.7570044 0.63557291 0.61079621 12.897582
-1.5869293 0.66645968 0.40632439 10.5
1.9476076 0.71830314 0.66018254 10.444444
2.1499915 0.64554805 0.65751439 12.905901
3.1743314 0.57972109 0.6951198 12.082956
3.2147486 0.50710374 0.61725783 12.281573
5.481595 0.5721975 0.49850664 8.6802845
-2.1115994 1.1359398 0.57753563 11.5
-1.765077 0.99337727 0.62371135 13.145212
1.9165745 1.1031491 0.78166509 12.333333
2.1487656 0.93923962 0.70957625 13.979832
3.1554456 0.92027366 0.61892438 12.9316
3.2228436 0.81412524 0.76897717 10
5.4569969 0.97620124 0.51887518 14.030067
-1.7789602 1.3544726 0.62162 13.80719
1.938731 1.3588202 0.5574553 13.75
2.157027 1.4099554 0.56844395 13.912028
3.1229718 1.316931 0.5942573 14.333334
5.4142065 1.3725754 0.59638762 14.285534
-2.1387124 1.6567075 0.66340637 13
-1.7908492 1.8074598 0.65710622 13.690476
2.1443121 1.7580392 0.56028593 14.677778
3.0931938 1.7710034 0.57901096 14.666667
5.3819771 1.7660367 0.61592001 14.928572
-2.1657577 2.0116391 0.73777008 14
2.073848 2.0887642 0.56029671 15
-1.7531323 -0.03195072 0.99119258 6.9690914
-1.2955294 -0.025648003 0.95923841 5.5
-0.95200413 -0.042418342 0.88591218 5.6234374
-0.54915744 -0.053005695 0.94993997 5.663095
-0.14736131 -0.057442136 0.97463816 5.5704226
0.22531216 -0.05610808 0.95393938 5.7293234
0.60716534 -0.048239358 0.89731455 5.7512255
1.0114735 -0.033193182 1.0026374 4.769608
1.3524655 -0.014533214 0.95264399 4.7549019
1.8350866 -0.09212818 1.0771825 6.1999998
2.1361074 -0.02759913 1.0539649 6.9904761
-1.7571458 0.18083426 0.98000097 8.5526218
-1.3900939 0.044857621 1.0224333 6.3571429
-0.98840684 0.0073032407 1.0131989 5
-0.50015104 0.0082334643 1.0355767 5
-0.25115997 0.0076802908 0.95698291 4.8000002
0.2373078 0.0040733181 0.97528362 5.5
0.63838285 0.019497504 0.99551809 4.8235292
1.0235051 0.029275136 1.0027504 4.9193549
1.3971161 0.028795324 1.0164726 4.375
1.8078805 0.074358203 0.95472813 5.5688033
2.1438415 0.20887505 1.0476229 8.6585617
3.1729307 0.27062976 1.1034503 7.0743308
3.303678 0.1979284 0.97178596 5.3496027
3.8370972 0.17100583 1.0238217 4.6111112
4.2064729 0.21616137 1.0164253 4.4784312
4.5749764 0.25884742 0.99319917 4.65942
4.9702969 0.28928584 0.99202913 5.189189
5.4560604 0.35969317 0.95137894 6.5986423
-1.760938 0.62875599 1.0019345 12.653041
-1.5424042 0.51893604 1.0024943 10
1.9681259 0.70829177 1.0717214 10.58
2.1502638 0.61528075 1.0715866 12.719105
3.1563501 0.63157791 1.0363837 12.724348
3.2160265 0.60944116 0.9392125 10.206166
5.4596753 0.60542786 0.93147725 9.4693289
-1.7674131 0.96603525 1.0309736 13.075416
1.9699678 1.0975287 1.0347862 12.513334
2.1440876 0.96291625 1.072641 14.006665
3.1431601 0.88282466 1.0160711 13.464955
3.2054751 1.006349 1.0362554 10
5.4384141 0.96592695 0.93618035 13.72244
-1.7744488 1.3890021 1.0218174 13.608447
1.9552282 1.5369207 0.92229569 14.541667
2.1477208 1.3886487 0.99976259 13.61305
3.1147382 1.325458 1.003074 13.854838
5.403162 1.3470581 1.0068456 14.084557
-1.7733347 1.791701 1.024637 14.179487
2.1588123 1.7337763 1.0087271 14.676924
3.1032107 1.8136753 0.99747843 14.083333
5.369 1.7432677 1.0106217 14.825002
-1.7735602 2.0981147 1.0360439 14.714286
2.0580382 2.0767014 0.98529124 14.75
5.3340297 2.2134812 0.95273703 14.836833
-1.7617636 -0.051570877 1.4382674 7.0171432
-1.5203422 -0.086288594 1.4461628 7
-0.91692579 -0.071549721 1.5419503 6.7029705
-0.55173641 -0.069175221 1.4925144 6.3865981
-0.18581946 -0.07012789 1.4916471 5.8858399
0.1867792 -0.06318251 1.4167006 5.1999998
0.63438463 -0.048328917 1.3470054 5.0686274
1.0402789 -0.020232182 1.3764106 4.9230771
1.3513685 -0.014583469 1.391835 5.0641026
1.8594149 -0.067786559 1.4317636 6.0869565
2.1390464 -0.059715495 1.5120337 7.0320001
-1.7605039 0.2153604 1.3754034 9.0010519
-1.3896757 0.16773403 1.5096915 8.5512505
-0.90384352 0.02943488 1.5336 6.1999998
-0.61894882 0.020373169 1.4843004 5.9285712
-0.25743198 0.049378604 1.5164014 6.0588236
0.117336 0.037296712 1.5292042 5.6666665
0.68676305 0.019697238 1.3820856 5.0500002
0.98170668 0.030099278 1.4053053 4.7678571
1.4612659 0.030869557 1.3389081 4.3666668
1.7807091 0.07217785 1.406008 5.0156031
2.1382356 0.20566666 1.4170203 8.6399174
3.1647313 0.24811374 1.3567901 6.9907079
3.3963776 0.13420238 1.3939345 4.6047621
3.8150573 0.14627138 1.4197212 4.8000002
4.1915898 0.18154423 1.3756874 4.9053764
4.6009779 0.22031383 1.4948916 5.4757385
4.8622932 0.24533753 1.480072 5.8497725
5.3945732 0.33070257 1.3706793 6.6576033
-1.7644234 0.61521673 1.3953896 12.369512
-1.5407069 0.49140194 1.3548951 10
1.9387932 0.68517637 1.4479678 10.525
2.1412146 0.59490865 1.4422164 12.331108
3.1382203 0.60298568 1.4657446 11.927919
3.2193079 0.76113677 1.2273593 9.5
5.4409804 0.59421933 1.3447571 9.5471163
-1.7689471 0.91672409 1.3882934 14.080741
-1.5181835 0.92131436 1.3902631 11
1.9421949 1.1041087 1.4139012 12.466667
2.1457899 0.94898987 1.4181246 13.96318
3.1235385 0.88618058 1.4603761 13.786455
5.4211397 0.96121353 1.3437754 13.502398
-1.7799737 1.3800303 1.4183985 13.613426
-1.5406022 1.4651765 1.2790365 12.5
1.956037 1.4731643 1.3922067 14.25
2.1573398 1.4091597 1.4160092 13.798788
3.0886977 1.3401562 1.3877984 14
5.392745 1.332559 1.4065803 13.867164
-1.7756913 1.8102816 1.4452261 14.195652
1.9598392 1.6255019 1.5426042 15
2.1525719 1.7581432 1.4047203 14.756088
3.1158566 1.792738 1.2107539 13
5.3501029 1.7361659 1.4137555 14.511904
-1.7823837 2.1140811 1.2939456 14.642858
-1.5808196 2.0124397 1.3986845 14
2.1080253 2.0382059 1.3236089 15
3.1145439 2.1275759 1.366694 14.333333
5.2883253 2.1616061 1.4852271 15
5.3533335 2.4051421 1.4303355 15.1775
-1.7617327 -0.10875245 1.9295143 7.0820065
-1.4240627 -0.05241381 1.8701169 6
-0.89871335 -0.044723883 1.6389191 6.5816708
-0.52075469 -0.046087038 1.6334587 6.6438441
-0.16306636 -0.045100771 1.6388869 6.5346923
0.15509315 -0.028546408 1.7628969 5.7171431
0.58134758 -0.060263231 1.7898947 5.3333335
0.97947931 -0.038621999 1.7867093 5.1764708
1.4041086 -0.064254873 1.8358381 5.9111109
1.7400422 -0.062659472 1.7497637 6.125
2.1210322 -0.016159117 1.7054724 6.6500001
-1.7661308 0.17818256 1.7617799 8.766284
-1.3529732 0.24485534 1.8054335 8.8035002
-0.88344514 0.19091056 1.7419801 9.0841417
-0.62321585 0.17885384 1.7157314 9.2676077
-0.17936367 0.17321645 1.716485 9.3281231
0.083974883 0.19289312 1.8255999 9.1407309
0.7116155 0.041568711 1.8030533 5
1.010776 0.024057237 1.7414299 5.5222225
1.4252565 0.028977918 1.7503868 4.7183905
1.8267803 0.056548253 1.7868278 4.7171712
2.2122099 0.19718592 1.6925274 8.1629934
2.5776134 0.22636069 1.7179639 8.3242168
3.0171726 0.20593542 1.7597499 7.3062778
3.3924637 0.10716101 1.8273264 4.9965277
3.8434372 0.14276282 1.8072742 4.4236112
4.2158804 0.18802352 1.8054436 4.3900704
4.5209908 0.21368088 1.6625333 5.7702093
4.9784203 0.25325897 1.7652981 5.3620691
5.4282365 0.2982907 1.8790034 6.9822154
-1.7676622 0.59540606 1.7693098 12.088489
-1.3667836 0.59247196 1.8991079 10.0535
-0.98513693 0.5728175 1.8960593 10.085938
-0.69898474 0.59231669 1.9328966 12.530128
-0.39919102 0.68904245 1.8948472 10.5
1.8930659 0.72428757 1.6723751 10.5
2.1768835 0.57541078 1.641183 13.66635
2.6015971 0.52048719 1.6978664 14.130932
3.0343528 0.55536491 1.6886414 13.180518
5.423059 0.57541865 1.7705472 9.5091305
-1.7715335 0.9301514 1.8109026 13.687717
-0.81406152 1.0966742 1.9881053 12.5
-0.70850587 0.94008046 1.975849 14.050263
-0.39569783 1.1040795 1.998625 12.5
1.9096367 1.0898579 1.718112 12.25
2.1009219 1.017337 1.6456646 12.372549
3.1090257 0.97786307 1.646916 13.423076
5.4032254 0.96496952 1.7496309 13.312426
-1.7802056 1.370734 1.800772 13.603466
-1.5363755 1.281903 1.6388521 12
-0.67748147 1.3082979 1.9840342 13.571428
1.9133968 1.4247065 1.7300367 13.75
2.1048768 1.4140567 1.6850855 13.648148
3.0794659 1.3615831 1.7080771 14.5
5.3853211 1.3319813 1.8060136 13.850778
-1.7773193 1.7758273 1.8295697 14.141026
-1.5554423 1.6545538 1.7009983 13
1.9194232 1.7003337 1.7537529 15
2.1192036 1.7836611 1.7052763 14.75
5.3317442 1.7512869 1.8052591 14.382352
-1.8092159 2.0549643 1.634739 14.333333
2.130769 2.0511248 1.7418346 15
5.2863636 2.1676362 1.7802637 14.908112
5.32441 2.5766282 1.7890744 15.1755
-1.7725756 -0.46075869 2.0760641 8
-1.7650146 -0.10308873 2.070879 7.1840911
-1.4417598 -0.13839975 2.1723754 6.8000002
-0.22428945 -0.050042968 2.1101952 4
0.24049263 -0.040276032 2.2639954 5.6013932
0.58357185 -0.072443083 2.2353792 5.71875
1.0443646 -0.056004953 2.1549828 5.9117646
1.4364207 -0.072686791 2.2065606 6.1875
1.8159858 -0.053980395 2.1738203 6.2727275
2.1854751 -0.11491121 2.2338524 6.6666665
2.5205801 -0.05651683 2.1538174 6.6666665
-1.7708119 0.16686608 2.187506 8.8647537
-1.4804788 0.098914027 2.2919598 9
-0.64516288 0.32279903 2.1296272 9.5008326
-0.20823038 0.1334599 2.1937459 6.6674995
0.08550816 0.21426496 2.1731734 9.5534792
0.68874401 0.029305825 2.2483799 4
0.99370384 0.021495542 2.1820786 4.3333335
1.4149258 0.016848983 2.2070982 5.2051287
1.7918003 0.049492683 2.178978 4.590909
2.2039838 0.052996993 2.1872694 4.697917
2.597096 0.064924277 2.1908226 4.772109
2.9888031 0.087468207 2.158952 4.921875
3.4112389 0.1069314 2.2553062 4.9000001
3.7916853 0.13478902 2.1866293 4.6285715
4.2152529 0.16526127 2.2077222 4.8518519
4.5739589 0.1936741 2.1817999 5.1574078
4.9307613 0.22424366 2.1668694 5.2727275
5.4152408 0.28216925 2.1911495 7.059648
-1.7710757 0.59619445 2.2062399 11.966334
-1.4956651 0.48907703 2.3447914 10
-0.66073203 0.58829284 2.0326684 13.242167
-0.2503635 0.64073461 2.1223209 10.604
0.065726042 0.56649941 2.1743078 10.6265
5.407124 0.55784577 2.195724 9.4686966
-1.7742041 0.94358367 2.2291238 13.761559
-1.5273657 0.89649081 2.0063953 11
-0.71395129 0.95928931 2.0369422 14.4025
5.3836985 1.0297418 2.1407893 13.6661
-1.7848206 1.3523248 2.2106414 13.570542
-1.5419283 1.2787586 2.0576563 12
-0.64766532 1.3676028 2.0093536 13.666667
5.3702703 1.2844766 2.205143 14.2412
-1.7775059 1.7814157 2.1730862 14.107843
-1.5573244 1.6647426 2.1111736 13
5.3190289 1.7450918 2.2018678 14.230769
-1.7672842 2.0215123 2.0342274 15
5.2560735 2.1639891 2.2043524 14.923077
-1.7772368 -0.12116577 2.6404886 7.6744184
-1.3572071 -0.083232999 2.6487179 7
-1.1333953 -0.17409021 2.6213789 7
-0.50013107 -0.029044038 2.6000345 6
-0.21342188 -0.014411036 2.6756175 5.625
0.24193983 -0.037209038 2.6240897 5.4210525
0.56932843 -0.051054597 2.5754442 5.5777774
0.97424835 -0.071092561 2.5774603 6.0555553
1.386065 -0.075222075 2.6029329 6.3684211
1.7496576 -0.098190494 2.6092737 6.5
2.1602685 -0.085216701 2.5810673 6.5833335
2.5756145 -0.064465523 2.6774881 7
-1.7720884 0.17245023 2.5822778 8.9402905
-1.4702249 0.053329587 2.7300844 9
-0.21343525 0.039593671 2.6992414 5
0.22338261 0.02941294 2.5970833 4.3194442
0.60045105 0.025494302 2.6586618 4.6666665
1.0121207 0.026377022 2.6060617 4.130435
1.357921 0.037706021 2.6093111 4.1153846
1.779598 0.03655576 2.6079297 4.4391026
2.2174778 0.045781914 2.6061056 4.8400002
2.599535 0.059693102 2.6170752 5.3928571
3.0061862 0.086892091 2.6275563 4.8095236
3.4101012 0.11017095 2.6356921 4.3571429
3.7856536 0.13457321 2.6313748 4.4647436
4.1786766 0.15232652 2.5960166 4.8338542
4.6179657 0.18732825 2.5910504 5.3798451
5.0338087 0.22477038 2.6106336 5.9166665
5.4065967 0.25338623 2.5582972 7.0308943
-1.7744411 0.56781733 2.5886636 11.624061
5.3973947 0.54591864 2.5744596 9.4351997
-1.7786884 0.93581182 2.6183372 13.666923
-1.525578 0.87952143 2.436594 11
5.3709788 0.99470896 2.5115032 13.091128
-1.7882499 1.3651398 2.5825684 13.603535
-1.5453529 1.2757449 2.5017614 12
5.3563108 1.2949414 2.5648839 14.174106
-1.7787768 1.7423923 2.5583725 14.004902
-1.5619788 1.6763574 2.5587387 13
5.3026872 1.7611716 2.5988731 14.218254
-1.7819585 2.0493746 2.4961989 14.777778
5.1959467 2.2996252 2.7499127 14
5.2383418 2.1527784 2.5936699 14.727273
-1.8108487 -0.42268449 3.1199131 8
-1.7793779 -0.19299516 2.9265187 7.1838236
-1.2796242 -0.11105847 2.8487654 7
-1.0014455 -0.041606028 3.043875 6.1428571
-0.53714877 -0.032479689 2.9707851 6
-0.16393824 -0.011716975 3.0038114 5.7142859
0.19730596 -0.035709258 3.0583088 5.75
0.58835471 -0.061734311 2.9737039 5.8833332
1.0022507 -0.1004134 2.9530177 6.4000001
1.453552 -0.053415023 2.9467063 6.375
1.7683467 -0.017085182 3.0084062 6
2.0962236 -0.05562957 3.0346267 7
2.5873883 -0.067036189 3.0157075 6.75
2.9264181 -0.17968601 3.1173227 7
5.5805807 -0.061735272 3.1865292 8
-1.7727817 0.132853 2.9963589 8.7912474
-1.1541619 0.057229292 3.0831006 6
-0.14504841 0.038457174 2.8913786 5
0.17012946 0.031668119 2.9956429 5.0749998
0.60544318 0.032778293 2.9881721 4.666667
0.97894138 0.03780438 3.004205 4.5592594
1.4159614 0.041138146 2.973346 4.2808647
1.7984838 0.048293345 3.0460935 4.3337498
2.1961298 0.04987989 3.0282114 4.6023808
2.5950589 0.072212473 3.0420976 4.8033338
2.9948227 0.092056856 3.0581222 4.8571429
3.4308436 0.11519594 3.0568984 4.8095236
3.7913384 0.12706147 3.001435 4.7828288
4.1953716 0.15007684 3.0033329 5.2903228
4.5318489 0.17873721 2.9678695 5.7017546
5.1159673 0.214424 3.131825 7.215641
5.326992 0.22911538 3.0503709 7.1856046
-1.7770202 0.53538758 3.0140138 11.287565
-1.4957042 0.45563161 2.8113384 10
4.9917355 0.58918381 3.1463506 10.122571
5.3756204 0.51128608 2.9387507 9.2162943
-1.7809123 0.98380309 3.0588689 13.883565
-1.5260844 0.86127782 2.9062147 11
5.0073133 0.83635914 3.1465468 12.712662
5.3586488 0.95454729 2.9290202 12.549864
-1.7909495 1.3581884 3.0030107 13.508706
-1.540174 1.2729324 2.9562702 12
5.344233 1.3029928 2.9459188 14.137631
-1.7803429 1.7712309 2.9853606 14
-1.5634408 1.6890006 3.0317869 13
5.2916317 1.7601134 3.0001309 14.130033
-1.7797403 2.069699 3.019686 14.666667
5.1890988 2.3152287 3.1288264 14.5
5.2455902 2.1139219 2.9667304 14.358962
5.1868911 2.4678242 3.0153816 15
2.1957684 -1.3004094 3.5383081 8
-1.8396305 -0.61562204 3.2976227 8
1.2349275 -0.40998995 3.2704656 7
-1.7771524 -0.062415373 3.4023693 8.1245775
-1.380914 -0.066955373 3.342973 7.5
-0.91594905 -0.040606976 3.3001683 6
-0.59761357 -0.011255554 3.3899922 6
-0.18251777 -0.024538107 3.4079523 6
0.16497156 -0.012652854 3.4615135 6
0.56089056 -0.025182307 3.3996232 5.9166665
1.1399209 -0.20961696 3.5017993 6.9452057
1.3359174 -0.10076853 3.4581122 6.9666667
1.7608559 -0.11608434 3.4382935 7
2.2563441 -0.19858055 3.4413548 7
2.735858 -0.19077542 3.3748548 7
2.8522286 -0.25760189 3.4999497 7
4.8629832 -0.062529027 3.3718815 7
-1.7769362 0.17042305 3.4048574 8.9891472
-0.91882557 0.075969949 3.4482269 6
-0.76876485 0.0018139184 3.5429196 6
-0.16371644 0.0026014298 3.4708433 6
0.32284534 0.026688011 3.4147272 5.5
0.61945909 0.029512579 3.3795888 5.3684211
1.067893 0.04072604 3.4210944 5.707603
1.3643312 0.052108537 3.4184515 5.7005315
1.8053991 0.04500917 3.372122 4.8611112
2.207123 0.065290526 3.3615947 4.6432295
2.5967195 0.080543712 3.4033957 4.6973119
2.9767683 0.097663127 3.4284976 4.7537041
3.3909094 0.11029723 3.4038408 5.0416665
3.8013687 0.12173393 3.427901 5.3400002
4.1705165 0.14610797 3.388402 5.625
4.5750012 0.16590069 3.3653889 6
4.9105077 0.24178657 3.3296146 7.3173618
5.3608308 0.26202542 3.31724 7.5416498
-1.7803956 0.53789026 3.3886702 11.118405
-1.4954829 0.41974694 3.3149328 10
4.7326674 0.69929349 3.3298707 11.034657
4.8910131 0.60266101 3.3101828 10.605393
5.3512998 0.50573981 3.2618635 9.1522865
-1.7843655 0.9957214 3.4485037 13.785775
-1.5299673 0.8414706 3.4234533 11
4.7771153 0.82267946 3.3678985 12.79434
4.8999338 0.83473873 3.2917278 12.779696
5.3430834 0.9576965 3.300128 12.27452
-1.7903932 1.3406364 3.4279115 13.909957
-1.5472221 1.2701726 3.4823875 12
5.3286624 1.3102281 3.3455355 14.069641
-1.7707782 1.7775608 3.4284086 14.133333
-1.5734925 1.7039576 3.5674582 13
5.2738943 1.8077451 3.386487 14.284091
-1.7732924 2.0492699 3.433583 14.833333
5.1869717 2.2212527 3.4053273 14.35
5.2219448 2.0304003 3.2129025 14
5.1553254 2.5470598 3.5108364 15
1.8569403 -0.84988004 3.726131 8.533
-1.720764 -0.49185506 3.7122948 8
-0.1050123 -0.49492359 3.7070208 8
0.32423472 -0.44045979 3.7407548 7.5
0.58713895 -0.54542792 3.7364702 8
0.99357986 -0.48023906 3.7539489 7.6666665
1.4141393 -0.51057881 3.7383146 7.909091
1.8270744 -0.48558149 3.7615407 8.0068493
2.1750503 -0.46649292 3.7354531 8
2.4718168 -0.47221202 3.7735317 7
3.0043728 -0.47225064 3.7403007 7.5
-1.7149571 -0.05641352 3.7635598 8.2522755
-1.4451739 -0.11203674 3.7669952 8.11619
-0.95470411 -0.10633177 3.7836714 7.8421054
-0.55753171 -0.079314746 3.7658107 8.1960793
-0.18602304 -0.080191679 3.7711978 7.8333335
0.27961588 -0.18386878 3.7660189 7.8178291
0.48294675 -0.143236 3.8226433 7.763557
0.88279969 -0.16554667 3.8163097 7.7707329
1.325343 -0.051712319 3.8101144 8.194767
1.731409 -0.15465824 3.8379388 7.71314
2.1896174 -0.20390339 3.8356066 7.5171051
2.646524 -0.16754362 3.8508198 7.6127701
3.0234938 -0.067557484 3.8601508 8.0612631
3.3429272 -0.23804368 3.846874 7.3360758
3.6713939 -0.050138079 3.8896906 7.9310346
4.3296351 -0.08757294 3.9168108 7
4.5889382 -0.05169465 3.8839543 7.0714288
4.8971586 -0.084384292 3.8887455 7.25
5.3586049 -0.091637596 3.9046037 7
-1.7369335 0.20913097 3.793643 9.4534769
-1.4002799 0.21098925 3.8321722 8.9262009
-0.99550056 0.21658884 3.8574209 8.8577843
-0.59586179 0.21215741 3.8530896 8.7759609
-0.17315781 0.22700059 3.8695853 8.8743553
0.23039268 0.20524374 3.8681128 8.9831839
0.55440044 0.25530374 3.8724494 9.3966246
0.9503358 0.26113564 3.8711288 9.4431276
1.3633965 0.25573176 3.8675854 9.2451057
1.7504941 0.24237655 3.8792121 9.0281382
2.1535316 0.24461208 3.8827584 8.9983206
2.5839822 0.20950149 3.870857 8.6413374
3.0436723 0.23204219 3.8879671 8.6512194
3.356333 0.19145356 3.8883462 8.2351074
3.7564552 0.1644163 3.9022796 8.1376514
4.2141666 0.29440954 3.9310734 8.4958487
4.6307211 0.24243283 3.9411216 7.9587474
4.9121671 0.21040435 3.9472106 7.7314358
5.3487911 0.2429871 3.8699365 7.4811964
-1.6940619 0.62284487 3.8023829 11.420485
-1.3769283 0.62169641 3.8691311 11.735554
-1.0223318 0.64334202 3.8764927 11.536749
-0.68234301 0.60844988 3.8770163 11.843733
-0.23348173 0.60453916 3.8820016 11.868829
0.16251639 0.59483737 3.8866427 11.924662
0.55329943 0.65714473 3.8933928 12.325381
0.95155263 0.66474307 3.8989687 12.412766
1.3565203 0.66146755 3.904716 12.308278
1.7498732 0.65857428 3.9079487 12.328949
2.1551914 0.6505121 3.9118814 12.171215
2.5818999 0.603872 3.9012508 11.36755
3.0415077 0.6070509 3.9154656 11.337192
3.346565 0.58414769 3.9157467 11.537085
3.7470818 0.60641354 3.9323769 11.255964
4.2055197 0.65533286 3.9610515 10.864723
4.6250792 0.6415993 3.9682512 10.552535
4.9231644 0.64686394 3.965935 10.446013
5.3384323 0.59555322 3.8658025 9.6863585
-1.7172654 1.0233592 3.8101041 13.391652
-1.4113492 1.0681093 3.9054718 13.986381
-1.0234451 1.0008837 3.9027123 13.331644
-0.61590511 1.0539618 3.9158645 14.055215
-0.21369784 0.99642473 3.9148247 13.693319
0.16386425 1.022617 3.9219637 13.913939
0.5373587 1.0366607 3.9224272 13.838508
0.93596566 1.0356193 3.9260397 13.794073
1.340125 1.0445065 3.9340448 13.619599
1.7324998 1.062001 3.9361556 13.617499
2.1598425 1.0398866 3.9378867 13.544494
2.57374 1.0042288 3.9326012 13.359269
3.0501783 0.97737616 3.9458299 13.039433
3.3200192 1.0689093 3.9561276 13.363626
3.7539346 1.0453091 3.9660456 13.151552
4.1453471 1.0118009 3.9735954 13.164416
4.6066442 0.98012823 3.9528615 13.085971
4.9711847 0.96943128 3.9469824 12.914299
5.3177543 1.0137895 3.829119 12.205332
-1.7401897 1.3759196 3.8263323 13.636633
-1.3918788 1.3586402 3.9110034 13.540941
-1.0265321 1.3687739 3.9123628 13.433479
-0.58418924 1.3836139 3.9243298 13.575977
-0.17570485 1.3725824 3.9338181 13.342425
0.22015172 1.3801281 3.9382949 13.541062
0.61597246 1.3867484 3.9406369 13.340384
1.0321777 1.3809417 3.9292538 13.292635
1.4223673 1.3768204 3.9441679 12.93343
1.8021106 1.376928 3.9410949 13.083333
2.2633924 1.2813417 3.9527395 14.456961
2.5855811 1.2870973 3.9584169 14.682273
3.0223005 1.3241234 3.9700148 14.732395
3.3557734 1.3671544 3.9582949 14.22622
3.7986522 1.3387094 3.9644575 14.299922
4.1925235 1.3829287 3.9577239 14.619983
4.6135554 1.4241288 3.9436042 14.370238
4.956193 1.361342 3.9435942 14.033253
5.3138423 1.3821609 3.8208013 13.798861
-1.7031231 1.8158373 3.8927274 14.175926
-1.3691785 1.7884527 3.9610877 14.234451
-1.0429795 1.7932899 3.9638698 14.306123
-0.56052786 1.8074619 3.9671636 14.370411
-0.18918702 1.7954527 3.9635015 14.433184
0.23760818 1.8157992 3.9604187 14.438461
0.60814643 1.8073695 3.9491897 14.483333
1.0147864 1.7765417 3.9336116 14.317461
1.4358941 1.7438023 3.9488235 14.013333
1.8113893 1.758955 3.9476902 13.973611
2.1712945 1.7317072 3.9190602 13.868888
2.6153882 1.7580899 3.9277771 14.295138
3.0055754 1.7442896 3.9335074 14.119445
3.3255527 1.8051355 3.8978369 14.388889
4.7091022 1.6547384 3.9476361 15
4.987577 1.7097158 3.9356914 14.611111
5.291482 1.7639064 3.7908328 14.550722
-1.6656002 2.0574062 3.8655055 15
-1.394011 2.0426407 3.97508 15.01
-1.0505813 2.0449116 3.9723496 15.0145
-0.59098828 2.0304799 3.9780929 15
-0.26989126 2.0365636 3.9704242 15
0.18105486 2.0317395 3.9708557 15
0.63539761 2.0501277 3.9747679 15
