# .PCD v0.7 - Point Cloud Data file format
VERSION 0.7
FIELDS x y z intensity
SIZE 4 4 4 4
TYPE F F F F
COUNT 1 1 1 1
WIDTH 1342
HEIGHT 1
VIEWPOINT 0 0 0 1 0 0 0
POINTS 1342
DATA ascii
-3.2443786 -0.48686039 0.29244456 12
1.6323823 0.14943773 -0.67951226 12
0.55882466 -0.16417846 1.7074689 12
-7.7225842 -0.1151796 1.7226526 12
0.76945341 -0.13007563 1.3851253 12
-1.004087 -0.39706117 1.9817106 12
-1.2016499 -0.5127691 0.91656327 12
2.775558 0.35449898 4.3236461 12
-3.2679281 0.26802379 -4.173295 12
-7.2095456 -0.15405509 3.6471353 12
-1.1059043 -0.46756747 0.87840927 13
-3.2187872 -0.43643111 0.42947808 13
-3.2385454 -0.43181574 0.36373654 13
-3.2581329 -0.42662597 0.29709813 13
1.6247553 0.27140659 -0.67226017 13
0.55671084 -0.065072179 1.7162858 13
-7.7184601 0.1076479 1.7315809 13
0.76435483 -0.031325877 1.3915411 13
-1.0078082 -0.32568017 1.9880606 13
-1.2036662 -0.47946441 0.91864192 13
-3.286196 0.44036806 -4.1829581 13
-7.2147737 0.080147207 3.6555147 13
-1.1085945 -0.43339393 0.87959564 14
-3.2353282 -0.37502098 0.43556264 14
-3.2445362 -0.37174639 0.36771342 14
-3.256844 -0.36730057 0.30022278 14
1.6145259 0.39424241 -0.66435468 14
0.54763401 0.033621848 1.7200216 14
-7.7420521 0.33657837 1.7479309 14
0.7396363 0.063083589 1.3872089 14
-1.0108626 -0.25270498 1.9967881 14
-7.2219019 0.31706929 3.6651468 14
2.7125587 0.77330375 4.1978574 14
-3.9605646 0.80044103 -4.7919335 14
-3.2412157 -0.31379968 0.43967447 15
-3.2359684 -0.31341189 0.3695462 15
-3.2565179 -0.30718231 0.30348596 15
0.54909313 0.13286233 1.6839467 15
1.5940293 0.51526809 -0.65410054 15
-7.7562947 0.56803989 1.7619838 15
-1.0214326 -0.18383428 1.982108 15
-3.9787869 1.0082269 -4.7908444 15
2.7251229 1.0189508 4.3545599 15
-7.0891662 0.53619003 3.6928928 15
-3.1894684 -0.78020459 0.43937331 7
0.81400979 -0.60550517 1.3417244 7
-0.96972054 -0.74014759 1.9481056 7
-3.1888394 -0.7209664 0.44243085 8
1.3988646 -0.26418567 -1.8366411 8
0.60225904 -0.54826564 1.6979589 8
-0.96896553 -0.67570949 1.9671538 8
-3.2878661 -0.38066286 -4.1913543 8
-3.2034483 -0.66224068 0.44777793 9
1.3874866 -0.1398488 -1.8264825 9
3.0865378 -0.33903149 7.153564 9
0.58889639 -0.45704931 1.6981844 9
0.81357467 -0.42093748 1.3586371 9
-0.97578132 -0.61039048 1.9625063 9
-3.2985008 -0.21513307 -4.181788 9
-7.1304827 -0.85124624 3.6821885 9
2.8390875 -0.29850364 4.2323036 9
-3.2104087 -0.60265565 0.45200795 10
1.3725458 -0.016109943 -1.8139272 10
3.0669851 -0.046751201 7.1696453 10
0.5955106 -0.36364487 1.7127552 10
0.80110633 -0.32919273 1.3609773 10
-0.97832549 -0.54480505 1.9714226 10
-3.313499 -0.047544181 -4.1826315 10
-7.1375399 -0.62056971 3.6920869 10
2.8310723 -0.08900404 4.2499008 10
-3.2205911 -0.54230857 0.45676845 11
1.3777851 0.11291289 -1.8149116 11
3.0559158 0.24878967 7.1989388 11
0.59050095 -0.27056295 1.7190802 11
0.79754484 -0.23590299 1.367871 11
-0.98036492 -0.47831035 1.9821696 11
-3.328742 0.12197846 -4.18366 11
-7.1540518 -0.38867447 3.707911 11
-3.229979 -0.48105937 0.46145636 12
1.3677183 0.23962468 -1.805593 12
3.0316906 0.54446435 7.2085495 12
0.57387435 -0.17908862 1.7170267 12
-7.7266674 -0.10484254 1.7044766 12
0.79008949 -0.14244077 1.3728535 12
-3.3418841 0.29271519 -4.1792016 12
-3.2287383 -0.42004907 0.46451634 13
1.3557428 0.36693412 -1.7949719 13
3.0172224 0.84590387 7.2336693 13
0.57439768 -0.083084822 1.7275702 13
-7.7467628 0.12295312 1.7201753 13
0.77039564 -0.051124573 1.3715749 13
-3.3581364 0.46757162 -4.181582 13
-3.2184589 -0.36001024 0.46615106 14
1.3506373 0.49835145 -1.7889142 14
2.9894629 1.1468949 7.2388062 14
0.56102455 0.010578394 1.7280474 14
-7.7603259 0.3532303 1.7344265 14
0.77785289 0.048305571 1.3844963 14
-7.1980228 0.32139945 3.7522573 14
-3.2306747 -0.29559851 0.47143704 15
1.3465377 0.63266003 -1.7834795 15
2.9844761 1.4622773 7.280293 15
0.55526316 0.10781938 1.7342814 15
-7.769722 0.58633971 1.7478163 15
0.77447474 0.14682966 1.3919671 15
-7.2075238 0.5638268 3.7639606 15
0.60184216 -0.64122427 1.6830444 7
0.84468198 -0.60377789 1.3368651 7
0.60591638 -0.55371487 1.6955373 8
2.687948 -0.69771332 7.2125244 8
1.1748886 -0.18396828 -2.9891486 8
0.82596803 -0.51594359 1.3362833 8
1.1714737 -0.03703773 -2.9864988 9
0.60295987 -0.46584183 1.7030939 9
2.6793411 -0.41526911 7.2461157 9
0.81415963 -0.42842817 1.3389856 9
-3.362745 -0.17303973 -4.1681061 9
1.1596243 0.10870594 -2.9736419 10
0.58810735 -0.37888533 1.7021255 10
2.6565278 -0.1322954 7.2557344 10
0.82522035 -0.33818436 1.3529297 10
2.8668239 -0.11277586 4.368258 10
-3.3699293 -0.0036594272 -4.1495075 10
-1.6869922 -0.42324233 -0.82367575 11
-1.5463693 -0.40943077 -0.86893082 11
1.1420553 0.2531212 -2.9538579 11
0.58204198 -0.29075459 1.7075089 11
2.6394193 0.1527611 7.2753735 11
0.82366347 -0.24819046 1.3607911 11
2.8553755 0.097304046 4.3835859 11
-3.3851058 0.16937321 -4.1482763 11
-0.97665066 -0.43269372 1.9599679 12
-1.6910988 -0.38142735 -0.826424 12
-1.5489572 -0.36810064 -0.86681879 12
1.1318495 0.40076184 -2.9430075 12
0.58894634 -0.19918504 1.7224541 12
2.6298525 0.44234264 7.3085532 12
0.81858134 -0.15783077 1.366995 12
-3.4023187 0.34562773 -4.1509962 12
-0.97955918 -0.3688342 1.9678985 13
-1.6931107 -0.34057045 -0.82202315 13
-1.5530963 -0.32390073 -0.87368023 13
1.1271307 0.55246115 -2.9388299 13
0.57141149 -0.11173493 1.7196406 13
2.6016653 0.73010778 7.3098888 13
0.80162835 -0.069355726 1.3673182 13
-3.4091198 0.51906931 -4.1306906 13
-0.98163134 -0.30318454 1.9794072 14
-1.6988583 -0.29565588 -0.82970607 14
-1.5550802 -0.28229862 -0.8674252 14
-3.2185676 -0.32857209 0.47072867 14
1.1209755 0.70607841 -2.9329348 14
0.57082808 -0.019017458 1.7294095 14
2.5862713 1.0256603 7.334219 14
0.74381614 0.0089359283 1.3858571 14
2.8086512 0.73775089 4.4191551 14
-0.98335719 -0.23555961 1.9927564 15
-1.7003595 -0.25396794 -0.8232646 15
-1.5576872 -0.23909324 -0.86456263 15
-3.2123239 -0.26367003 0.47411278 15
1.1172028 0.86402524 -2.9299641 15
0.56354666 0.073351204 1.7343971 15
2.5744174 1.3282721 7.3657494 15
0.74238658 0.10235846 1.3941844 15
-1.0225165 -0.74645436 1.9829695 7
0.83352792 -0.6035037 1.3324062 7
-3.176188 -0.77702135 0.48738793 7
-1.0262496 -0.68737066 1.985998 8
0.60729468 -0.55666035 1.6726446 8
-0.99652612 -0.082601249 -5.7832913 8
1.149778 -0.17202106 -2.9969823 8
1.5451893 0.15210783 -6.6282334 8
0.83003223 -0.52007055 1.3388536 8
-3.1807175 -0.71095437 0.49190226 8
2.8726792 -0.53138447 4.1481085 8
-1.0322628 -0.62822407 1.9756899 9
0.60904872 -0.47359765 1.6830829 9
1.8795592 -0.50459534 7.4546833 9
-1.0096225 0.13171995 -5.7668147 9
1.1509398 -0.025178194 -2.9999113 9
1.5241951 0.41346753 -6.5980411 9
0.82941043 -0.43617085 1.3467108 9
-3.1717477 -0.64458758 0.49527189 9
-1.03391 -0.56908876 1.9909598 10
0.6030612 -0.39057249 1.6880783 10
1.859352 -0.23194709 7.46491 10
-1.0225397 0.34757209 -5.7559404 10
1.1386441 0.11936688 -2.9852066 10
1.5167855 0.68121159 -6.6020045 10
0.81076109 -0.35386664 1.345855 10
-3.1793146 -0.57852978 0.50004697 10
-1.03792 -0.50970626 1.9924897 11
0.59917903 -0.3067753 1.6946381 11
1.1234182 0.26335168 -2.966661 11
1.8412267 0.0421772 7.4800639 11
-1.0356473 0.56449592 -5.7423811 11
1.6373347 0.97158885 -6.6358838 11
-3.1751447 -0.51248187 0.50381029 11
2.8335176 0.065128803 4.1860065 11
-1.0398343 -0.44867653 2.0069942 12
0.59327376 -0.22256649 1.6998224 12
1.8187124 0.31711328 7.4856181 12
1.121493 0.41340828 -2.9655805 12
1.6175123 1.2414802 -6.6096363 12
-0.96076643 0.79523063 -5.7539668 12
0.81328785 -0.18258616 1.3636973 12
-3.1865625 -0.44501078 0.50900519 12
2.855597 0.27847612 4.3433709 12
-1.043676 -0.38780192 2.0101376 13
-3.208483 -0.37494346 0.51526737 13
1.8163213 0.60198033 7.5379543 13
1.1155034 0.56405568 -2.9591875 13
1.5940243 1.5111287 -6.5746508 13
-0.97480786 1.0141451 -5.7268353 13
0.80763376 -0.09654367 1.3693739 13
-1.0488024 -0.32752427 2.0055046 14
-3.2048464 -0.30684805 0.51920402 14
1.0980314 0.71094489 -2.9377298 14
1.7932197 0.88346398 7.543529 14
1.5879272 1.7981257 -6.5823789 14
-4.0188665 0.90993798 -4.7461333 14
-1.0764979 1.2221645 -5.6778045 14
0.80162656 -0.0094432235 1.3749857 14
2.7939844 0.67647207 4.2253957 14
-1.0547223 -0.2679379 1.9959301 15
0.56969631 0.034273505 1.7117239 15
1.7729074 1.1702012 7.5563712 15
1.0934137 0.86712193 -2.9331849 15
1.5655106 2.0765636 -6.5506234 15
-4.0325027 1.125777 -4.7327294 15
-1.0901517 1.4504993 -5.6665454 15
0.8025111 0.081309259 1.3842239 15
2.8065724 0.90837646 4.3760996 15
-1.1806123 -0.75581193 2.0320485 7
0.64943922 -0.63335818 1.6708438 7
0.80693567 -0.59979421 1.3266011 7
-3.1400726 -0.76615727 0.45257315 7
-1.1841091 -0.69758993 2.0424213 8
0.64825606 -0.55448729 1.6787255 8
1.1301522 -0.17362377 -3.0120454 8
0.81258762 -0.5218544 1.3369074 8
2.1822479 0.1769489 -6.3624592 8
-2.4996302 -0.19054857 -5.3120694 8
-3.1349673 -0.69553429 0.45694837 8
-1.3631256 -0.097502232 -5.6615829 8
-1.1873626 -0.63846046 2.0292845 9
0.63940871 -0.47579229 1.6810932 9
1.1207016 -0.030028582 -3.0010624 9
0.86354661 -0.4375532 1.3339953 9
2.1644921 0.43989521 -6.3406672 9
-2.5116425 0.013357759 -5.2992845 9
-3.1343241 -0.62550622 0.46152213 9
-1.3753452 0.11332351 -5.6507049 9
-1.1907828 -0.58001292 2.0326285 10
0.64332056 -0.39566272 1.6927667 10
1.1198401 0.116669 -3.0023136 10
0.80107784 -0.36591178 1.3464459 10
2.1474559 0.70379478 -6.320323 10
-2.5199711 0.2159605 -5.2717271 10
-3.1345687 -0.55552697 0.46614018 10
-1.3865634 0.3218978 -5.6185827 10
-1.1944017 -0.5206396 2.0475628 11
0.6192416 -0.31882367 1.6840084 11
1.1116362 0.26250404 -2.9931369 11
2.1324933 0.9701398 -6.3041444 11
0.85855663 -0.27653369 1.3471142 11
-2.5379934 0.42573851 -5.281898 11
-3.156251 -0.48408201 0.47200057 11
2.8880157 0.056854427 4.2294874 11
-2.0595832 0.4709304 -5.4341507 11
-1.5654424 0.5152474 -5.551497 11
-1.1979592 -0.46067068 2.0548735 12
0.65129113 -0.23045346 1.7569548 12
1.1020262 0.40907425 -2.9819784 12
2.1116891 1.2357762 -6.2765355 12
0.79806674 -0.20665598 1.3604336 12
-2.5438242 0.62854928 -5.2439904 12
-3.1435354 -0.41409934 0.47592625 12
-2.0662875 0.67396694 -5.3882546 12
-1.5780202 0.7286455 -5.5419374 12
-1.2011404 -0.402504 2.0403986 13
1.0874803 0.55473167 -2.9638059 13
2.0997884 1.5093815 -6.2666836 13
0.78061581 -0.12929809 1.3594631 13
-2.5549781 0.83713216 -5.2262449 13
-3.1527059 -0.34164488 0.48118439 13
2.8579149 0.45617145 4.2507071 13
-2.0814309 0.88975447 -5.3912835 13
-1.5904088 0.94371289 -5.5281396 13
-1.2049571 -0.33997416 2.0565679 14
0.62816691 -0.066919386 1.7581856 14
1.0871673 0.78670818 7.72158 14
1.0826454 0.70727473 -2.9595201 14
2.0828068 1.7839186 -6.2469673 14
0.83803427 -0.031523764 1.361021 14
-2.5693817 1.0518072 -5.2200189 14
-3.1537936 -0.26921088 0.48600927 14
-2.0905042 1.0989993 -5.3579679 14
-1.6024213 1.1599076 -5.5078611 14
-1.20836 -0.27986842 2.0508757 15
0.60633755 0.0088042617 1.7110207 15
1.0678754 1.0665643 7.7319603 15
1.0663071 0.85556263 -2.938849 15
2.0643711 2.0618668 -6.2245808 15
0.8347863 0.053440511 1.3676555 15
-2.5808451 1.2665927 -5.201654 15
-3.1595142 -0.19489086 0.49120548 15
2.839376 0.86969763 4.2844386 15
-2.104378 1.3192081 -5.3508463 15
-1.6151663 1.3813407 -5.4935222 15
-1.3693559 -0.77586406 2.1240578 7
0.95007575 -0.59715891 1.2988349 7
-3.0876355 -0.75190449 0.48498994 7
-1.3694253 -0.713422 2.1140585 8
0.73164654 -0.56243473 1.7124681 8
1.1055157 -0.16381362 -3.1224704 8
2.0240276 0.17752701 -6.413023 8
0.88796675 -0.52599394 1.3104495 8
-3.1038697 -0.67791981 0.49085361 8
-2.1231465 -0.12782428 -5.3398132 8
-1.3005786 -0.064576745 -5.5928907 8
2.9908006 -0.55247051 4.0804243 8
-1.3763318 -0.6528706 2.1348827 9
0.71694136 -0.48514372 1.6719244 9
1.1014261 -0.018528879 -3.1187608 9
0.93180072 -0.44649243 1.3049765 9
2.0149035 0.44051707 -6.4068651 9
-3.0988429 -0.60294133 0.49600559 9
-3.8125899 -0.37001631 -1.9855578 9
-2.1360078 0.079392433 -5.3364391 9
-1.3118438 0.14761704 -5.5876427 9
-1.3743159 -0.59114259 2.1157036 10
0.70334327 -0.41074359 1.6702964 10
1.0972357 0.12780392 -3.1149101 10
0.93150604 -0.37036985 1.3121732 10
1.9903157 0.69887352 -6.3667765 10
-3.8715255 -0.21309423 -2.1635225 10
-3.0938358 -0.52830887 0.50113356 10
-2.1478457 0.28742391 -5.3278036 10
-1.3223594 0.35940701 -5.5703135 10
2.9741457 -0.17213565 4.1112814 10
-1.3811326 -0.52910328 2.1358817 11
0.72208643 -0.33171952 1.7311888 11
1.0868394 0.27306378 -3.1010787 11
2.1143374 0.98559225 -6.393136 11
0.86810994 -0.30413213 1.3225893 11
-3.8505421 -0.09154135 -2.0567987 11
-3.1100574 -0.45239803 0.50713372 11
-1.3807726 -0.46786988 2.1241724 12
1.0864911 0.42409992 -3.1034863 12
2.0958757 1.2527804 -6.3671141 12
0.87981677 -0.22592482 1.3357611 12
-3.1149015 -0.37614995 0.5127393 12
-3.8342898 0.02688688 -1.9576037 12
-1.3871567 -0.40376249 2.1420791 13
0.69179952 -0.18187958 1.6873038 13
1.0721946 0.57030427 -3.083415 13
0.93009949 -0.1366922 1.3340355 13
2.0773449 1.522434 -6.3410673 13
-3.9012399 0.2066111 -2.1401038 13
-3.1190941 -0.29908741 0.51837862 13
2.9733434 0.42255199 4.2898579 13
-1.3888214 -0.34095499 2.1391432 14
0.7073555 -0.095586598 1.746644 14
1.0604703 0.71935666 -3.0675287 14
2.0678539 1.8022959 -6.3344889 14
0.8639667 -0.073836327 1.3430189 14
-3.8745091 0.32224846 -2.0288637 14
-3.1163435 -0.22217581 0.52375221 14
2.9599838 0.62413597 4.3019905 14
-1.3948183 -0.27419424 2.1548839 15
1.0540955 0.87419784 -3.0603404 15
0.91408443 0.020882308 1.3418766 15
2.0460725 2.0773962 -6.3018761 15
-3.9101272 0.49259925 -2.1139734 15
-3.1288533 -0.14129072 0.52996975 15
-3.0997055 -0.7437256 0.4912003 7
-1.728538 -0.79695439 2.2618828 7
-2.5271885 -0.86012518 2.4644461 7
0.75868309 -0.56071055 1.6132321 8
-1.7202004 -0.72532272 2.2426095 8
1.7143521 0.17351741 -6.5860267 8
-3.1163044 -0.66514069 0.49673268 8
-1.9214157 -0.14565161 -5.3605843 8
-1.1605704 -0.09318161 -5.5757027 8
0.75312388 -0.48949319 1.581778 9
-1.7293866 -0.65673727 2.2593009 9
1.6971741 0.4343242 -6.5566978 9
-3.6955633 -0.38670823 -1.7565987 9
-3.1054096 -0.58566135 0.50201857 9
-1.9344664 0.064185739 -5.3628693 9
-1.1718794 0.12155575 -5.5814147 9
0.77029133 -0.41860145 1.6364522 10
-1.7290301 -0.58705217 2.2564244 10
1.6816938 0.69615847 -6.5319381 10
-3.1213417 -0.50589371 0.50762403 10
-1.9452206 0.27413362 -5.3527474 10
-1.181163 0.33322424 -5.5526314 10
0.75098717 -0.34952295 1.5949576 11
-3.733645 -0.11719331 -1.8263993 11
-1.7374114 -0.51677537 2.2714162 11
1.8019502 0.98157984 -6.5576334 11
-3.1371901 -0.42480254 0.5133183 11
0.74138832 -0.28006107 1.5956473 12
-1.732933 -0.44726232 2.2601082 12
1.7910168 1.2532551 -6.5452399 12
-3.1178064 -0.34599799 0.51846409 12
0.7449857 -0.20579469 1.6410565 13
-1.7365167 -0.37624824 2.2652562 13
1.7683036 1.5193248 -6.5025764 13
-3.128701 -0.26359609 0.52419198 13
0.75548148 -0.12858164 1.6566327 14
-1.7460334 -0.30232114 2.2824597 14
1.7565389 1.7972038 -6.48842 14
-3.7295403 0.26223707 -1.714643 14
-3.1343112 -0.18054184 0.5299058 14
-3.7595584 0.42085999 -1.7898476 15
-1.7542477 -0.22680962 2.2969475 15
1.7491431 2.0846834 -6.485918 15
-3.1467018 -0.094577968 0.5358932 15
0.79953122 -0.63027602 1.6002595 7
-3.1423631 -0.72871053 0.4982419 7
-2.2852857 -0.83046114 2.4195313 7
0.95447934 -0.59587646 1.2196122 7
0.79625571 -0.56342429 1.6046662 8
-3.6886232 -0.48910952 -1.6733427 8
0.8687309 -0.18860477 -3.2083933 8
-2.2867625 -0.74421817 2.4228396 8
1.0022649 -0.52698886 1.2156599 8
1.9453309 0.14144671 -6.435627 8
-3.1387825 -0.64446193 0.50414538 8
-2.0059047 -0.11323661 -5.404398 8
-1.1438768 -0.061138451 -5.6246171 8
-3.6902721 -0.36098042 -1.6616991 9
0.86137474 -0.046989679 -3.1968827 9
1.935966 0.40206218 -6.4193344 9
0.95889926 -0.464553 1.2330213 9
-3.1494281 -0.56044483 0.51004726 9
-2.01073 0.096538663 -5.3731933 9
-1.1521769 0.15362823 -5.6063261 9
0.76245701 -0.43151182 1.5609771 10
0.85854733 0.096895993 -3.1954381 10
-2.2956476 -0.57187098 2.4368544 10
-3.6752937 -0.24262294 -1.5735276 10
0.99043131 -0.39367229 1.2225027 10
1.9295573 0.66522342 -6.410872 10
-3.0901597 -0.47637188 0.4818787 10
-2.0200195 0.30897725 -5.3620768 10
-1.1599653 0.36784434 -5.5808215 10
0.76760757 -0.36461359 1.5711751 11
0.85726428 0.24311727 -3.1974769 11
-3.6902268 -0.11378539 -1.5714045 11
0.99163556 -0.32575107 1.2289112 11
2.0434053 0.94266421 -6.4115615 11
-3.1376288 -0.39245546 0.52181226 11
0.76520348 -0.29787433 1.5761752 12
0.8446492 0.38484842 -3.1743705 12
-2.2978299 -0.39787775 2.4425335 12
-3.6963034 0.015188277 -1.5629261 12
2.0370858 1.2132649 -6.4030871 12
0.94468999 -0.266294 1.2444749 12
-3.1467435 -0.30672407 0.52783293 12
0.77590311 -0.2259222 1.6242115 13
0.82921314 0.52523178 -3.1449988 13
-3.69802 0.14458281 -1.5512834 13
2.0220211 1.4811378 -6.3725729 13
0.94112802 -0.19894966 1.2488978 13
-3.1607795 -0.2189098 0.53400487 13
0.77478957 -0.15574807 1.6304817 14
0.8292501 0.67811424 -3.150171 14
-3.7330019 0.29855615 -1.6270471 14
-2.3051343 -0.21998727 2.45467 14
0.98869348 -0.11751804 1.2458782 14
2.0188859 1.7622244 -6.3723836 14
-3.1620617 -0.13156462 0.54012996 14
0.77020788 -0.085377395 1.6343176 15
0.82438231 0.83051938 -3.1445081 15
-3.7249646 0.4307428 -1.6078458 15
-2.3125033 -0.12793726 2.4654276 15
0.97985005 -0.048152626 1.2483532 15
2.0099344 2.0439191 -6.3576012 15
-3.1148562 -0.051272571 0.51160866 15
0.75831324 -0.63278127 1.5256071 7
-3.1462688 -0.71032619 0.44320107 7
0.955607 -0.59922051 1.167696 7
-3.6570003 -0.4801513 -1.4469099 8
0.75703973 -0.57145196 1.5307899 8
1.1567991 -0.16964614 -3.1250694 8
0.9524551 -0.53763247 1.1718366 8
2.0547957 0.17193514 -6.4405565 8
-3.1380177 -0.62379229 0.45001847 8
-1.9592931 -0.072701454 -5.4350667 8
-1.1714985 -0.027378082 -5.6364365 8
-3.664427 -0.35469192 -1.4395049 9
0.76749808 -0.50934839 1.5441818 9
1.1459696 -0.027944982 -3.1024325 9
0.99328095 -0.4715794 1.1652558 9
2.0463662 0.4347322 -6.42276 9
-3.1374257 -0.53780383 0.45652443 9
-1.9681735 0.1420325 -5.4248538 9
-1.1792443 0.18977618 -5.6208453 9
-3.6825488 -0.22726873 -1.4390576 10
0.76602334 -0.4470517 1.5493197 10
1.1437695 0.11671358 -3.0973353 10
1.0004165 -0.40741527 1.1734841 10
2.0401173 0.69970286 -6.4106236 10
-3.1463597 -0.45125014 0.46273559 10
-1.9718945 0.35426027 -5.3910336 10
-1.1875265 0.40872204 -5.6110539 10
-3.678668 -0.1014601 -1.424058 11
0.75135356 -0.38611183 1.545176 11
1.1374457 0.26078522 -3.0838511 11
0.94066149 -0.35249376 1.1833761 11
2.0242496 0.96137571 -6.3736305 11
-3.1617022 -0.36319643 0.46883303 11
-3.6800561 0.025787711 -1.4124391 12
0.75516361 -0.32234749 1.5541229 12
1.1327205 0.40680581 -3.0736125 12
2.0208144 1.2324945 -6.3688397 12
0.94424123 -0.28879124 1.1903342 12
-3.2205811 -0.27109128 0.51063305 12
-3.7058992 0.16015339 -1.4164703 13
1.1257818 0.55313456 -3.0588686 13
0.92878371 -0.22810572 1.1895823 13
2.0118492 1.5035709 -6.3497882 13
-3.1533554 -0.18826252 0.48232025 13
-3.7131479 0.29273927 -1.4082434 14
1.1162148 0.69931936 -3.0387781 14
0.92203647 -0.16531572 1.1924211 14
2.0049186 1.7803859 -6.3360686 14
-3.1692672 -0.095976084 0.48871678 14
-3.7134902 0.4253751 -1.3953943 15
0.75614589 -0.12607938 1.5742126 15
1.1027515 0.84406853 -3.0107675 15
0.9294222 -0.097578734 1.2012203 15
1.9877565 2.0521922 -6.2958894 15
-3.2276967 0.0054607391 0.53119034 15
-1.2374977 -0.60298932 0.0020094514 6
-1.2074676 -0.59874469 -0.042040586 6
-1.2442172 -0.57146662 -0.00027120113 7
-0.78238165 -0.68025941 1.5238185 7
0.75726694 -0.63786978 1.5202184 7
0.9578777 -0.60084981 1.1364982 7
-3.1535225 -0.70226699 0.43644005 7
-1.2136474 -0.56689394 -0.044363439 7
0.75031251 -0.57991159 1.5212687 8
1.1621161 -0.14487383 -3.0837953 8
0.91013473 -0.54567295 1.1493459 8
1.9966216 0.22629321 -6.4829555 8
-3.1491861 -0.61188024 0.44415766 8
-2.0188725 -0.025170028 -5.4209871 8
-1.2264314 0.022504568 -5.643743 8
-1.2055674 -0.53556991 -0.032971084 8
-1.2738907 -0.50934207 0.01674962 9
1.1561611 -0.0031741858 -3.0694251 9
0.96102256 -0.48406267 1.1482208 9
1.98511 0.48860615 -6.4536681 9
-3.1382482 -0.52205044 0.45218712 9
-2.0269537 0.19183892 -5.4062176 9
-1.233891 0.24220467 -5.626009 9
-1.2139337 -0.50316721 -0.037343562 9
-1.2850841 -0.47561473 0.0113644 10
0.74939269 -0.46377775 1.5325295 10
1.1567225 0.14163917 -3.0692313 10
0.89996582 -0.43246499 1.1557696 10
1.9747534 0.75195223 -6.4276257 10
-3.1578007 -0.43111008 0.45865589 10
-2.0373693 0.41139251 -5.4006038 10
-1.2416718 0.46317512 -5.6108074 10
-1.2881113 -0.44232354 0.012545824 11
0.7537449 -0.40441787 1.5416782 11
1.1460423 0.28248942 -3.0445654 11
0.95155138 -0.36706454 1.1553446 11
2.0932386 1.0328348 -6.4324875 11
-3.158545 -0.3402085 0.4661414 11
-1.2764893 -0.41199332 0.025269091 12
-0.78702414 -0.51011354 1.5314083 12
0.74709743 -0.34590524 1.5430007 12
0.97352558 -0.30280554 1.1429524 12
1.141731 0.42741126 -3.0337448 12
2.0875859 1.3056793 -6.41927 12
-3.1427174 -0.25081187 0.47439975 12
-1.243875 -0.38127473 0.021104276 13
0.7479381 -0.28549895 1.5497861 13
1.1278028 0.56742793 -3.0020056 13
0.93533868 -0.25028068 1.1599815 13
2.0722454 1.5743434 -6.3801055 13
-3.1502733 -0.15792474 0.48167974 13
0.97639483 -0.17890868 1.1550975 14
1.1529055 0.69680494 -2.9154351 14
2.0637498 1.8519363 -6.3593163 14
-3.16328 -0.062382162 0.48888475 14
0.73457307 -0.16590023 1.5526452 15
0.89173287 -0.13979578 1.1792852 15
1.1445115 0.84167832 -2.8959963 15
2.0581803 2.1374419 -6.3464103 15
-3.159894 0.031518936 0.49684244 15
-1.3475533 -0.61770689 0.039348245 6
0.78056866 -0.6848349 1.4651361 6
0.95233089 -0.65004593 1.1019565 6
-1.3443581 -0.57931358 0.045710087 7
0.78051478 -0.6316722 1.4705652 7
0.97896487 -0.59492445 1.0915108 7
-1.3149741 -0.54082406 0.051949203 8
0.76337355 -0.57846552 1.4648783 8
-7.1864042 -0.8765372 3.0937591 8
1.1777713 -0.15436295 -3.0666232 8
0.93487304 -0.54371619 1.1060655 8
2.0129306 0.20269579 -6.4310255 8
-0.66911507 -0.65909904 1.7976847 8
-3.131546 -0.60830963 0.47952056 8
-2.0448306 -0.037011385 -5.3987069 8
-1.2332528 0.0071601868 -5.6013327 8
-0.76649141 -0.61372817 1.5551052 9
-1.3148816 -0.50364447 0.0559389 9
-7.1947565 -0.62788665 3.1137238 9
0.75932604 -0.52452147 1.44154 9
1.1718314 -0.010609686 -3.0524843 9
0.96969754 -0.48699546 1.0985099 9
2.0030334 0.46684808 -6.4068189 9
-0.67055404 -0.61886966 1.801441 9
-3.1462727 -0.51495272 0.48612559 9
-2.0469141 0.18099374 -5.3609576 9
-1.2422168 0.23109651 -5.5956974 9
-1.3543487 -0.4637599 0.050478697 10
0.77198237 -0.47189796 1.4814339 10
-7.2150736 -0.37796378 3.1381173 10
1.1608386 0.1312235 -3.0265372 10
0.97260493 -0.43235072 1.1043913 10
1.9953451 0.73294479 -6.3890572 10
-3.1348646 -0.42201248 0.49468648 10
-2.0601826 0.40522224 -5.3655338 10
-1.2492573 0.45414633 -5.5743971 10
-0.77444386 -0.54897404 1.5351343 11
0.76366943 -0.41903305 1.4814574 11
-7.2230339 -0.12646073 3.158134 11
1.1574585 0.2769168 -3.0183802 11
0.93149048 -0.38412187 1.1196204 11
2.1162176 1.0162928 -6.4000788 11
-0.76916027 -0.51502305 1.5609674 12
0.76693577 -0.36428365 1.4892102 12
-7.247973 0.12894571 3.1845787 12
1.1502385 0.42173332 -3.0012465 12
0.9382599 -0.32870013 1.1269002 12
2.1072507 1.288558 -6.3786926 12
-3.1433842 -0.2331658 0.50966752 12
-0.77652586 -0.48381421 1.5400378 13
-0.72946 -0.46980006 1.6806015 13
0.75631195 -0.31146049 1.4877254 13
-7.2380447 0.38342494 3.1983061 13
1.1440165 0.56849784 -2.9864433 13
0.92725176 -0.2757979 1.1281919 13
2.093313 1.5597644 -6.3435087 13
-3.1654117 -0.13422781 0.51617897 13
-0.73135179 -0.43176916 1.6862431 14
0.74856395 -0.25791478 1.4881866 14
-7.2455864 0.64313906 3.21873 14
1.1402791 0.71913081 -2.9774423 14
0.92969197 -0.21946874 1.1341528 14
2.0878749 1.8419201 -6.3320374 14
-3.1487391 -0.040449679 0.52520943 14
0.75445777 -0.20147717 1.4714503 15
-7.2560291 0.90759128 3.2405305 15
1.1359301 0.87195629 -2.9670081 15
0.927185 -0.16333157 1.1384946 15
2.0794191 2.1264195 -6.3122277 15
-3.1508524 0.057927966 0.53319061 15
-1.3322568 -0.62021834 0.043157697 6
0.77627546 -0.67848575 1.5008776 6
-1.343515 -0.5785799 0.038765669 7
0.9691295 -0.59147382 1.1102018 7
-1.34392 -0.53666347 0.042866588 8
0.77361172 -0.57931083 1.5092052 8
0.9641884 -0.54126376 1.1133127 8
1.1872239 -0.15944105 -3.0021272 8
1.9910648 0.19819999 -6.4163127 8
-3.1561637 -0.60503775 0.47947776 8
-2.0034831 -0.035042703 -5.4275126 8
-1.2694712 0.0047582388 -5.6096911 8
-0.75118124 -0.61459213 1.6188556 9
-1.3547075 -0.49381304 0.038969219 9
1.1774714 -0.017252147 -2.9789078 9
1.9755268 0.4611544 -6.3753686 9
-1.2206278 -0.48962936 -0.0040373802 9
-3.1787713 -0.50788605 0.48512781 9
-2.0091419 0.18856859 -5.402472 9
-1.2790616 0.23251194 -5.6059227 9
-0.75352013 -0.58209276 1.6245806 10
-1.3480136 -0.45239013 0.048553288 10
-0.62641227 -0.57888091 1.9844258 10
0.94605953 -0.44208884 1.1171771 10
1.1502218 0.14264661 -3.0752978 10
1.9713035 0.72991294 -6.3688855 10
-3.1731253 -0.4107855 0.49375355 10
-1.2270986 -0.4487679 -0.0056954622 10
-2.0187066 0.41485453 -5.3921576 10
-1.2837546 0.45635098 -5.5669198 10
0.76578587 -0.43006635 1.5192697 11
-0.64232779 -0.53603721 1.967231 11
1.1426826 0.28936875 -3.0571918 11
-3.1687546 -0.31359267 0.50225222 11
-0.75601697 -0.5161314 1.6305084 12
-1.3569674 -0.36576864 0.050697446 12
0.76311964 -0.37978667 1.5226412 12
-0.64283264 -0.49279338 1.9656372 12
0.94058174 -0.34161365 1.124607 12
1.1622732 0.4175691 -2.943368 12
-3.156951 -0.21709049 0.51147783 12
-0.75834912 -0.48229319 1.6362087 13
-1.3457925 -0.3256349 0.063640058 13
0.73612756 -0.33574006 1.4384236 13
-0.63134849 -0.44572273 1.9975767 13
0.94318527 -0.28956512 1.1299393 13
1.1251831 0.58372039 -3.0148606 13
-3.1778405 -0.11506897 0.51771164 13
-0.75590491 -0.44961292 1.6298335 14
0.73337728 -0.28679264 1.441673 14
0.93986171 -0.23797655 1.1336144 14
1.1261854 0.74130422 -3.0184209 14
-3.1802773 -0.014211655 0.52579558 14
0.7412377 -0.23395464 1.4515285 15
-3.1652377 0.083988905 0.53550279 15
0.75617921 -0.66699833 1.4717731 6
-1.2218491 -0.61416888 -0.010131061 6
0.74964762 -0.62189174 1.4722483 7
-1.350072 -0.57805002 0.029804289 7
-0.64882165 -0.69644731 1.9187469 7
-1.2169216 -0.57042509 -0.00070285797 7
-1.3544317 -0.53171843 0.030776739 8
0.91940272 -0.54336202 1.1141865 8
1.1467624 -0.17410114 -3.1304543 8
1.9864647 0.15248364 -6.4273005 8
-1.2193488 -0.52684516 0.0014170408 8
-3.1715686 -0.59366864 0.47883397 8
-2.0468256 -0.058288991 -5.4106765 8
-1.3045464 -0.020985365 -5.6130018 8
-0.74234724 -0.6135906 1.7010261 9
0.74409378 -0.53260756 1.4775214 9
0.92152858 -0.49730173 1.1185517 9
1.9830694 0.42318428 -6.4215441 9
1.1991534 -0.045888305 -2.9204609 9
-3.1823547 -0.493626 0.48524517 9
-1.2219645 -0.48308015 0.0033684969 9
-2.0550034 0.17056364 -5.3990932 9
-1.3111811 0.20886046 -5.5952368 9
-0.74881446 -0.58080745 1.6540496 10
-1.3495487 -0.43993178 0.04393512 10
0.75657308 -0.48731485 1.5115731 10
1.1358689 0.1254729 -3.1023834 10
-0.65266246 -0.57920569 1.9282384 10
1.975826 0.69379056 -6.4035978 10
-3.186671 -0.39311153 0.49258024 10
-1.2252616 -0.43891504 0.0046858788 10
-2.0632963 0.40068281 -5.387702 10
-1.3199227 0.44164574 -5.5909653 10
-0.75197697 -0.54900426 1.6607816 11
-1.352934 -0.39308578 0.045768201 11
0.7580924 -0.44090107 1.5169618 11
1.1346207 0.27863562 -3.0998924 11
0.91475618 -0.40532982 1.1247683 11
-3.1868281 -0.29232281 0.50050598 11
-1.2326788 -0.39340496 0.0020581484 11
-0.74308509 -0.51465189 1.70347 12
-1.3618584 -0.34435824 0.043186188 12
0.75226855 -0.39516228 1.4954633 12
1.1536119 0.40746015 -2.9726048 12
-3.2070642 -0.18808737 0.50595385 12
-0.75086331 -0.48532563 1.6594222 13
-1.3576076 -0.29812515 0.051302254 13
0.75904894 -0.34691754 1.5040584 13
0.90800118 -0.31230086 1.131078 13
1.1784966 0.53723061 -2.8681626 13
-3.1768458 -0.090306401 0.51780254 13
-0.75355554 -0.45217955 1.6652348 14
-1.3612611 -0.24918357 0.053120434 14
0.75909674 -0.29815584 1.5313072 14
-0.65882802 -0.41832092 1.9444268 14
1.1140969 0.73640609 -3.0463521 14
-3.1768315 0.012832403 0.5259369 14
-1.3582648 -0.20174953 0.060313046 15
-0.65929234 -0.37727731 1.9446373 15
1.138997 0.86568606 -2.9354365 15
-3.189316 0.12050903 0.53271824 15
-1.3271084 -0.63091618 0.032233 6
-1.2105541 -0.62144476 -0.024474323 6
-1.3388696 -0.58113742 0.026603341 7
0.91612571 -0.58997118 1.1224699 7
0.75094813 -0.62090826 1.4941993 7
-1.2107375 -0.57329684 -0.019904077 7
-1.3053906 -0.53079015 0.03348583 8
-3.1797304 -0.58759511 0.47640151 8
1.9161427 0.11694491 -6.4635768 8
1.1973627 -0.21236211 -2.8935196 8
-2.0408268 -0.08099246 -5.4323673 8
-1.2883265 -0.045319855 -5.6396484 8
-0.71129578 -0.6115002 1.7397988 9
-1.3407078 -0.48098031 0.034431458 9
-0.63443977 -0.61674517 1.9927113 9
-3.1939681 -0.484092 0.48174769 9
0.7453807 -0.53808206 1.4984303 9
1.1685979 -0.055003762 -2.995647 9
1.9085376 0.38865811 -6.444612 9
-2.0474341 0.15192616 -5.4166493 9
-1.2932408 0.18801183 -5.6132007 9
-1.2158651 -0.47684199 -0.015727222 9
-0.71149051 -0.57988811 1.7407446 10
-1.3461957 -0.43007874 0.034413695 10
-0.63364005 -0.5780881 1.9898462 10
-3.2013853 -0.37990129 0.4882912 10
0.74615186 -0.49636328 1.5025313 10
1.1645386 0.094139099 -2.9855862 10
1.8998554 0.66073549 -6.4219551 10
3.2482054 -0.29676628 3.9801333 10
-1.2108769 -0.42950907 -0.0058302283 10
-2.0514221 0.38429409 -5.3915095 10
-1.3000131 0.42326736 -5.5983729 10
-0.71576273 -0.54779255 1.7491293 11
-1.341795 -0.38041705 0.042957246 11
-0.63513255 -0.53928298 1.9937146 11
-3.2085173 -0.27478832 0.49495131 11
0.91675228 -0.41708773 1.1359391 11
1.1870711 0.22614217 -2.868341 11
-1.2049584 -0.38272515 0.0049853325 11
-1.3163521 -0.3311674 0.04254055 12
-3.1844046 -0.17295128 0.50661641 12
-0.64799172 -0.50444406 1.9376214 12
0.77821428 -0.40327293 1.2651465 12
-0.72440761 -0.48262048 1.7519019 13
-1.3449225 -0.27514189 0.035734057 13
-3.1899178 -0.06454283 0.49130791 13
-0.65948069 -0.46577427 1.9454751 13
0.90980512 -0.33002159 1.1508785 13
0.79989499 -0.35688829 1.231792 13
0.76677936 -0.36491951 1.2735441 13
3.2158773 0.19946206 4.0466881 13
-1.2174886 -0.27284625 -0.042192161 13
-0.7258395 -0.44931358 1.7551131 14
-1.3291271 -0.22840789 0.054233909 14
-3.1971598 0.043949246 0.49817032 14
0.90796548 -0.28527477 1.1540214 14
1.1726677 0.69925869 -2.9193075 14
0.79677051 -0.31580701 1.2342429 14
0.77497715 -0.32177284 1.2796582 14
-1.2080634 -0.2326889 0.0017014146 14
-0.72307551 -0.41702694 1.750793 15
-1.3327618 -0.17498246 0.05605489 15
-0.65876377 -0.38962138 1.9432578 15
-3.1951025 0.15213144 0.50664419 15
0.9008376 -0.24136621 1.1561605 15
1.172626 0.86075854 -2.9204397 15
0.79663748 -0.27332896 1.2376115 15
0.76865834 -0.28141189 1.2809453 15
-1.2173849 -0.17065865 -0.031831205 15
-0.6698212 -0.74694109 1.8537813 5
-0.66757286 -0.71346575 1.8505837 6
0.90862918 -0.6303671 1.1490427 6
0.78405845 -0.6624946 1.5607264 6
-1.2969145 -0.63573879 0.019295335 6
-1.3295892 -0.58342415 0.024386168 7
-0.61574602 -0.69135177 1.9945853 7
0.76609433 -0.62085313 1.5361449 7
0.90869117 -0.59057194 1.151958 7
-1.1906686 -0.57493794 -0.022697449 7
-0.66991425 -0.64891869 1.855916 8
-1.3365355 -0.52873033 0.023272991 8
-0.61758822 -0.65554887 1.9989424 8
0.77662683 -0.58312678 1.5634938 8
0.88967288 -0.55146337 1.152596 8
-3.2031019 -0.56461954 0.1505127 8
1.1780289 -0.19374603 -2.983532 8
-1.1914375 -0.52278686 -0.018179059 8
-2.0208106 -0.07462579 -5.413095 8
-1.2627946 -0.035778344 -5.631577 8
-1.3339318 -0.47448418 0.03099525 9
-0.62241381 -0.61973578 2.01015 9
0.90576243 -0.51100051 1.1574308 9
-3.1837246 -0.4557904 0.16513705 9
0.76415825 -0.54332256 1.5417044 9
1.146939 -0.029070854 -3.0977283 9
-1.1819826 -0.47193581 -0.0024814606 9
-2.0295205 0.16256034 -5.4024844 9
-1.2693511 0.20225298 -5.6117406 9
-0.67198157 -0.58409035 1.8607829 10
-1.3260583 -0.42125005 0.043518186 10
0.90192354 -0.47133631 1.1598811 10
-3.2039468 -0.34489864 0.16768909 10
0.76824248 -0.50391459 1.5471592 10
1.1378512 0.12373221 -3.0724897 10
-1.181954 -0.42035922 0.0028605461 10
-2.039221 0.40156722 -5.3951035 10
-1.2746342 0.43971801 -5.5839744 10
-1.3362162 -0.3649469 0.039575696 11
-0.62365299 -0.5466212 2.0132546 11
0.77564514 -0.46367997 1.5731418 11
-3.2116153 -0.23360097 0.17415148 11
0.87068284 -0.43648246 1.1752276 11
-1.2004358 -0.36438724 -0.011826873 11
-0.68278229 -0.51871729 1.8546444 12
-1.3404934 -0.30882683 0.041083336 12
0.78610778 -0.42132762 1.5823714 12
-3.2114022 -0.12226549 0.18305331 12
1.1328205 0.43983352 -3.0640154 12
0.87683463 -0.39574045 1.1790304 12
3.1898584 0.012480736 4.020216 12
-1.1950655 -0.31291169 -0.00058448315 12
-1.3040272 -0.2578398 0.049724579 13
-0.62304759 -0.47309989 2.0121264 13
0.78521609 -0.37997895 1.5854146 13
-3.2115235 -0.0098874569 0.19193363 13
1.1260403 0.59724092 -3.0462141 13
-0.68154204 -0.45289597 1.8540097 14
-1.3493196 -0.19374308 0.044123292 14
0.77925313 -0.33932745 1.5856738 14
-0.62234294 -0.43615282 2.0106397 14
0.88936055 -0.31042656 1.1701728 14
-3.2136786 0.10425651 0.20032644 14
1.1501375 0.7266233 -2.9168835 14
-1.3352257 -0.1418249 0.062301278 15
0.77162445 -0.29889056 1.5850196 15
-0.62476313 -0.39745125 2.0163338 15
0.86695945 -0.27542287 1.1865754 15
-3.2226055 0.22198182 0.20691049 15
1.1463802 0.88768578 -2.9086175 15
3.1608629 0.50142097 4.0414844 15
0.84564602 -0.70196563 1.6257384 5
0.92933536 -0.62674135 1.1613955 6
0.85098827 -0.66379356 1.6316023 6
-1.2808186 -0.58350635 0.05138278 7
0.92256081 -0.58910334 1.1639156 7
-1.2869682 -0.52542204 0.05101788 8
0.84418118 -0.58651644 1.6348143 8
0.88946325 -0.55416024 1.1809753 8
-3.2642682 -0.53680903 -0.14465451 8
1.2280746 -0.2104744 -2.755085 8
-2.0566497 -0.069687843 -5.3835087 8
-1.383633 -0.036997676 -5.5691333 8
-1.2876464 -0.46745649 0.05608201 9
0.79712045 -0.54876024 1.581043 9
-3.281889 -0.41619778 -0.14224231 9
-2.0631456 0.17134196 -5.3653946 9
-1.3886645 0.2039727 -5.5425978 9
-1.2830409 -0.41024047 0.06632483 10
0.7986694 -0.51213741 1.5848192 10
0.91406691 -0.47712326 1.1716938 10
-3.2849524 -0.29548091 -0.13353515 10
0.67981511 -0.49503553 5.71911 10
1.1869583 0.098487854 -2.8338223 10
-2.0687709 0.41272092 -5.3442454 10
-1.4001023 0.450333 -5.5493078 10
-1.2866064 -0.35154149 0.068590403 11
0.79705417 -0.47550532 1.5871536 11
-3.2729805 -0.17608458 -0.11844754 11
0.67387033 -0.33326238 5.7234087 11
1.1155121 0.28818381 -3.0446625 11
-1.2941574 -0.29110873 0.067065358 12
0.83823568 -0.43146592 1.6450497 12
-3.2828569 -0.053041577 -0.11248922 12
0.88965678 -0.40661517 1.1915605 12
0.66912299 -0.16995054 5.7347155 12
-0.61372298 -0.49265087 1.9745195 13
-1.2956344 -0.2313379 0.071513414 13
0.9191879 -0.36113435 1.1800832 13
-3.2877076 0.070780277 -0.10429668 13
0.67278916 0.0014761686 5.7946496 13
1.2063712 0.53491557 -2.6998396 13
-0.61762851 -0.45832217 1.9816725 14
-1.3025546 -0.16880548 0.07082355 14
0.78984356 -0.36416748 1.5931989 14
-3.2809026 0.19345671 -0.091166019 14
0.89468729 -0.32895961 1.1973209 14
0.66953242 0.172194 5.8159494 14
1.1700594 0.71574128 -2.7914014 14
-1.2952293 -0.11066017 0.083862424 15
0.79599273 -0.32366332 1.5993984 15
0.90295064 -0.28611097 1.1850408 15
-3.301692 0.32535565 -0.089183927 15
0.66276801 0.34232336 5.8176198 15
1.1010751 0.94598687 -3.0122757 15
-0.85455972 -0.68727493 0.98403454 5
0.89561665 -0.66090173 1.2212219 5
-0.85255688 -0.65526199 0.98751712 6
0.83730674 -0.65447718 1.5962943 6
0.8306762 -0.62106246 1.5966316 7
-1.2718796 -0.58654755 0.070609212 7
-1.1700245 -0.78849202 2.9505155 7
0.88785732 -0.59353364 1.2262578 7
-1.3966237 -0.046105921 -5.5306196 8
-0.8768335 -0.58812505 0.93823332 8
-1.2559853 -0.52505082 0.092999339 8
-1.1690497 -0.71899396 2.9512284 8
0.83508795 -0.58787459 1.6008462 8
0.88424456 -0.56024772 1.2287358 8
1.2338537 -0.21850854 -2.7348709 8
3.2495024 -0.63578874 4.0692439 8
-1.4047581 0.20114011 -5.5212822 9
-0.86498165 -0.55578834 0.94672549 9
-1.2672086 -0.46199074 0.087536097 9
-1.16974 -0.64982206 2.9543386 9
0.88472849 -0.52676654 1.231024 9
0.80189961 -0.55255312 1.5218915 9
-1.4136767 0.45041001 -5.5155048 10
-0.8821851 -0.51791394 0.91079336 10
-1.266404 -0.39978695 0.094411373 10
0.86999339 -0.5189116 1.649874 10
0.91828614 -0.48687917 1.2027693 10
-1.1650181 -0.58068037 2.9496226 10
1.2213184 0.080791414 -2.6988716 10
0.80200189 -0.52090079 1.5243863 10
3.2478645 -0.3334114 4.0961189 10
-0.87804389 -0.48451912 0.91577184 11
-1.2725548 -0.33592457 0.094264984 11
0.92090607 -0.45127925 1.2049941 11
0.80197072 -0.48900074 1.5268638 11
1.2530347 0.21710831 -2.5952654 11
-1.2715726 -0.27299857 0.1013937 12
0.9260233 -0.41463718 1.2070946 12
-1.176124 -0.44034231 2.969965 12
-3.3510194 0.021545291 -0.40616322 12
1.2430829 0.36250824 -2.5659328 12
-0.87730122 -0.42112583 0.95182538 13
-1.2808015 -0.20637122 0.098336816 13
0.86714345 -0.41176558 1.6574533 13
-1.1880116 -0.36708248 2.9893904 13
0.90325099 -0.38479036 1.2254295 13
-3.3570087 0.15753388 -0.39797795 13
1.2092348 0.53991747 -2.6674166 13
-1.2730743 -0.14440823 0.11233795 14
0.80193913 -0.3912071 1.5622962 14
-1.1785548 -0.2974529 2.9778433 14
0.89890456 -0.34994459 1.2280995 14
-3.3601286 0.2947737 -0.38812149 14
2.7504833 0.095341146 2.5198016 14
1.2408062 0.67258859 -2.5632787 14
-0.87536556 -0.35279006 0.95843089 15
-1.2861253 -0.073573709 0.10574269 15
0.80659276 -0.35580537 1.5665042 15
-1.1809503 -0.22410667 2.9835463 15
-3.3603246 0.43326628 -0.37656498 15
2.7429988 0.20772696 2.5258713 15
-0.82429087 -0.70049626 1.0904551 5
0.9187119 -0.65699154 1.2357547 5
0.9053334 -0.68612742 1.6512103 5
0.90352702 -0.62433004 1.2406473 6
0.90285289 -0.65357774 1.6530856 6
-0.83097208 -0.66789168 1.0903261 6
-0.86606169 -0.66394883 0.94597638 6
0.90618026 -0.62130421 1.6565088 7
0.90385616 -0.59243262 1.242659 7
-1.275386 -0.5944953 0.088955998 7
-1.1730295 -0.7811265 2.7981858 7
0.90505898 -0.56043476 1.2445176 8
-1.2700263 -0.52836001 0.10172403 8
-0.83893132 -0.60177833 1.0925188 8
-1.1832489 -0.71886438 2.8119695 8
-0.87204516 -0.55442446 0.95243573 9
0.90054882 -0.52878737 1.2473961 9
-1.2790104 -0.46120065 0.099360824 9
0.90361249 -0.55646408 1.6608862 9
-0.81547701 -0.573753 1.1474131 9
3.3633871 -0.48690706 4.3093872 9
1.1934284 -0.058444738 -2.5927262 9
-0.8727423 -0.51778126 0.95535904 10
-1.2776608 -0.39486381 0.10788977 10
0.90896845 -0.49559543 1.2480153 10
0.91163981 -0.52300513 1.6656728 10
-0.83427513 -0.53580666 1.1002419 10
-1.1835241 -0.591757 2.8168559 10
3.3572505 -0.33242065 4.3189325 10
-1.2775316 -0.32821119 0.11515582 11
-0.81709361 -0.50991619 1.1521714 11
-1.1826512 -0.52806377 2.8181629 11
1.183121 0.24193579 -2.5706787 11
0.89721251 -0.4587329 1.6667994 12
0.90441263 -0.43084633 1.2530521 12
-1.296198 -0.25612888 0.10303116 12
-1.1970903 -0.46219581 2.8368433 12
3.3458481 -0.020483077 4.339057 12
0.90562522 -0.42347139 1.6718313 13
0.90173721 -0.39820778 1.2556602 13
-0.87361073 -0.40666786 0.96495104 13
-1.2795217 -0.1930092 0.12750137 13
-1.1990162 -0.39653376 2.8413825 13
0.90604866 -0.38903451 1.674639 14
-1.2911794 -0.1203171 0.12288928 14
-1.20066 -0.33005953 2.8456326 14
1.1672703 0.70314187 -2.5367379 14
-1.2903321 -0.050867438 0.131217 15
-1.2015672 -0.2627728 2.8490791 15
3.3337255 0.46256608 4.3749647 15
-0.86825871 -0.67105538 0.93876565 6
-1.2233338 -0.77580392 2.664535 7
-0.87640488 -0.59003645 0.94088662 8
-1.2262448 -0.71667147 2.6695366 8
3.4241018 -0.63280308 4.3471494 8
-1.2264144 -0.65731424 2.6722353 9
-0.87549031 -0.50900841 0.94926822 10
-0.77285963 -0.55262077 1.2942376 10
-1.2214199 -0.59801024 2.6705775 10
1.1646124 0.098976791 -2.5892243 10
0.94405663 -0.49026933 1.6746409 11
0.91003567 -0.45813078 1.2302721 11
-0.87887597 -0.47058699 0.97053885 11
-0.78204441 -0.51971948 1.2936993 11
-1.2197713 -0.53876752 2.6717381 11
3.4138484 -0.17239082 4.3847456 11
-0.87547362 -0.43062037 0.97661114 12
-0.77508563 -0.48849919 1.2988377 12
-1.2245162 -0.47864169 2.678328 12
3.2994623 -0.042624056 4.0716443 12
0.94167864 -0.42605287 1.6792333 13
0.90091628 -0.39491582 1.237283 13
-0.77067775 -0.45702803 1.3030775 13
-1.2317172 -0.41721642 2.6870449 13
1.1456794 0.56391913 -2.5449505 13
0.94000125 -0.3934575 1.6814935 14
0.89851749 -0.36242318 1.2400823 14
-0.86059672 -0.36380306 1.0491328 14
-0.78048891 -0.42220578 1.3024752 14
-1.2289627 -0.35652429 2.6873355 14
-0.85405123 -0.32581046 1.0566459 15
0.89942378 -0.32835191 1.2418149 15
-1.243237 -0.291008 2.702193 15
1.135972 0.88728756 -2.5276361 15
3.2943449 0.408261 4.1118541 15
-0.83874005 -0.68976963 1.1049922 6
-1.2117255 -0.77185357 2.6280084 7
-0.82944268 -0.60178858 1.1203066 8
-1.2154166 -0.71601903 2.632983 8
-0.83623236 -0.55765927 1.1196115 9
-1.2194096 -0.65998316 2.6381488 9
-0.83176798 -0.51430655 1.127072 10
-1.2236875 -0.60357261 2.6435041 10
2.2609489 -0.27910644 0.76880896 10
3.4461608 -0.33160233 4.3380518 10
-0.85959142 -0.46256238 1.0891117 11
-1.2228998 -0.5469597 2.6458282 11
2.2643209 -0.1941686 0.77099252 11
-0.85926253 -0.41686144 1.0938191 12
-1.2272654 -0.48954552 2.6512856 12
2.2479875 -0.11312574 0.78448606 12
3.4331856 -0.034186184 4.3572774 12
-0.85235041 -0.37252167 1.1033542 13
2.2475231 -0.027430892 0.78894556 13
-0.8555786 -0.32525656 1.1055336 14
-1.2329077 -0.37267113 2.6604476 14
2.2426033 0.058118284 0.79599845 14
-0.8647266 -0.27504471 1.1035392 15
-1.2328473 -0.31346712 2.6633363 15
2.2329288 0.14307296 0.8057971 15
3.4268937 0.42898577 4.3980627 15
-0.80693233 -0.6786226 1.1906817 6
-0.80647767 -0.62972075 1.1961908 7
-1.0921451 -0.58367389 0.32941806 7
-1.235986 -0.7599352 2.6125174 7
2.2450972 -0.51490247 0.71988654 7
-0.80529022 -0.58109927 1.2022979 8
-1.2403773 -0.70489228 2.6177609 8
3.5639753 -0.648727 4.5798368 8
2.230197 -0.43098244 0.7360245 8
2.6511064 -0.86175603 7.3837638 8
-0.80399776 -0.53561854 1.233886 9
-0.61247981 -0.60200739 1.8227448 9
-1.0936073 -0.42810491 0.34598112 9
-1.2428904 -0.64957643 2.6223214 9
2.232173 -0.34544337 0.7396847 9
3.4760518 -0.49842772 4.378294 9
2.6410465 -0.65605938 7.3917994 9
-0.80851495 -0.48698843 1.2351805 10
-1.1031089 -0.34836119 0.34287095 10
-1.2293143 -0.59453344 2.6208591 10
2.5963783 -0.33869368 1.8005831 10
2.2375793 -0.25852481 0.74087095 10
3.5127892 -0.35539287 4.4935412 10
0.60644162 -0.55566406 8.0947933 10
-0.80549252 -0.43924254 1.2426583 11
-1.1082391 -0.26852167 0.34556627 11
-1.2469943 -0.53809088 2.6311541 11
2.6039047 -0.25273693 1.8060941 11
2.2362294 -0.17202196 0.74706781 11
3.4806361 -0.21345887 4.4097414 11
0.59888089 -0.34273434 8.1006927 11
-0.80903053 -0.38520536 1.2196004 12
-0.61679775 -0.5058952 1.8298237 12
-1.1023713 -0.19134754 0.36252236 12
-1.2491891 -0.48164865 2.6356697 12
2.5954404 -0.16847929 1.8126647 12
2.228322 -0.086553514 0.75808883 12
3.5096226 -0.062295496 4.5202641 12
0.59343529 -0.12559241 8.1433487 12
-0.82420087 -0.33118719 1.2122551 13
-0.6126591 -0.47427905 1.8339022 13
-1.1147457 -0.10712981 0.3561362 13
-1.2533751 -0.42425883 2.6409903 13
2.5844016 -0.084275424 1.8194218 13
3.5376577 0.096782506 4.6339979 13
2.2369246 0.0048915148 0.75716543 13
0.58581829 0.091584802 8.1508865 13
-0.61252737 -0.44167149 1.8368065 14
-1.1083715 -0.029086411 0.37386715 14
-1.2437506 -0.36845636 2.6410525 14
2.5838962 0.0033842921 1.8256453 14
3.5340791 0.25095034 4.6466465 14
2.2147126 0.086903453 0.77863908 14
0.57868302 0.31265432 8.1685886 14
-0.62017637 -0.40650797 1.8374858 15
-1.1115141 0.054061174 0.37959051 15
-1.2512978 -0.30877456 2.6477778 15
2.6008282 0.098066568 1.8310778 15
2.2216454 0.18094838 0.77911615 15
3.4531646 0.3705917 4.4471898 15
-0.60017771 -0.76534462 1.739444 5
-1.2302132 -0.83668035 2.5875874 6
-1.0840375 -0.73453641 0.32886648 6
-0.60287678 -0.72902232 1.7412231 6
-0.55111355 -0.69999713 1.9437578 7
2.5750697 -0.57893825 1.6940793 7
2.2038257 -0.51614439 0.44927502 7
-1.2384694 -0.78135347 2.5927382 7
-0.60905081 -0.69285864 1.741231 7
-0.74074191 -0.63128787 1.3274229 8
2.573601 -0.49748105 1.6998821 8
2.1903303 -0.42717952 0.46328962 8
3.4840729 -0.63692534 4.5081716 8
-0.76961559 -0.57570136 1.2542573 9
-1.1043282 -0.48670137 0.33247697 9
-0.55197376 -0.63636333 1.9484557 9
2.5544534 -0.41764784 1.7091669 9
2.1911907 -0.33640784 0.46343458 9
3.5149899 -0.50007504 4.6165209 9
-1.2290938 -0.66936237 2.5965331 9
-0.74186617 -0.53455687 1.3362755 10
-1.1085207 -0.40353441 0.3371799 10
-0.55252099 -0.60334659 1.9373009 10
2.5527525 -0.33626628 1.7150124 10
-1.2427466 -0.61332798 2.6030946 10
3.4801755 -0.3601034 4.5327654 10
0.59415859 -0.53973889 8.151823 10
-0.76993006 -0.47389638 1.2645161 11
-1.1059344 -0.32144013 0.35079491 11
-0.54740077 -0.5731076 1.9547801 11
3.5421932 -0.21087497 4.7405267 11
-1.223645 -0.55832785 2.6012733 11
0.58601445 -0.33017516 8.1671543 11
-0.75085658 -0.43556666 1.3387586 12
-1.1254139 -0.23282459 0.33577418 12
-0.56568938 -0.53716058 1.9382818 12
3.5236657 -0.06646347 4.7406721 12
-1.2400751 -0.50074124 2.6086264 12
0.57750922 -0.11932045 8.1763411 12
-0.77922231 -0.36874923 1.2671403 13
-1.1142869 -0.15233839 0.36058676 13
-0.55980676 -0.50522465 1.9426783 13
3.5220284 0.08223474 4.7543869 13
-1.2404933 -0.44374382 2.611877 13
0.56876117 0.093020797 8.181921 13
-0.78058428 -0.31589442 1.2714012 14
-1.1172657 -0.066631198 0.36722422 14
3.4770315 0.21623081 4.6594696 14
-1.2562757 -0.38340476 2.6192169 14
0.5603494 0.3091892 8.1975021 14
-0.75296646 -0.28510541 1.3522251 15
-1.1281128 0.024050653 0.36397767 15
-1.2587626 -0.32398167 2.6231272 15
3.5205164 0.38783252 4.7840099 15
0.5520342 0.5300225 8.2190075 15
-0.52253217 -0.79042625 2.0150115 5
-0.51691478 -0.75723475 2.0192459 6
-0.51539689 -0.72561663 2.0356956 7
-1.2274578 -0.80530953 2.5661833 7
0.97123957 -0.59345973 1.6035682 8
1.2116821 -0.59273839 1.9401116 8
3.5338793 -0.59047353 4.6006804 8
-0.50468403 -0.69354898 2.0411916 8
-1.2244191 -0.74877024 2.5685482 8
0.97340459 -0.56015664 1.6008635 9
1.2109001 -0.5603773 1.9418296 9
-0.76506084 -0.59513819 1.2468792 9
-1.1153507 -0.50652909 0.29574847 9
3.5612607 -0.45241699 4.7061644 9
-0.51343715 -0.66194618 2.0410702 9
-0.53855342 -0.68048912 2.332217 9
-1.2316332 -0.69267452 2.5727446 9
0.96287495 -0.5322836 1.6338005 10
1.2029028 -0.52901697 1.9460702 10
-0.77223247 -0.54063636 1.246134 10
-1.1154633 -0.42008352 0.30702972 10
3.5240002 -0.31387675 4.6203575 10
-0.50919557 -0.63044465 2.0446677 10
-0.54564863 -0.64885205 2.3344152 10
-1.2407091 -0.63601696 2.5773065 10
0.55010754 -0.51191533 8.0699959 10
0.9573161 -0.5015043 1.6401737 11
1.199156 -0.49708945 1.9488237 11
-1.131371 -0.32992586 0.29720926 11
3.524404 -0.17338723 4.6343241 11
-0.50773257 -0.59891915 2.0474701 11
-0.54914683 -0.61688399 2.336452 11
-1.2417228 -0.57907534 2.5804253 11
0.5396114 -0.30901408 8.072156 11
-1.132309 -0.24208897 0.30754638 12
3.4971089 -0.03662616 4.627636 12
-0.51723355 -0.56593269 2.0472388 12
-0.55922294 -0.58383417 2.338882 12
-1.2584836 -0.52024299 2.5864887 12
0.52927679 -0.1044001 8.0813789 12
-1.1363444 -0.15262938 0.31386328 13
3.5374002 0.12055749 4.7445359 13
-0.51730806 -0.53358078 2.0496628 13
-0.5621624 -0.55082101 2.3409519 13
-1.2483778 -0.46337366 2.5875936 13
0.51887411 0.10241622 8.0919151 13
-1.1430056 -0.060970545 0.31688178 14
3.5339234 0.26884669 4.7565041 14
-0.52048659 -0.5002774 2.0512686 14
-1.2386162 -0.40660396 2.5887551 14
0.50858182 0.31345004 8.1117249 14
-1.1376317 0.026691973 0.33582449 15
3.4856563 0.39744776 4.6614838 15
-0.54223466 -0.48853534 2.3435781 15
-0.51654035 -0.46804762 2.0548365 15
-1.2393699 -0.34765294 2.5919304 15
0.49762267 0.52452689 8.1128731 15
1.2419699 -0.72086513 1.9859767 5
1.232574 -0.65647864 1.9928365 7
-1.096751 -0.69363242 0.23001719 7
-1.2408876 -0.81459475 2.5541718 7
1.2087644 -0.62559378 1.9912627 8
-1.098019 -0.60234106 0.23969555 8
3.5364561 -0.59372342 4.5981808 8
-1.238274 -0.75682825 2.5568619 8
0.93677425 -0.58768696 1.6753795 9
1.2163969 -0.59293079 1.9882066 9
-1.1413717 -0.51260781 0.25495434 9
3.5564907 -0.45857453 4.6953354 9
-0.4724547 -0.67784899 2.1475775 9
0.93386638 -0.55643582 1.6791148 10
1.2190559 -0.56029713 1.9877951 10
-1.1410087 -0.42122987 0.26678371 10
0.90359473 -0.55846715 5.8979216 10
3.551784 -0.3200317 4.7052088 10
-0.4803023 -0.64594507 2.1477363 10
0.5606029 -0.51575035 8.0664816 10
