# .PCD v0.7 - Point Cloud Data file format
VERSION 0.7
FIELDS x y z intensity
SIZE 4 4 4 4
TYPE F F F F
COUNT 1 1 1 1
WIDTH 1309
HEIGHT 1
VIEWPOINT 0 0 0 1 0 0 0
POINTS 1309
DATA ascii
1.4350816 -0.1537967 -1.6109715 9
-2.2762299 -0.23851934 2.3344886 14.666667
-2.021157 -0.31171674 2.2629728 13.888889
-1.6816094 -0.27257425 2.1711037 14.5
1.4142035 0.24115634 -1.5753388 12.2
1.3883976 0.55133462 -1.5923519 14.6
-1.4154727 -0.79914069 2.0786448 6.6666665
-1.0760456 -0.77231985 1.9450058 6.5999999
-0.61961865 -0.76367551 1.2182093 5
-0.38524652 -0.73312914 0.95675164 5
-0.21898496 -0.70209461 0.61833227 5
0.75440252 -0.58566576 -0.30272216 6
1.5594064 -0.41899925 -1.1453698 7
-1.4296547 -0.54294682 2.0901415 10.5
-1.0906773 -0.53750706 1.9579253 10.238095
1.539765 -0.18251193 -1.1422701 9
-1.4511766 -0.26992139 2.1077716 14.5
-1.1242664 -0.25969765 2.020864 14.4
1.5158581 0.23486966 -1.0977881 12.5
1.5014876 0.54251134 -1.0676713 15
0.73869145 -0.64138395 0.61087722 6
0.79345453 -0.62209803 0.33539051 6
0.79300249 -0.60459745 0.054369405 6
1.6778029 -0.44357455 -0.61039168 7
1.6604053 -0.43484294 -0.7767027 7
1.6742541 -0.24040836 -0.5879789 8.75
1.6091088 -0.20076776 -0.81909138 9
1.6407176 0.21283573 -0.56589836 12.6
1.5846421 0.21041083 -0.77547234 12.5
1.616237 0.50581777 -0.57540327 15
1.5756644 0.51750612 -0.75953466 15
-0.14259851 -0.78487706 2.0403013 6
0.1289885 -0.75359631 1.8051136 6
0.35874021 -0.72212297 1.5277035 6
0.55546725 -0.68836045 1.1816244 6
0.71972597 -0.65364099 0.77535844 6
1.8237604 -0.47387555 0.01335974 7
1.770276 -0.4621962 -0.22040705 7
1.7655321 -0.11911654 -0.057903096 10
1.7472752 -0.24203879 -0.24074237 8.875
1.7960552 -0.0021611452 0.066639736 11
1.7217568 0.18604225 -0.2005872 12.5
1.7049793 0.49172807 -0.18397586 15
0.61528623 -0.6345343 1.6207582 7
0.7012645 -0.61524504 1.4060017 7
1.8933834 -0.48854333 0.30198354 7
0.61150658 -0.40704048 1.6767497 9.5
0.77683342 -0.37908402 1.3884511 9.5
1.8671955 -0.24675402 0.27589124 9
0.58451164 -0.032947004 1.6972834 13.5
0.74822176 -0.019040942 1.4153697 13.375
1.8429078 0.17939746 0.29774839 12.5
1.8369435 0.4511745 0.3702845 14.666667
2.0279193 -0.51877844 0.87057132 7
1.9632229 -0.50128937 0.55386871 7
1.9865991 -0.24615967 0.78048533 9.125
1.9741868 -0.37984967 0.61405391 8
1.9689873 0.10174394 0.82105261 11.857142
1.9340118 0.11857158 0.64381367 12
1.9360591 0.44455612 0.80503875 14.5
2.0999675 -0.5342713 1.1555319 7
2.1312504 -0.27554977 1.391405 9
2.0685883 -0.26940754 1.1095021 9
2.1167226 0.13740206 1.4419059 12
2.0477004 0.12755907 1.1515152 12
2.0898676 0.48995495 1.4621598 14.5
2.0208898 0.46673083 1.1594532 14.5
2.2419505 -0.56586981 1.7187304 7
2.2291722 -0.2985647 1.7498615 8.875
2.1943922 0.13293964 1.757508 11.875
2.1780777 0.49242878 1.8160145 14.285714
2.6222906 -0.38649589 3.3230479 8.5
2.6003866 -0.020507157 3.346395 10.5
2.5740762 0.3496865 3.3668947 12.5
2.550344 0.73004889 3.3904333 14.5
2.6641178 -0.66638672 3.4178114 7
2.6982455 -0.39184052 3.6230581 8.5
2.6772919 -0.0086022615 3.6491551 10.5
2.6489062 0.37904024 3.6698058 12.5
2.6218634 0.77633083 3.6925888 14.5
2.8740883 -0.71466011 4.2148485 7
2.8236384 -0.40098995 4.1217852 8.5
2.7758698 -0.39792842 3.9427488 8.5
2.8023615 0.012659013 4.1513877 10.5
2.7527575 0.0037769675 3.9692929 10.5
2.7761927 0.43231332 4.2056332 12.5
2.7243962 0.41036916 3.9918563 12.5
2.7394781 0.85576451 4.1943059 14.5
2.7074041 0.83063495 4.0258532 14.5
2.758317 0.98450387 4.3110142 15
2.9275961 -0.4085122 4.5411415 8.5
2.8925362 0.051154792 4.5390983 10.6
2.8638206 0.41211903 4.5497613 12.25
2.8609977 0.72485566 4.6402559 13.6
2.8171334 1.0286072 4.5484896 15
2.4034309 -0.86359471 5.8727517 7
2.8012033 -0.82170862 5.5933223 7
3.0115809 -0.41223922 4.8460941 8.5
2.9764729 -0.07150656 4.820652 10
2.9796019 0.27873945 4.9326935 11.5
2.9409628 0.74720013 4.9520049 13.5
2.9238977 1.110381 4.9802103 15
3.2474513 -0.7706849 5.2163348 7
3.2217798 -0.62023389 7.0989408 8
3.200458 -0.18028823 7.1350207 9.5
3.4478288 -0.15442118 7.0740657 9.5
3.1824403 0.26453888 7.1766486 11
3.3902879 0.28985125 7.1114178 11
3.1498823 0.56001091 7.1743808 12
3.3733954 0.59173501 7.1328406 12
3.1312113 1.0176684 7.217011 13.5
3.3604546 1.0847783 7.1573329 13.6
3.1021967 1.48182 7.245605 15
3.3169122 1.5202757 7.1921964 15
3.8712997 -0.56684369 6.9704299 8
3.6912413 0.022862792 7.0221829 10
3.9123459 -0.1045928 6.9621224 9.5
4.2287092 -0.070186794 6.8872447 9.5
3.6730194 0.32578057 7.0417795 11
3.9013052 0.35576725 6.98842 11
4.2002425 0.39576745 6.9167509 11
3.8488369 0.65985155 7.0138111 12
4.1807942 0.70969617 6.9363189 12
3.6343408 0.93992376 7.0792694 13
3.8031445 1.0735346 7.048018 13.333333
4.1633053 1.0277554 6.958694 13
3.6046433 1.5751702 7.1313562 15
3.8664522 1.51622 7.0574942 14.666667
4.1429582 1.3495067 6.9782729 14
4.6745987 -0.4972496 6.7586303 8
4.5447011 -0.034833252 6.8181791 9.5
4.5141115 0.43918419 6.8464069 11
4.4950733 0.7589047 6.8671498 12
4.4782729 1.0829698 6.8909011 13
4.4605808 1.4116219 6.9144382 14
-4.9049959 -0.77028966 1.0175227 8.5275002
-4.9818292 -0.33447054 1.0569882 12.0275
-5.034368 -0.0085270405 1.0853115 14.5275
-4.9000525 -0.58743554 1.0250764 10.0275
-5.846652 -0.97816324 2.8637631 8.0365
-5.7214456 -0.99373853 3.2691042 8.0387497
-1.0961474 -0.42130712 1.1859435 14.0775
-1.0604074 -0.24860248 2.0450485 14.573
-1.2374977 -0.60298932 0.0020094514 6
-1.2074676 -0.59874469 -0.042040586 6
-1.2442172 -0.57146662 -0.00027120113 7
-0.78238165 -0.68025941 1.5238185 7
0.75726694 -0.63786978 1.5202184 7
0.9578777 -0.60084981 1.1364982 7
-3.1535225 -0.70226699 0.43644005 7
-1.2136474 -0.56689394 -0.044363439 7
0.75031251 -0.57991159 1.5212687 8
1.1621161 -0.14487383 -3.0837953 8
0.91013473 -0.54567295 1.1493459 8
1.9966216 0.22629321 -6.4829555 8
-3.1491861 -0.61188024 0.44415766 8
-2.0188725 -0.025170028 -5.4209871 8
-1.2264314 0.022504568 -5.643743 8
-1.2055674 -0.53556991 -0.032971084 8
-1.2738907 -0.50934207 0.01674962 9
1.1561611 -0.0031741858 -3.0694251 9
0.96102256 -0.48406267 1.1482208 9
1.98511 0.48860615 -6.4536681 9
-3.1382482 -0.52205044 0.45218712 9
-2.0269537 0.19183892 -5.4062176 9
-1.233891 0.24220467 -5.626009 9
-1.2139337 -0.50316721 -0.037343562 9
-1.2850841 -0.47561473 0.0113644 10
0.74939269 -0.46377775 1.5325295 10
1.1567225 0.14163917 -3.0692313 10
0.89996582 -0.43246499 1.1557696 10
1.9747534 0.75195223 -6.4276257 10
-3.1578007 -0.43111008 0.45865589 10
-2.0373693 0.41139251 -5.4006038 10
-1.2416718 0.46317512 -5.6108074 10
-1.2881113 -0.44232354 0.012545824 11
0.7537449 -0.40441787 1.5416782 11
1.1460423 0.28248942 -3.0445654 11
0.95155138 -0.36706454 1.1553446 11
2.0932386 1.0328348 -6.4324875 11
-3.158545 -0.3402085 0.4661414 11
-1.2764893 -0.41199332 0.025269091 12
-0.78702414 -0.51011354 1.5314083 12
0.74709743 -0.34590524 1.5430007 12
0.97352558 -0.30280554 1.1429524 12
1.141731 0.42741126 -3.0337448 12
2.0875859 1.3056793 -6.41927 12
-3.1427174 -0.25081187 0.47439975 12
-1.243875 -0.38127473 0.021104276 13
0.7479381 -0.28549895 1.5497861 13
1.1278028 0.56742793 -3.0020056 13
0.93533868 -0.25028068 1.1599815 13
2.0722454 1.5743434 -6.3801055 13
-3.1502733 -0.15792474 0.48167974 13
0.97639483 -0.17890868 1.1550975 14
1.1529055 0.69680494 -2.9154351 14
2.0637498 1.8519363 -6.3593163 14
-3.16328 -0.062382162 0.48888475 14
0.73457307 -0.16590023 1.5526452 15
0.89173287 -0.13979578 1.1792852 15
1.1445115 0.84167832 -2.8959963 15
2.0581803 2.1374419 -6.3464103 15
-3.159894 0.031518936 0.49684244 15
-7.5340548 -1.0241857 1.6017251 7
-7.579123 -0.79617107 1.8351965 8
-7.6396365 -0.65507978 1.6191316 8.5
-7.6502023 -0.28113317 1.6490092 10
-7.6127291 0.20394725 1.9157839 12
-7.6685667 0.097144186 1.6803155 11.5
-7.6231275 0.45963901 1.9367137 13
-7.6730413 0.47890764 1.7098658 13
-7.6355505 0.98064834 1.9777772 15
-7.6935434 0.87165099 1.7426312 14.5
-7.4031382 -1.0676731 2.1987896 7
-2.6204431 -0.277152 -5.2666039 7
-7.5044885 -0.64838654 2.0855212 8.666667
-2.551101 0.054797649 -5.2841654 8.5
-7.5190544 -0.31701595 2.0954027 10
-2.5628722 0.48992997 -5.239532 10.5
-7.5230646 0.037579358 2.1560903 11.428572
-2.5745342 0.82100457 -5.2138667 12
-7.5219803 0.43164855 2.2299743 13
-2.5857599 1.1578352 -5.1856012 13.5
-7.552268 0.80618209 2.2187316 14.428572
-2.6006517 1.5048409 -5.1666946 15
-7.2675443 -1.1025701 2.6891696 7
-2.1874821 -0.25119185 -5.3967857 7
-7.3323545 -0.73072702 2.6549613 8.5
-2.1999862 0.074181557 -5.3753605 8.5
-7.3414831 -0.36059791 2.683567 10
-2.1280825 0.55145162 -5.3589258 10.666667
-7.3586473 0.013631761 2.7151227 11.5
-2.0952682 0.84895056 -5.3502522 12
-7.3702102 0.39244014 2.7452121 13
-2.1055081 1.184397 -5.3179111 13.5
-7.3855734 0.78048271 2.777231 14.5
-2.116076 1.5266175 -5.2860761 15
-2.3652658 -0.32953322 -4.3174415 7
-7.2177877 -0.73284078 3.0446873 8.6000004
-2.371762 -0.056405842 -4.2875128 8.5
-7.210351 -0.39202434 3.1669161 10
-2.3812683 0.30856657 -4.2497673 10.5
-1.5820751 0.66028613 -5.5013781 11
-7.2301083 -0.013738453 3.1308746 11.5
-2.4218383 0.69871789 -4.2922359 12.5
-1.589505 0.88231403 -5.4822636 12
-7.2470713 0.36642903 3.1630716 13
-2.4309855 1.0813022 -4.2504449 14.5
-1.6007206 1.2204106 -5.4528003 13.5
-7.2585812 0.75476533 3.1935945 14.5
-1.6124206 1.5658798 -5.4251294 15
-1.2192011 -0.19677514 -5.6634846 7
-7.0223989 -0.67177975 3.6333284 9
-7.1206532 -0.65541929 3.3771305 9
-5.6087017 -0.62404644 1.1926227 8.5
-5.2235498 -0.61533165 1.0781541 8.5
-2.1819351 -0.054860413 -3.5793808 9
-1.0037177 0.14582223 -5.6880913 8.5
-0.77541643 0.15998608 -5.744729 8.5
-6.9932103 -0.42648613 3.7018733 10
-7.1009245 -0.41274703 3.4971979 10
-5.6157284 -0.26916775 1.2206602 10.5
-5.2388439 -0.20523152 1.1114116 11
-2.2079117 0.34868354 -3.5783226 11.5
-1.0714717 0.58539969 -5.6382504 10.5
-0.79102117 0.60937148 -5.720943 10.5
-7.0460029 -0.045500219 3.6847761 11.5
-7.152082 -0.029987276 3.4317212 11.5
-5.6184988 0.17996275 1.2554028 13
-5.2345304 0.21029717 1.1430013 13.5
-2.2291341 0.68198317 -3.5768421 13.5
-1.1054044 0.92013484 -5.6064167 12
-0.80178672 0.9448815 -5.6763506 12
-7.0613689 0.33685464 3.7166815 13
-7.1597528 0.35100323 3.4601059 13
-5.6402473 0.5523712 1.2865658 15
-5.2309623 0.464472 1.1622262 15
-2.2300522 0.92728907 -3.5374405 15
-1.1165044 1.260762 -5.5730371 13.5
-0.81383711 1.2926626 -5.6571608 13.5
-7.0699549 0.72685283 3.74582 14.5
-7.1736059 0.74132365 3.4916513 14.5
-1.1287153 1.6103699 -5.546905 15
-0.82556421 1.6437566 -5.6244864 15
-5.8419495 -1.0364164 2.7603452 7
-4.6073084 -0.81337327 0.87879461 7
-1.4799774 -0.2798807 -4.540226 7
-0.67188317 -0.16787282 -5.8044481 7
-0.19800764 -0.14314848 -5.9323206 7
-4.7565479 -0.53144914 0.94396502 9
-3.4983494 -0.33855185 -0.79795235 9.5
-3.56162 -0.37009323 -1.0352345 9
-2.039762 -0.12115854 -3.0584855 9
-0.51901561 0.17734414 -5.8146048 8.5
-4.7415318 -0.12162474 0.96851355 11.8
-3.5098107 0.064333558 -0.76409179 13
-3.5770257 0.050640345 -0.98945481 12.5
-2.0626085 0.30352682 -3.0447462 12
-0.54407173 0.57126707 -5.7814212 10.25
-6.3770456 0.0090219378 3.6681812 12
-4.7921252 0.24682534 1.0136859 14.2
-3.5267389 0.30454993 -0.74874979 15
-3.5963798 0.33905286 -1.002316 14.75
-2.0832455 0.67173189 -3.0349059 14.5
-0.49108273 0.88422197 -5.7686162 11.6
-6.3809795 0.2422052 3.684787 13
-0.54423743 1.346652 -5.7261906 13.6
-6.3911948 0.71826452 3.719836 15
-0.56939441 1.6775825 -5.6949444 15
-5.7091718 -1.0643975 3.1559417 7
-4.3433709 -0.79366791 0.80480069 7
-3.3801789 -0.64605343 -0.4328478 7
0.39973468 -0.11386517 -6.0774012 7
-6.337841 -0.6789304 3.6046889 9
-5.8791103 -0.67658532 3.4626331 9
-4.2568388 -0.52915537 0.79418117 9
-3.412765 -0.38341027 -0.49599582 9.416667
-1.9278395 -0.17366824 -2.6485448 9
0.023422182 0.2138989 -5.9556537 8.5
0.39034766 0.20055592 -6.0575275 8.333333
-6.3322592 -0.3382498 3.622999 10.5
-5.888402 -0.36013675 3.4872122 10.5
-4.2607837 -0.14021239 0.82503921 12
-3.4319651 0.026001871 -0.4580031 13.2
-1.9403942 0.076849759 -2.6377268 11
-1.9527152 0.27031368 -2.6356618 12.5
-0.0012014508 0.55897611 -5.9201465 10
0.35125941 0.59145981 -6.0179796 10
-5.9293456 0.071016133 3.5360849 12.5
-4.2655783 0.19219142 0.85157555 14.5
-3.4468939 0.23631662 -0.47907597 15
-1.9558535 0.46163779 -2.6119483 14
-1.9625266 0.59509057 -2.6061485 15
-0.012076676 0.91115338 -5.9007788 11.5
0.33892792 0.94813985 -5.9856524 11.5
-6.3738384 0.47621578 3.695626 14
-5.9413414 0.40012366 3.5629151 14
-0.01552707 1.3885624 -5.8644915 13.5
0.3501839 1.3967211 -5.9592705 13.333333
-5.9475183 0.62360793 3.5800631 15
-0.041083157 1.7495141 -5.8242092 15
0.30996865 1.8045647 -5.9139223 15
-3.4645345 -0.72702545 0.54424649 7
-3.2626677 -0.67505044 0.020921052 7
-1.7515533 -0.45457608 -2.0512912 7
0.93289441 -0.087735862 -6.2182999 7
-5.4970393 -0.77311456 3.3420014 8.5
-3.7691646 -0.48654011 0.65083569 9.363636
-3.4759517 -0.47376266 0.5647034 9.5
-3.2677081 -0.43282044 0.02643615 9.5
-3.3338239 -0.55414009 -0.27221328 8
-1.7601979 -0.20107833 -2.0306098 9.5
-1.8351312 -0.16097146 -2.3033278 9.5
0.59603661 0.25338769 -6.099381 8.5
0.9033882 0.27600336 -6.1841736 8.5
-5.5015831 -0.37863415 3.368634 10.5
-3.8105285 -0.094064504 0.69217676 12.8
-3.4822054 -0.061881185 0.59810251 13.5
-3.281816 -0.034899712 0.060023189 13.545455
-1.7856131 0.22105795 -2.0205553 13.5
-1.8613162 0.24308616 -2.2989175 13
0.58370155 0.61125189 -6.0681295 10
0.89161199 0.64227551 -6.156518 10
-5.5430231 0.024472952 3.4165642 12.5
-3.7936378 0.16068971 0.70755404 15
-1.8710275 0.48027402 -2.2833078 15
0.62623924 0.98152059 -6.0611706 11.5
0.92525929 1.0181193 -6.1404443 11.5
-5.551496 0.43551427 3.4464183 14.5
0.59463733 1.4326339 -6.0268593 13.333333
0.9116556 1.392704 -6.1049724 13
0.61784238 1.7726638 -6.0029044 14.666667
0.90058345 1.7801099 -6.0819426 14.5
-3.1649113 -0.70083493 0.41119593 7
-2.9739614 -0.73487186 0.27437866 6.3333335
-2.7889328 -0.7233963 -0.099825621 6
-1.6626225 -0.47279793 -1.7220852 7
-3.2551017 -0.48829025 0.4585529 9.333333
-3.1854248 -0.41629446 0.31157619 10
-1.6702135 -0.22501078 -1.6951749 9.7777777
1.2007856 0.29717803 -6.2572088 8.5
1.4347854 0.31516445 -6.3216691 8.5
-3.2643993 -0.086453885 0.50011271 13.555555
-3.2039323 -0.085946828 0.33598882 13.5
-1.6176841 0.087689698 -1.4229345 14
-1.6961799 0.14706206 -1.7038381 13.714286
1.1890635 0.67099434 -6.2296257 10
1.4204073 0.69366223 -6.2845039 10
1.1767299 1.0485332 -6.1999168 11.5
1.4072781 1.0765662 -6.2518463 11.5
1.1638916 1.430629 -6.168395 13
1.3958907 1.4665339 -6.2255836 13
1.1339493 1.7748277 -6.1377449 14.333333
1.322778 1.8975692 -6.1751523 14.666667
-2.8303037 -0.82329541 1.1126704 6
-2.8954599 -0.79817009 0.7654621 6
-1.5316308 -0.51635903 -1.2391911 6.75
-1.3035994 -0.54714167 -1.6127076 6
1.5248981 -0.079693675 -6.0676513 7
-1.5449698 -0.26343882 -1.2315679 10.222222
1.6740422 0.33243054 -6.3783112 8.5
1.8650725 0.21653146 -6.4383383 8
-1.5471842 0.027847111 -1.1739295 14.25
1.6605556 0.71822459 -6.3443685 10
1.8505282 0.6070022 -6.4018159 9.5
1.6477692 1.1084564 -6.3131638 11.5
1.9015617 1.0090265 -6.3875074 11
1.6343558 1.5034916 -6.2800894 13
1.8879523 1.4101787 -6.3539414 12.5
1.6225135 1.9097202 -6.2522583 14.5
1.8753765 1.8191757 -6.3233232 14
1.8663497 2.097276 -6.3012848 15
-2.7554576 -0.84172511 1.3703229 6
-1.9493775 -0.73317832 0.35641536 5
-1.8722758 -0.70997453 0.12611011 5
-1.3442962 -0.5819726 -0.64298671 6
-1.4523275 -0.51538712 -0.95296103 7
-0.77776182 -0.51947939 -1.7255049 6
2.0644712 -0.083622932 -5.7736821 7
2.0112228 -0.075823426 -5.9136953 7
-1.3896954 -0.30517858 -0.65598387 11.25
-1.4590226 -0.38997883 -0.9468872 9
-1.4408114 -0.045328319 -0.79443961 15
-2.6508083 -0.85807878 1.6184249 6
-1.9205909 -0.77116048 0.85216141 5
-1.9547317 -0.74835038 0.55831146 5
-1.2393568 -0.59656692 -0.14304823 6
-1.1770585 -0.59896779 -0.45943493 5.5
-0.79867989 -0.59876794 -0.77286392 5
-0.22109115 -0.5008505 -1.7173665 6
-1.2496331 -0.40193623 -0.12589538 11.5
-1.3174617 -0.34783542 -0.39174181 11.5
-1.8103743 -0.79487151 1.1963279 5
-0.75865853 -0.62994033 -0.37217075 4
-0.47800916 -0.61844206 -0.39845479 4
-0.29021758 -0.58076149 -0.77286643 5
0.24468541 -0.49399543 -1.5989029 6
1.2083385 -0.29803401 -2.9108608 7
1.1971707 -0.020419896 -2.9182465 9
1.1793349 0.37160921 -2.8956592 11.8
1.1870873 0.73822814 -2.7884235 14.5
1.1311154 0.79857558 -3.0069656 14.5
-1.1740077 -0.81014627 1.2618608 3
-0.98418927 -0.7572788 0.97942412 3
-0.73286605 -0.71126699 0.77043784 3
-0.11058366 -0.61655486 -0.29499251 4
0.085851371 -0.58125257 -0.65228826 5
0.61301655 -0.5027864 -1.4292336 6
1.0601594 -0.36006713 -2.354182 7
1.337688 -0.32488286 -2.4621305 7
1.1118722 -0.10196796 -2.2482069 9.25
1.284812 -0.039727747 -2.6065166 9.125
1.1273131 0.30862296 -2.2497478 12.615385
1.2512488 0.35045022 -2.6396043 12
1.1659472 0.59142536 -2.2367852 14.8
1.2427278 0.69795662 -2.5848281 14.6
-0.77522933 -0.73058212 1.5198638 5.5
0.15758228 -0.63063133 -0.055683017 4
0.37938553 -0.59574336 -0.40685123 5
0.84827918 -0.51500398 -1.2502413 6
1.235852 -0.38324219 -1.9001517 7
-0.78393435 -0.5272975 1.5316871 11.5
1.2500579 -0.11817533 -1.8036032 9.5333338
1.3632853 -0.028248429 -2.2998013 9.5
1.2413189 0.28889054 -1.750536 13.333333
1.1800597 0.50344533 -1.8735256 15
1.3615193 0.51723868 -2.1862481 14
-0.62853783 -0.7449851 1.9923122 6.5
-0.68063247 -0.75048292 1.7684617 5.8000002
-0.35962784 -0.77221394 1.5296097 4
0.36199659 -0.66019189 0.42030731 4
0.69137257 -0.62119853 0.068325222 5
0.59451288 -0.60889137 -0.14129955 5
1.1515818 -0.52746928 -0.94093233 6
1.4576876 -0.4166013 -1.2858496 7
1.3828905 -0.40463138 -1.5002303 7
-0.64048535 -0.49473208 1.9990151 11.5
-0.70922697 -0.50090176 1.7772486 11.7
1.4298661 -0.16922393 -1.3142657 9.5
1.3420141 -0.19627127 -1.5726206 9
1.4203358 0.24816573 -1.2629795 13.7
1.3547349 0.2071507 -1.4676142 13
-0.26630807 -0.80007678 1.9219289 5
-0.055432558 -0.76814497 1.6235633 4.5
0.11699641 -0.73194999 1.2381928 4
0.3243373 -0.69886041 0.90002191 4
0.77469891 -0.65495139 0.55712032 5
0.77511483 -0.64198595 0.36856443 5
1.4810357 -0.51183093 -0.65950948 6.3333335
1.5692158 -0.43488359 -0.96842498 7
1.632731 -0.21551728 -0.76637226 9.5
1.5525599 -0.17779046 -0.98488265 9.7142859
1.6147485 0.15859216 -0.73481101 13.5
1.5380616 0.18422079 -0.95092994 13.5
-0.32675898 -0.87734276 2.8774812 6
0.16425925 -0.77120531 1.7433519 5
0.55347604 -0.70410603 1.4795594 5.6666665
0.76297015 -0.65746969 1.2261624 6.1111112
0.77724785 -0.67142981 0.75377548 5
1.5945988 -0.57160944 -0.16065437 6
1.7699246 -0.46655113 -0.44393533 7
0.74960214 -0.42291889 1.4892864 10.666667
0.83185023 -0.38687289 1.2580497 11
1.7745552 -0.24353448 -0.37656826 9.5
0.72688586 -0.17134944 1.503438 15
0.82133108 -0.15623525 1.2747734 15
1.7522497 0.13373369 -0.36941361 13.571428
0.21633881 -0.84734678 2.7441566 6
1.0076363 -0.65888512 1.1228554 6
1.7137008 -0.60954946 0.38028449 6
1.9513299 -0.50130463 0.087176621 7
0.7552771 -0.39162543 1.5319881 11.2
1.9324491 -0.28450194 0.074256718 9.3571424
1.9261675 0.10339075 0.12390894 13.529411
0.66777521 -0.81447238 2.5256639 6
0.88150996 -0.79483533 2.3738978 6
1.2004933 -0.75781596 2.0487123 6
1.6596491 -0.66991031 1.1329826 6
1.698679 -0.6490972 0.88729268 6
2.0903683 -0.52841234 0.48054987 7
-0.59308666 -0.69694221 4.9263911 9
-0.65331203 -0.69414669 4.7490129 9
2.1090131 -0.29530996 0.58009785 9.5
2.0200901 -0.18988061 0.32288533 10.5
-0.60630411 -0.31445497 4.9644389 11.5
-0.66583914 -0.328246 4.771307 11.5
2.0947289 0.094038963 0.61016279 13.5
-0.6198681 0.078355074 4.9963446 14
-0.67881876 0.04724735 4.8020034 14
-0.44335276 -1.0366902 5.3364902 7
2.289834 -0.57040739 1.0582113 7
2.2020583 -0.5524714 0.8145116 7
-0.48808938 -0.7835409 5.2505589 8.5
2.3382585 -0.31910971 1.2567496 9.5
2.2258263 -0.30891541 0.9295308 9.5
-0.50235373 -0.37381306 5.2773552 11
2.3228533 0.057927549 1.2740319 13
2.2101159 0.099934638 0.9532339 13.5
-0.51689202 0.043355465 5.3035989 13.5
2.3024042 0.27663529 1.2543907 15
-0.45174414 0.34686404 5.5557046 15
-0.56119615 0.27554709 5.1956444 15
2.3715825 -0.59034598 1.3207929 7
-0.32692462 -0.79952615 5.749258 8.5
2.4113221 -0.28882959 1.4850316 9.833333
-0.33940965 -0.43679583 5.7792153 10.5
2.3911736 0.047837734 1.4809823 12.833333
-0.3632763 -0.01804781 5.7743254 12.8
2.3858371 0.29791206 1.5090759 15
-0.32181722 0.33355296 5.9747028 14.5
-0.18235523 -0.81400615 6.2001557 8.5
-0.19575506 -0.41876712 6.2349796 10.5
-0.21113878 -0.020439386 6.243691 12.5
-0.2250424 0.38947242 6.279726 14.5
0.78035003 -1.000735 5.3812752 7
1.1219764 -0.97878784 5.2599878 7
0.057915866 -0.83765745 6.9459028 8.5
-0.070455611 -0.82489091 6.5424314 8.5
0.046998203 -0.50196207 6.9792356 10
-0.083754361 -0.40516096 6.5896425 10.5
0.75501841 -0.38180304 5.6988955 10.5
0.033424318 -0.16411793 6.9870157 11.5
-0.10116774 0.018336236 6.590704 12.5
0.75396091 -0.0022006035 5.7742987 12.5
0.016458452 0.29365259 7.0117636 13.5
-0.11186892 0.3435052 6.6226416 14
0.74268037 0.28608608 5.7921114 14
0.0044690967 0.64590627 7.0414181 15
-0.11977774 0.56384641 6.6366043 15
0.21699446 -1.2109747 7.3740597 7
0.20445102 -0.85200763 7.4012275 8.5
0.19176358 -0.49189538 7.427577 10
0.17813629 -0.12905812 7.4467888 11.5
0.15869731 0.36096311 7.4637446 13.5
0.14645475 0.73949152 7.500946 15
3.0603113 -0.75436831 3.3755434 7
0.36691254 -0.99271083 7.8296247 8
3.1077814 -0.51950252 3.5689297 8.5
3.0306225 -0.5112102 3.3366134 8.5
0.35537618 -0.60929322 7.8731365 9.5
3.0963132 -0.10066313 3.6041451 11
3.0206356 -0.15046966 3.3667009 10.75
0.36335558 -0.091298103 7.907342 11.5
3.0831859 0.32679576 3.6389155 13.5
3.0088148 0.29982424 3.4047735 13.5
0.32324308 0.30056244 7.939734 13
3.074919 0.59066528 3.6603134 15
2.9953485 0.5505895 3.4206927 15
0.30917424 0.70269114 7.9701891 14.5
0.74284786 -1.2033236 7.4744997 7
3.2644634 -0.80636823 4.0031939 7
0.64650482 -0.91368294 7.7546759 8.25
3.3066583 -0.54107356 4.1737466 8.5
3.2304027 -0.5321753 3.9296067 8.5
0.54915398 -0.57418537 7.8143334 9.6000004
0.88229603 -0.45550865 7.7000647 10
3.2888269 -0.16942054 4.1982865 10.5
3.2002399 -0.1242798 3.9232979 10.8
0.5816533 -0.057321012 7.8348675 11.6
0.926696 -0.094377369 7.7179003 11.4
3.2858753 0.20943761 4.2373233 12.5
3.200006 0.23980027 3.981626 12.8
0.57821125 0.30777186 7.8555412 13
0.88152379 0.31846112 7.7567806 13
3.2756658 0.49858445 4.2597876 14
3.2019448 0.59356779 4.0516047 14.666667
0.56428641 0.70764118 7.8864613 14.5
0.89728135 0.74435598 7.78231 14.6
3.3819218 -0.54918003 4.4070177 8.5
1.0616188 -0.44599542 7.6599736 10
1.5335138 -0.41899806 7.5001283 10
3.3674803 -0.16244245 4.4363265 10.5
1.0442698 0.066493928 7.7020092 12
1.518826 -0.03719157 7.5253029 11.5
3.3577077 0.23109162 4.4708896 12.5
1.0332804 0.3255772 7.7138052 13
1.505826 0.34994429 7.5566435 13
3.3381557 0.64908546 4.4663196 14.6
1.0245736 0.589297 7.7363787 14
1.4921319 0.74590474 7.5884552 14.5
2.3843567 -1.1014398 6.9296517 7
2.055608 -0.38577318 7.3292756 10
2.042254 -0.0029367805 7.3589373 11.5
2.0277109 0.38460702 7.3870077 13
2.0160875 0.78238767 7.4234571 14.5
2.842397 -1.0676154 6.706182 7
2.5730584 -0.85890132 7.1221991 8
2.7753949 -0.84584725 7.0548911 8
2.5443513 -0.4364379 7.1664391 9.666667
2.7668538 -0.59111118 7.0754709 9
2.5014622 0.050577104 7.2142572 11.571428
2.7479448 -0.078325629 7.1135788 11
2.5195105 0.4254362 7.2339826 13
2.4309297 0.81675476 7.2820854 14.5
2.717118 0.84476942 7.188386 14.5
3.3523731 -1.0225098 6.369421 7
3.8462839 -0.97675109 6.0108361 7
3.0609133 -0.82763332 6.9666328 8
3.4634733 -0.80246127 6.8543324 8
3.0352755 -0.44280928 7.0028515 9.5
3.3934536 -0.45860445 6.8911238 9.333333
3.0289786 0.077106595 7.0371051 11.5
3.4278705 -0.01782912 6.9027414 11
3.0130196 0.47174555 7.0639248 13
3.4152861 0.38161856 6.9361362 12.5
2.9741905 0.87317723 7.1064634 14.5
3.3231761 0.77810651 6.9956632 14
3.2885146 1.0506277 7.0280766 15
3.722672 -0.78412777 6.7524323 8
3.993288 -0.76562321 6.6583567 8
3.7082067 -0.38934866 6.7822847 9.5
3.9733343 -0.41112995 6.6758633 9.333333
3.5797348 -0.0036516786 6.8386145 11
3.8555927 0.024045706 6.7566829 11
3.6760092 0.40996981 6.8385525 12.5
3.9491935 0.44216222 6.7500982 12.5
3.6674809 0.82105511 6.8790264 14
3.9323196 0.85552317 6.7791958 14
3.5493851 1.0845082 6.9339323 15
3.9254503 1.1382885 6.8053913 15
4.164382 -0.75444531 6.6081762 8
4.4583044 -0.7336939 6.5009351 8
4.1484199 -0.3520132 6.6371856 9.5
4.4480309 -0.32552335 6.537499 9.5
4.1347437 0.052967787 6.6694145 11
4.4337425 0.085486293 6.5697083 11
4.1152701 0.46263975 6.6948481 12.5
4.4127874 0.50091821 6.5945377 12.5
4.0989399 0.87925071 6.7251272 14
4.4026885 0.92566639 6.6334267 14
4.0971756 1.1660633 6.7580233 15
4.3903823 1.2131417 6.6529598 15
5.0102501 -0.69571716 6.3209887 8
4.9920273 -0.27545601 6.3503218 9.5
4.9725032 0.14692563 6.3786259 11
4.9578624 0.57572728 6.4121871 12.5
4.9437547 1.0118182 6.4475269 14
4.9363227 1.3094656 6.4737849 15
-1.5580516 -0.017265856 -4.4937391 8.6569996
-1.5611932 0.2505067 -4.4408722 10.157
-5.8460217 -0.83258384 2.704972 8.0275002
-5.7389622 -0.86045706 3.1053832 8.0295
2.0463455 1.4487114 -6.4949551 12.6415
2.1869593 1.477299 -6.5538607 12.641
2.0354524 1.8696201 -6.4698653 14.1415
2.1658745 1.8946774 -6.5018501 14.141
2.023289 2.1516826 -6.4398432 15.1415
2.1551285 2.1812568 -6.475842 15.141
1.904428 0.26705384 -5.8108664 8.6409998
1.8621731 0.28493959 -5.9823689 8.6415005
1.8944993 0.62994689 -5.7875009 10.141
1.8480392 0.65333587 -5.947917 10.1415
1.8874321 0.87371475 -5.770771 11.141
1.8370075 0.89953679 -5.9205856 11.1415
-1.2574134 -0.36131483 -0.054227769 13.251733
-0.79205906 -0.42751369 1.5275354 14.5545
-0.68226093 -0.49168271 1.8902507 11.947666
0.76978058 -0.24183795 1.4254749 14.091
0.76901394 -0.18383545 1.4309299 15.091
0.74220997 -0.18305558 1.5493109 15.089
1.0217423 -0.12048078 1.2740612 15.0955
0.77548951 -0.72730112 5.4970388 8.7358332
1.0056498 -0.83098918 5.4010353 8.0705004
0.60431874 -0.035803519 -1.829283 7
2.1555576 -0.048851404 1.637991 7
0.96762115 -0.037496995 -1.7311102 7
-0.90552616 -0.037101626 -1.9407644 7
-1.7549969 -0.043582946 -1.9045955 7
0.064526618 0.028594654 1.750509 8
2.1665213 0.044766203 1.6460694 8
-0.51587611 0.030541442 1.7620851 8
0.96055406 0.033069588 -1.7170489 8
-1.0237645 0.078429431 -4.0492749 8
-0.91155106 0.040380031 -1.9539292 8
-1.7703536 0.04951746 -1.9216329 8
0.56604916 0.10608894 -1.9042536 9
0.064596795 0.088408366 1.7505766 9
2.1549973 0.13797803 1.6372726 9
-0.5168286 0.093681537 1.7653681 9
0.96460843 0.10389602 -1.724443 9
-0.90820742 0.11777789 -1.9470317 9
-1.7612278 0.1423678 -1.9117028 9
0.56310797 0.17674145 -1.892666 10
0.065027177 0.14965065 1.7643125 10
2.156724 0.23196478 1.638419 10
-0.51208174 0.15560898 1.7503911 10
0.96816969 0.17547889 -1.7308816 10
-1.7329113 0.30375221 3.0305259 10
-0.9062773 0.19523114 -1.943161 10
-1.7604131 0.23573326 -1.9109279 10
0.064942971 0.20982049 1.7584801 11
2.1531692 0.32586163 1.6356013 11
-0.51287842 0.21911529 1.7531759 11
0.96874595 0.2472188 -1.73156 11
-0.91107464 0.27484745 -1.9537036 11
-1.7638249 0.33038965 -1.9148104 11
0.60381573 0.31206679 -1.8244735 12
0.064630374 0.26872662 1.7439965 12
2.1588416 0.42207471 1.6397047 12
-0.51438123 0.28375226 1.7582275 12
-0.9060688 0.35225949 -1.9432473 12
-1.755584 0.42345658 -1.9058549 12
0.60401601 0.38328809 -1.8244963 13
2.1484156 0.51593852 1.6317307 13
0.96830571 0.39225087 -1.7298341 13
0.17688665 0.750404 3.8985209 13
-1.7349808 0.67495811 3.034812 13
-0.89998651 0.42922875 -1.9304837 13
-1.7641906 0.52163988 -1.9154636 13
0.60360408 0.45499927 -1.8224807 14
2.1616821 0.61699682 1.6415259 14
0.97023696 0.46715245 -1.7331076 14
0.1771449 0.89189214 3.900892 14
-0.90339267 0.5114885 -1.9380565 14
-1.7479626 0.61348027 -1.8977091 14
2.1509078 0.71280795 1.6332874 15
0.96537912 0.5395869 -1.7232975 15
0.17735539 1.0355192 3.9020238 15
-1.7405729 0.93328261 3.0448592 15
-1.0208368 1.1415327 -4.0454459 15
-0.90564406 0.59494561 -1.9431605 15
-1.7571565 0.71534777 -1.9079697 15
1.3407511 0.85607564 -9.5463753 10
-2.7167339 1.2372477 -9.512352 11
1.3420453 1.5437227 -9.5436497 12
-2.7152646 1.9507183 -9.5116854 13
-2.6399159 0.53389919 -9.497138 9
1.3725333 0.5148592 -9.5276594 9
1.7251705 0.51739269 -9.5327129 9
2.1538706 0.52102572 -9.5331678 9
-2.6382983 0.88190484 -9.4935417 10
-0.86695981 1.0225796 -9.513957 10.5
-0.65988451 1.0203354 -9.5120993 10.5
0.99010223 1.0211233 -9.521637 10.5
1.3561395 1.025628 -9.5264482 10.5
1.7084528 1.031013 -9.5309134 10.5
2.1528461 0.86529654 -9.5247355 10
-2.6148405 1.4682143 -9.501585 11.666667
-0.8666262 1.536309 -9.5216341 12
-0.6588583 1.5317906 -9.5120573 12
0.99205363 1.5355452 -9.5291414 12
1.3406472 1.5419923 -9.5318966 12
1.786535 1.4361986 -9.5316744 11.666667
2.1557662 1.3882258 -9.5320015 11.5
-2.5625343 1.9389977 -9.4929953 13
-0.86464465 1.8804189 -9.5080757 13
-0.65785408 1.8771632 -9.5097399 13
0.99262273 1.8824065 -9.5268335 13
1.3761021 1.8911518 -9.5289869 13
1.7288387 1.902077 -9.5331488 13
2.1566184 1.9168675 -9.5295706 13
-2.6383369 2.3076448 -9.5030441 14
-0.86340314 2.2301705 -9.502511 14
-0.65703434 2.2271934 -9.5077124 14
0.99274498 2.2329943 -9.5207405 14
1.3772459 2.2454193 -9.5310593 14
1.730163 2.2585938 -9.5355425 14
2.1584368 2.2766349 -9.5332956 14
-0.93205321 0.63599962 -8.8304396 9.5
-0.9318499 1.1098206 -8.8374472 11
-0.9316861 1.4294572 -8.8419266 12
-0.92920178 1.7487776 -8.8250074 13
-0.93014866 2.0787334 -8.83992 14
-0.92809224 0.55935591 -7.7481251 9.5
-0.92810774 0.97636408 -7.755074 11
-0.92687845 1.398302 -7.7519817 12.5
-0.92579603 1.8272287 -7.7501955 14
-0.92624867 0.25341567 -6.9035635 8.5
-0.92500341 0.62285638 -6.8998561 10
-0.9244256 0.99625975 -6.901062 11.5
-0.9245193 1.3761061 -6.9072437 13
-0.92435825 1.6336476 -6.909802 14
-0.92416656 0.22896484 -6.220367 8.5
-0.92277247 0.67500091 -6.21698 10.5
-0.92285717 1.0142796 -6.2219315 12
-0.9223426 1.3596289 -6.2230234 13.5
-0.92077792 0.20841092 -5.6468878 8.5
-0.92127883 0.61578888 -5.654655 10.5
-0.92080855 1.029514 -5.6566734 12.5
-0.91884142 1.343825 -5.6485543 14
-0.91849655 0.19131152 -5.1702471 8.5
-0.91938674 0.56597918 -5.1791358 10.5
-0.91547084 0.94264853 -5.1615648 12.5
-0.91671938 1.3335412 -5.1726007 14.5
-0.9184894 0.17727798 -4.77493 8.5
-0.91732055 0.61080539 -4.7731929 11
-0.91661626 1.0537999 -4.7739148 13.5
-0.91429871 1.3242468 -4.7647386 15
-0.91658461 0.16493969 -4.424346 8.5
-0.9158228 0.56858867 -4.4243512 11
-0.91434526 0.97976917 -4.4210339 13.5
-0.91526991 1.2353147 -4.4277 15
-1.0216033 -0.069675192 -4.0397882 7
-0.971268 0.25701106 -4.0670686 9.1999998
-0.97989124 0.60229838 -4.0663719 11.5
-0.97122175 0.95692492 -4.0720525 13.8
2.1396527 0.22255246 -3.6584046 9
2.1424472 0.60075212 -3.6610744 11.5
2.1415203 0.98771805 -3.6573701 14
2.1392653 -0.07267236 -3.3651574 7
2.1408758 0.20689002 -3.3147078 9
2.1419594 0.62826866 -3.3047898 12
2.1426475 0.95387638 -3.3463433 14.2
-0.90801197 -0.049191922 -2.7448654 7
2.1469226 -0.065845095 -2.8363626 7
-0.91161543 0.223189 -2.9391255 9.5
2.1452348 0.18937199 -2.9240665 9
-0.90856147 0.63406998 -2.8948867 13.25
2.145319 0.57773358 -2.9221206 12
-0.90706325 0.85228539 -2.9628794 15
2.1443617 0.92759418 -2.9373119 14.6
-0.9116841 -0.04394583 -2.3990221 7
2.1474624 -0.060528975 -2.4008429 7
-0.90916103 0.19580278 -2.5347517 9.5
2.14924 0.17247151 -2.534157 9
-0.90935874 0.59112358 -2.5370512 13.5
2.1488299 0.59014636 -2.5459266 12.5
2.1501865 0.87011027 -2.6165953 14.666667
-0.9074344 -0.067446589 -2.1357965 6.6666665
-0.63218087 -0.12150859 -2.1834862 6
2.1500406 -0.056193683 -2.0110083 7
-1.6777993 0.048448872 -1.9311544 8
-0.924927 0.21151866 -2.1319849 10
0.55719113 0.22231106 -1.9870131 10.5
2.1520076 0.21058989 -2.1467588 9.5
-0.91057372 0.53521264 -2.1669006 13.714286
0.5563426 0.44905883 -1.9813409 13.5
2.1531045 0.62146175 -2.1295044 13.285714
2.1525211 0.82502747 -2.1829453 15
-1.7078459 -0.067662872 -1.6751763 6.6666665
-1.3900011 -0.088431031 -1.8391426 6.4000001
-1.0069038 -0.063427687 -1.9172249 6.6666665
0.69337052 -0.035171151 -1.7424579 7
0.94529212 -0.037290707 -1.7315462 7
1.4118769 -0.12603785 -1.8249313 6
1.7105789 -0.12729791 -1.5782472 6
2.1571743 -0.053522099 -1.7373819 7
-1.7370108 0.20263362 -1.7242957 9.7777777
-1.376074 0.21495265 -1.9128332 10
-1.0187676 0.19810754 -1.9164857 10
0.6631062 0.20539966 -1.7797478 10.5
0.941212 0.19417982 -1.730805 10.272727
2.1532688 0.19064666 -1.7421439 9.5
-1.7258579 0.56515115 -1.766763 13.75
-1.40163 0.54017043 -1.9142251 13.714286
-1.0082935 0.52938998 -1.9123071 14.142858
0.69095719 0.47699887 -1.7619797 14.4
0.96536362 0.48290995 -1.7394544 14.2
2.1556914 0.59033036 -1.7463124 13.5
-1.7552915 -0.076264769 -1.3044863 6.5
-0.54772753 -0.12343927 -1.2216949 5
-0.31864622 -0.12326948 -1.2980801 5
0.65909052 -0.12449689 -1.1800387 5
1.8720344 -0.12706569 -1.3621835 6
2.1584175 -0.050040051 -1.334444 7
-1.7551571 0.20020722 -1.3273143 10
2.1590328 0.19714125 -1.3240701 9.7777777
-1.7540373 0.53338087 -1.3079684 14.142858
2.1601562 0.54509282 -1.3570169 13.555555
-1.7551907 -0.069302186 -0.91360068 6.5
-0.95212513 -0.1222693 -0.92767882 5
-0.72328335 -0.12268437 -1.1242024 5
0.65707892 -0.12492286 -0.95079744 4.5
0.9966507 -0.12611516 -0.93545616 5
2.1297526 -0.095805906 -0.95666814 6.4000001
-1.7514087 0.21556944 -0.91882539 10.5
2.1620271 0.20041779 -0.93526912 10
-1.7496649 0.48917902 -0.95101547 14.2
2.1613305 0.53827751 -0.93969738 14
-1.7547151 -0.064425394 -0.5244031 6.5
-1.2546645 -0.12252875 -0.50315511 5
-0.099142775 -0.11598199 -0.40563524 3
0.68321341 -0.12536052 -0.67923093 4
0.89631665 -0.12770392 -0.44619969 4
1.3085207 -0.12775987 -0.50517011 5
2.1613884 -0.08418671 -0.52516758 6.5
-1.7508521 0.19878881 -0.52380633 10.5
2.167424 0.18781471 -0.54732394 10
-1.7511567 0.46895713 -0.52747142 14.5
2.1678169 0.51873136 -0.55588186 14.142858
-1.7511559 -0.061687864 -0.13927016 6.5
-1.3647438 -0.12281492 -0.12831514 5
-0.54741991 -0.11648672 -0.033219181 3
-0.33712405 -0.11414107 -0.26424906 3
1.0195228 -0.12794729 -0.086900279 4
1.4136806 -0.1273025 -0.086561322 5
2.1677942 -0.082920656 -0.14466761 6.5
-1.7499655 0.18968751 -0.13891979 10.5
2.171247 0.18028307 -0.14047982 10
-1.7460321 0.44654882 -0.13997048 14.5
2.1707504 0.48794925 -0.14246552 14
-1.7462379 -0.061909821 0.26788759 6.5
-1.3625695 -0.12305041 0.22555651 5
-0.93582225 -0.12281922 0.27033052 4
-0.69995922 -0.12307759 0.30124992 3
0.99882942 -0.12555115 0.18988645 4
1.3980248 -0.12539166 0.24801174 5
2.1474309 -0.077932566 0.20507163 6.5
-1.7476867 0.18935859 0.26190642 10.5
2.1486309 0.18529072 0.219992 10
-1.7458159 0.44652313 0.26122242 14.5
2.1474478 0.49257746 0.21955365 14
-1.7472202 -0.065067835 0.65641057 6.5
-1.2398659 -0.1230052 0.64889693 5
-0.98604399 -0.12268601 0.68162739 4.5
-0.70552278 -0.12600371 0.61473322 3.5
0.72748017 -0.12434181 0.72686231 4
1.0471898 -0.12513354 0.64938641 4.5
1.2835102 -0.12476318 0.61661899 5
2.1518703 -0.08065962 0.64344811 6.5
-1.7465696 0.19846924 0.66296268 10.5
2.1516025 0.19225465 0.63307369 10
-1.7453126 0.46841386 0.66277575 14.5
2.1487114 0.52181822 0.6278125 14.142858
-1.7473789 -0.071746483 1.0870382 6.5
-0.96712559 -0.12317359 1.0292087 5
-0.62810153 -0.1232126 1.1240489 4.6666665
-0.19613555 -0.12446262 1.0127958 4
0.24449496 -0.12454318 1.0058125 4
0.68104279 -0.12444934 1.1138732 4.6666665
1.0167042 -0.12456337 1.0077126 5
2.1353269 -0.08435189 1.0394359 6.5
-1.746581 0.21480817 1.0513204 10.5
2.1516492 0.20427719 1.021791 10
-1.7446073 0.48939016 1.0865358 14.2
2.1528261 0.54222953 1.0200509 14
-1.7362858 -0.07971473 1.5002459 6.5
-0.49347514 -0.12290826 1.3360233 5
-0.15535904 -0.12377991 1.4250566 5
0.19037387 -0.12505661 1.4384191 5
0.54956031 -0.12445464 1.3349643 5
1.8703215 -0.12474524 1.4516715 6
2.1564865 -0.04686923 1.4244002 7
-1.7443991 0.19914743 1.4635525 10
2.1538293 0.20029695 1.4091058 9.7777777
-1.7435799 0.53448266 1.4546524 14.142858
2.1537557 0.54814661 1.4420527 13.555555
-1.6867328 -0.070105143 1.8271886 6.6666665
-1.361339 -0.12294421 1.9370733 6
-0.92649776 -0.1010647 1.7116567 6
-0.54316455 -0.092936046 1.7028295 6
-0.13362361 -0.08886677 1.7033806 6
0.087173149 -0.088887893 1.7097396 6
1.5593959 -0.12454983 1.7936424 6
-1.7435956 0.20132212 1.8445674 9.7777777
-0.44859421 0.15517244 1.7593029 10
-0.093850777 0.15034741 1.7595339 10
-1.7437284 0.56427413 1.8724219 13.75
-1.7520199 -0.049082622 2.2654116 7
0.3122772 -0.12308247 2.3478787 6
0.65889323 -0.123507 2.2751074 6
1.066034 -0.1240655 2.120784 6
-1.7417073 0.19841425 2.2482703 9.5
-1.7424792 0.60221523 2.2543671 13.5
-1.7368453 -0.054674938 2.679991 7
-1.7420536 0.20207956 2.6611619 9.333333
-1.7393415 0.60915905 2.6308036 13
-1.7402581 0.84404951 2.6513219 15
-1.7393628 0.21229598 3.0323625 9.25
-1.7393957 0.58542186 3.0310543 12.285714
-1.7420475 0.87495637 3.0733585 14.5
1.0487837 -0.065162733 3.5727041 7
1.4146272 -0.068526089 3.6440001 7
0.65083355 -0.068902373 3.8998711 7
1.4456756 -0.072586186 3.8867776 7
1.8353426 -0.075417042 3.8882236 7
2.2596018 -0.079097718 3.891757 7
2.6443157 -0.082822569 3.8903587 7
3.1598992 -0.088421859 3.8898985 7
3.6399095 -0.094043605 3.8810513 7
4.3174396 -0.10280015 3.8790321 7
4.9799609 -0.11190647 3.8699059 7
0.27348784 0.20267944 3.902195 9
0.63676476 0.2045543 3.8991585 9
1.0405788 0.2087146 3.8972611 9
1.4184901 0.2142669 3.8944275 9
1.8056257 0.22187008 3.8928025 9
2.2036514 0.19987667 3.8928342 8.8000002
2.6255522 0.16123058 3.8895853 8.5
3.0272284 0.1692505 3.8912582 8.5
3.3958251 0.17734446 3.8870296 8.5
3.8066173 0.18695554 3.8865843 8.5
4.2341871 0.19751516 3.8851385 8.5
4.6162 0.2074326 3.8853207 8.5
4.92487 0.21549341 3.8826857 8.5
0.27857935 0.61392492 3.9048197 12
0.63716787 0.61934882 3.8980861 12
1.0412827 0.63252926 3.8978522 12
1.4188317 0.57607132 3.8937438 11.5
1.8082128 0.59739149 3.8972585 11.5
2.2481344 0.57748377 3.8928628 11.2
2.6256189 0.57056129 3.8887935 11
3.0252011 0.59933782 3.8878043 11
3.4057598 0.53743535 3.8830705 10.5
3.8148999 0.56645209 3.8808222 10.5
4.2363195 0.59868115 3.886477 10.5
4.6120567 0.62795633 3.8810897 10.5
4.9193754 0.65279275 3.877677 10.5
0.28811634 0.96596909 3.9035671 14.5
0.63757116 0.97460759 3.8977017 14.5
1.0414776 0.99537659 3.8967421 14.5
1.4196385 0.94782823 3.8949344 14
1.806769 0.98158121 3.893105 14
2.2035446 0.98984206 3.8906868 13.8
2.6249354 0.98770434 3.8867822 13.5
3.0715258 0.98966599 3.8883071 13.2
3.3850334 0.95583838 3.8846605 12.8
3.8090556 0.95193654 3.8874614 12.5
4.2350154 1.0055612 3.8845568 12.5
4.6062102 1.0538034 3.8755531 12.5
4.9193988 0.98449773 3.8770788 12
2.3187366 1.2025198 3.8936117 15
2.6274211 1.2462994 3.8900261 15
3.0250704 1.3081272 3.886307 15
3.4558234 1.3050996 3.8864779 14.6
3.806175 1.3457048 3.8838449 14.5
4.2374735 1.423376 3.8860438 14.5
4.6107802 1.3811581 3.8788519 14
4.9218588 1.3230275 3.8785567 13.5
4.6199083 1.6064401 3.885932 15
4.9281263 1.6699489 3.8828321 15
-0.034887906 0.45543051 -8.4671803 9
-1.7511499 0.32096842 0.39762095 12.55
-1.7381114 0.45022431 0.39541557 14.55
-1.7293377 0.073541559 1.2308868 8.5614996
-0.7569142 0.12999387 1.7939106 9.5775003
-0.62048042 0.20268753 1.8560199 10.57975
-0.28972957 0.14953239 1.7849041 10.0845
-0.66655457 0.50571197 1.9847065 14.57975
-1.7123084 0.66196918 3.8881354 12.0775
-1.0412414 0.77522737 3.9342115 13.082
-0.54962575 0.75494576 3.9358048 13.085501
-0.073854059 0.74349177 3.9269118 13.089
-1.7085457 0.96569353 3.881731 14.0775
-1.0429507 0.99813759 3.9423931 14.582
-0.54949301 0.9706949 3.9371858 14.585501
-0.073402807 0.95620704 3.9277289 14.589
2.6371877 -0.37559593 0.91419327 5
3.1426001 -0.39804077 -0.95161444 5
2.6386571 -0.342076 0.90745568 6
3.1407676 -0.36213374 -0.94677991 6
2.6627986 -0.3455044 1.0525293 6
3.5218446 -0.35240501 -0.87739301 6
3.1415937 -0.32732326 -0.96080542 7
2.2796149 -0.34453481 -0.55813241 7
2.6383178 -0.30920562 0.90521789 7
2.672472 -0.30778831 1.0689191 7
3.1278083 -0.29207876 -0.97769606 8
2.6218221 -0.27790469 0.87276042 8
3.5168765 -0.27821067 -0.87380201 8
5.7171564 0.011005998 6.1894393 8
3.1260579 -0.25608617 -0.97290075 9
2.2805572 -0.278341 -0.55682492 9
3.5150657 -0.24131332 -0.87319088 9
2.661386 -0.23401421 1.0443361 9
5.6980829 0.2437948 6.1585708 9
2.2538381 -0.27555305 -0.69948661 9
3.1259055 -0.21937485 -0.98113036 10
2.2799878 -0.24522901 -0.55705374 10
2.6338742 -0.21043836 0.90690172 10
3.4915445 -0.20645148 -0.86411762 10
5.6928329 0.47935158 6.1589818 10
3.1236687 -0.18377399 -0.9723264 11
2.2887695 -0.21408804 -0.53198302 11
3.4898641 -0.16999766 -0.86367047 11
3.1230879 -0.14653528 -0.97724891 12
2.2902322 -0.18171254 -0.53055274 12
2.6206009 -0.15008962 0.86433506 12
3.5132296 -0.12887058 -0.87788242 12
3.1331384 -0.1136969 -0.94963807 13
2.6169055 -0.11611485 0.86973423 13
2.2877903 -0.14839272 -0.53233361 13
3.485986 -0.096515194 -0.86186641 13
3.1706305 -0.080775976 -0.92016864 14
2.6154549 -0.08251074 0.87007856 14
2.2922659 -0.11623883 -0.52842224 14
3.1691489 -0.04492119 -0.9185586 15
2.6159158 -0.049558833 0.86614919 15
2.2943985 -0.083357349 -0.52643651 15
2.6616466 0.0016831756 1.0675662 15
5.5681467 0.1235899 6.2153025 8.5
5.2845163 0.11442691 6.2795858 8.5
5.0498714 0.10716075 6.3316908 8.5
3.9860494 0.078765631 6.5853882 8.5
3.7997355 0.07457757 6.6302323 8.5
5.5550261 0.47474581 6.2037406 10
5.273942 0.46415251 6.2742658 10
5.0391922 0.4552685 6.3257728 10
3.975683 0.4272182 6.5817947 10
3.7886736 0.42344177 6.6223755 10
6.0247455 0.85662663 6.0835724 11.5
5.6393461 0.8348856 6.1750808 11.5
5.2627578 0.81725073 6.2671781 11.5
5.0286765 0.80730879 6.3206539 11.5
3.9634492 0.81822646 6.5736742 11.666667
3.7776616 0.81713116 6.6243739 11.666667
6.0109682 1.346336 6.0778065 13.5
5.6252165 1.3185661 6.1681986 13.5
5.2479839 1.2965219 6.2590036 13.5
5.0155797 1.2856358 6.3173261 13.5
3.951272 1.2585356 6.575593 13.5
3.7643056 1.2569501 6.6181536 13.5
6.0015068 1.723443 6.0751591 15
5.615521 1.691093 6.1659818 15
5.2372971 1.665136 6.2542629 15
5.0048828 1.6531183 6.3128357 15
3.9385457 1.6226426 6.5594049 15
3.7514336 1.6210502 6.5983057 15
6.0630827 -0.00067526102 5.4313216 8
6.0499043 0.5443716 5.4281311 10.5
6.0894432 0.83585083 5.6343727 11.666667
6.082737 1.2264824 5.6370902 13.333333
6.0575757 1.6040246 5.5751843 15
5.9718094 -0.21985996 5.2657785 7
5.9967585 0.19540036 5.1499882 9
6.0227308 0.10133332 5.2785263 8.5
5.9811416 0.50682306 5.1343293 10.5
5.9724627 0.9305563 5.1343446 12.5
5.9574728 1.4747428 5.1278448 15
5.9879341 1.2863714 5.2606845 14
5.9292746 0.074956059 4.8711867 8.5
5.9209857 0.47321498 4.87076 10.5
5.906106 0.87591171 4.8596611 12.5
5.8981934 1.2916164 4.8604293 14.5
5.8315525 -0.22494924 4.4129639 7
5.8431654 0.053658545 4.5106473 8.5
5.8383732 0.42791617 4.5146222 10.5
5.8217392 0.80498505 4.5002704 12.5
5.8093977 1.1924884 4.4927936 14.5
5.7449656 0.02955991 4.0942521 8.5
5.7359357 0.46189195 4.0930104 11
5.7217083 0.90232241 4.0843372 13.5
5.7153158 1.1750906 4.0825429 15
5.6484213 0.051802963 3.6779392 8.8000002
3.410424 0.0086467266 4.2104206 9
5.6474552 0.44023943 3.719281 11.2
3.3981354 0.37697828 4.1949778 11.5
5.6209488 0.85154533 3.649545 13.8
3.3872309 0.75792503 4.1966763 14
5.6303606 1.0729504 3.7213402 15
5.5730076 -0.23356934 3.3510501 7
5.5493841 0.053816944 3.2643683 9
3.3156898 -0.022477686 3.8104973 9
5.5368104 0.46020865 3.2537441 11.8
3.3023496 0.37717855 3.7920585 12
5.5301032 0.8244462 3.2722085 14.2
3.2919059 0.72088492 3.787941 14.5
5.4567175 -0.23778506 2.8547122 7
5.4612951 0.026586294 2.8919225 9
3.2372737 -0.048799366 3.4751728 9
5.4550357 0.43007708 2.8993568 12
3.2237308 0.3782863 3.4628053 12.5
5.4354897 0.78061807 2.8648422 14.6
3.2132943 0.68961054 3.4460773 15
5.373035 -0.0010956228 2.502032 9
3.1424382 -0.025886625 3.0766029 9.5
5.3554478 0.42226726 2.4850881 12.5
3.1256402 0.37905824 3.048219 13.285714
5.3606167 0.70541608 2.5351577 14.666667
3.1503787 0.60936195 3.1763783 15
5.2989893 -0.24389169 2.1923428 7
5.2793775 0.026691616 2.1189005 9.5
3.0464478 -0.064807862 2.6700168 9.5
5.2609348 0.43792129 2.0853536 13.285714
3.0347033 0.30972558 2.6549559 13.5
5.2682848 0.64199692 2.1141207 15
5.1836863 -0.24919839 1.6617153 7
4.5050297 -0.34234896 1.8410218 6
4.2090969 -0.34811839 2.0654702 6
2.934324 -0.2989831 2.1643698 7
5.1857271 -0.0058927238 1.7291716 9.5
2.9622827 -0.044516444 2.3133397 10.181818
5.1764011 0.3912676 1.7243109 13.5
2.9511466 0.27812487 2.3008204 14.142858
5.0777369 -0.28100878 1.2742678 6.6666665
4.8299255 -0.33813536 1.4928703 6
2.8820686 -0.30061284 1.9496441 7
5.0929213 0.0067740083 1.3352008 10
2.8692076 -0.055193067 1.9180056 10.692307
5.0873747 0.33842099 1.3453944 13.714286
2.8638082 0.19922674 1.9274874 14.4
5.010313 -0.28384674 0.95771521 6.6666665
3.8752501 -0.37374645 1.1368337 5
3.6703036 -0.37683004 1.2629472 5
2.7755971 -0.32038432 1.5015618 6.6666665
5.0065746 -0.024359763 0.96197617 10
2.7782652 -0.07816419 1.5340689 11.25
4.993866 0.30428272 0.94945085 14.142858
2.7661159 0.12464881 1.5171397 15
4.9206781 -0.30567455 0.57709026 6.4000001
4.1961884 -0.36999041 0.7447626 5
4.0253 -0.37148306 1.0021664 5
2.6975937 -0.35007116 1.1059557 5.8333335
4.9079952 -0.019573301 0.55194938 10.5
2.6875219 -0.11958517 1.1481217 11.611111
4.9052129 0.24792027 0.57644546 14.2
4.823648 -0.30270159 0.17888102 6.5
4.371768 -0.37310004 0.2898227 5
3.6461132 -0.38306123 0.44878691 3
3.3915789 -0.39226082 0.64054912 3
2.6423612 -0.35957164 0.93231666 5.5
4.8149724 -0.045662463 0.16535306 10.5
2.6329448 -0.15967305 0.90859807 11.5
4.8071184 0.21804959 0.16132689 14.5
4.731638 -0.30955529 -0.20553279 6.5
4.3927946 -0.38037014 -0.13189235 5
3.9019005 -0.38092083 -0.10365225 3
3.8067245 -0.37956482 0.22608331 3
4.7235317 -0.063220903 -0.21603492 10.5
4.7177906 0.18987429 -0.21895921 14.5
4.631238 -0.31983149 -0.60875237 6.5
4.2761607 -0.3891739 -0.49950194 5
3.901634 -0.39957696 -0.37959659 4
4.6285172 -0.072051868 -0.60843134 10.5
4.6221681 0.18223414 -0.61082566 14.5
4.5468025 -0.33274308 -0.98785722 6.5
4.0653067 -0.40216511 -0.85283256 5
3.8271172 -0.40891045 -0.81795895 4.5
3.4024544 -0.36837697 -0.84238642 5.5
2.2882218 -0.39389053 -0.56016493 5.5
4.5327988 -0.071533605 -0.99581027 10.5
3.3930309 -0.15674233 -0.85393238 11.588235
2.2892237 -0.21254542 -0.55791581 11
4.5251045 0.19638455 -1.0006422 14.5
4.4418616 -0.35004792 -1.4082217 6.5
3.6682131 -0.3623758 -1.0033406 6
3.2106612 -0.37462378 -0.89695454 5.5
3.0185192 -0.39515436 -1.0152014 5.2857141
2.5344939 -0.44732982 -0.81364197 4
2.2470226 -0.40078652 -0.75555563 5.7142859
4.4403672 -0.063277096 -1.3808931 10.5
3.6007104 -0.12875512 -0.96466243 11.5
3.1992676 -0.17054646 -0.89523786 11.5
3.1026709 -0.14858708 -1.0478586 11.75
2.2270832 -0.16877712 -0.77417034 11.611111
4.4250093 0.21011275 -1.416553 14.2
4.3310833 -0.36880311 -1.8114517 6.5
2.8467531 -0.44722691 -1.3307216 5
2.4230628 -0.45850423 -1.2189192 5
2.1468055 -0.40773898 -1.1343793 6.1999998
4.3422985 -0.088279814 -1.7812074 10
2.1264477 -0.1452774 -1.1713183 11.25
4.3339143 0.24883622 -1.7829931 14.142858
2.0933433 0.083373249 -1.2805299 15
4.2920036 -0.33532101 -2.0011995 7
2.0389996 -0.40607587 -1.5433427 6.6666665
4.2878761 -0.080142915 -2.0113418 10
2.0323644 -0.15597039 -1.5510031 10.5
4.2780161 0.2684412 -2.0183222 14
2.0266495 0.11183837 -1.5472655 14.5
2.9250784 -0.46204531 -2.2885098 6
2.5576406 -0.47228628 -2.246537 6
2.2052529 -0.48022309 -2.1359634 6
1.9495147 -0.42948428 -1.9653835 6.6666665
1.9361309 -0.16449159 -1.9395053 10
1.9269099 0.15854579 -1.9445159 14
1.8649862 -0.4149856 -2.2579803 7
1.8469716 -0.16110766 -2.2932379 9.8000002
1.8406802 0.20165372 -2.2867689 13.714286
1.7519281 -0.17761417 -2.6795318 9.4285717
1.7467523 0.22817808 -2.6567147 13.285714
1.7101002 0.44643754 -2.7853053 15
1.6642466 -0.21317288 -3.0375268 9
1.6491586 0.20538747 -3.0509443 12.5
1.6390324 0.51374584 -3.0585389 15
1.5922321 -0.46148568 -3.3505812 7
1.7497718 -0.1967479 -3.526361 9
1.5964448 -0.20247467 -3.3966038 9
1.7370305 0.20546538 -3.535821 12
