# .PCD v0.7 - Point Cloud Data file format
VERSION 0.7
FIELDS x y z intensity
SIZE 4 4 4 4
TYPE F F F F
COUNT 1 1 1 1
WIDTH 1200
HEIGHT 1
VIEWPOINT 0 0 0 1 0 0 0
POINTS 1200
DATA ascii
3.7475612 -0.72749716 -3.155174 5
4.1927862 -0.54055154 -3.0395522 6.4583335
4.5510659 -0.61624235 -2.9404964 6.7222219
-8.8913431 -0.21874541 -2.9970479 13.366667
-8.6458168 -0.22394027 -3.02757 14.313725
-8.2284279 -0.21011865 -3.0897996 13.708333
-7.8068657 -0.27664351 -3.0964603 12.175
-7.4247704 -0.19424944 -3.1593094 13.476191
-4.8796682 -0.36202604 -2.8893316 11.5
-4.2432976 -0.38427091 -2.9285517 9
-2.9910688 -0.18552209 -2.9611275 11.766666
-2.5037913 -0.31989679 -3.0742555 13.388571
-2.2117517 -0.22237711 -2.9937246 11.291116
0.61381632 -0.1905119 -3.0978172 12.476641
1.1688366 -0.051168613 -3.0130498 8.75
1.2083385 -0.29803401 -2.9108608 7
1.704053 -0.18578418 -3.0565128 9.6999998
2.2331231 -0.045065854 -2.9158573 8
3.0415435 -0.31199837 -2.8360331 8.5775003
3.3005285 -0.34310025 -2.9396667 3
4.2909336 -0.16192225 -3.005245 12.168595
4.5133142 -0.21509157 -2.9458666 10.672518
5.2422495 -0.11333475 -2.828001 7
-8.9614153 0.13677002 -2.9944775 14.666667
-8.5087509 0.22063312 -2.9119267 14.25
-8.2165947 0.2256666 -2.9914258 14.5
-7.8553462 0.081799299 -3.1078386 13.9
-4.9138589 0.036802053 -2.8440065 14
-4.2345867 0.13816182 -2.9176476 13.166667
-2.9984376 0.20481002 -2.9783278 14.125
-2.4392252 0.12723595 -3.0440066 14.5
-2.257026 0.12780657 -2.9879396 13.563848
-0.91161543 0.223189 -2.9391255 9.5
0.39557183 0.3745836 -3.0899286 14
0.48956069 0.15223098 -3.104264 13.766667
1.1581968 0.25428939 -2.9649353 10.883334
1.6878313 0.17858757 -3.0125923 13.175
2.1452348 0.18937199 -2.9240665 9
2.481915 0.047156461 -2.9520235 9
4.2577419 0.17793894 -2.9515536 12.304763
4.6209359 0.13672376 -2.9928265 11.379999
5.2343149 0.18987748 -3.0394497 8.5
-9.0661659 0.41052532 -3.0158935 15
-2.9564319 0.51611662 -3.1478117 15
-2.1386783 0.59630162 -3.0769033 14.525
-0.90856147 0.63406998 -2.8948867 13.25
0.37773383 0.51755214 -3.0623488 15
0.44029105 0.40451407 -2.9161196 14.5
1.1382767 0.64218873 -2.9769485 13.460001
1.6668593 0.46868491 -3.0180461 15
2.2594855 0.58752149 -2.9769337 12.833333
2.4797244 0.60967928 -2.9633238 13.375
4.2392921 0.5978604 -2.974766 14
4.7213645 0.56324595 -3.0326691 12.733334
5.2361279 0.60021138 -3.0431566 10.5
-0.90706325 0.85228539 -2.9628794 15
1.1227932 0.89383256 -2.9541359 15
2.1443617 0.92759418 -2.9373119 14.6
4.2468553 0.89754975 -2.8026359 15
4.7739887 0.8107453 -3.0138078 14.55
5.2331967 1.0152161 -3.0339184 12.5
5.2355652 1.4569478 -3.1019499 14.5
-8.517086 -1.281541 -2.618813 6.6904759
-8.2044134 -1.3307232 -2.7874966 6
-7.8556986 -1.2635541 -2.5750496 5.25
-7.3660979 -1.2354833 -2.5996172 4.3333335
-7.0635362 -1.2543989 -2.5152986 5.6666665
-6.6586099 -1.2167735 -2.5000196 5.5
-6.3444438 -1.2079252 -2.4085567 6
-8.813755 -1.0301135 -2.6580019 8.5
-8.6083879 -0.97453856 -2.5935061 9.1900606
-8.038929 -1.1135023 -2.6938417 6.8000002
-7.3865447 -1.1683009 -2.6141839 4.5
-6.9918518 -1.1019654 -2.4680176 4.5
-6.6038947 -1.0549102 -2.7155902 4.1666665
-6.1051803 -1.0693001 -2.6085443 5.3333335
-5.73456 -0.98364019 -2.6014168 5
-5.3655305 -0.94263107 -2.6541958 4.3333335
-5.1046042 -0.93579865 -2.4997172 4.5
-4.6894598 -0.90006244 -2.6206403 4.8000002
-4.2405214 -0.84733403 -2.6046152 5.333333
-3.9006832 -0.80440485 -2.4716487 6.75
-2.8145032 -0.86824369 -2.6677198 7
-2.2303319 -0.96505582 -2.6293249 6.6724997
-1.7609373 -0.95320874 -2.6083994 5.1666665
-1.448513 -0.93896574 -2.5317957 5.3333335
-1.0053082 -0.89772725 -2.5614097 4.3333335
-0.7238766 -0.8825525 -2.6828952 4
-0.22861728 -0.8726474 -2.6208849 5.2916665
0.13778603 -0.85622227 -2.5277548 5.5
0.50455856 -0.85199469 -2.4594376 6
0.80398887 -0.83064044 -2.4661865 6
2.2418299 -0.88775337 -2.5623851 5.4571428
3.3555791 -0.84292871 -2.5845571 5
-8.8199129 -0.59677309 -2.6370318 10.333333
-8.62817 -0.60054928 -2.6045794 12.925918
-4.75138 -0.76036382 -2.6505764 9
-4.0595541 -0.61135727 -2.5895584 7.8705626
-3.9201145 -0.59000117 -2.5844526 8.486268
-3.4384985 -0.71680683 -2.6123416 4.833333
-2.9600568 -0.65766221 -2.6361098 7.125
-2.5797246 -0.64738703 -2.6145902 7.0714288
-2.2138038 -0.58060539 -2.6261947 9.1694088
-1.9684718 -0.54106224 -2.7913928 7
0.15046221 -0.79097414 -2.7561548 4
0.64890099 -0.5896616 -2.6030731 7.5952382
0.88851291 -0.57728803 -2.5562556 8.4745245
1.212571 -0.42916816 -2.5105178 8.5
1.8358752 -0.43177676 -2.5394375 6.7222219
2.2030716 -0.6459254 -2.6351883 9.0766611
2.5674644 -0.47624499 -2.6124597 6
2.9741616 -0.49770507 -2.5237432 5.48
3.4019597 -0.44536281 -2.5436561 6.3675332
3.7440469 -0.47188452 -2.5258672 4.5833335
4.1339536 -0.7473405 -2.6704769 5
4.5264492 -0.53820431 -2.6690876 8.4375
-8.8404503 -0.15792464 -2.6812191 13.222222
-8.7109184 -0.23484655 -2.591341 14.02
-4.8105717 -0.028842926 -2.550626 14.2
-4.7769394 -0.37601817 -2.5911636 11.65
-4.0478597 -0.18900385 -2.6171031 13.327255
-3.9693365 -0.25115722 -2.5404205 13.50082
-2.8417549 -0.25379953 -2.5197499 12.2
-2.5985107 -0.20128453 -2.6253178 13.245714
-2.160512 -0.25086427 -2.5759041 12.146978
-1.9576396 -0.23376115 -2.703815 9
-0.99454045 -0.063083023 -2.6689563 7
0.58415693 -0.2575039 -2.570339 10.202381
0.91526508 -0.19949441 -2.5792723 12.87608
1.2713286 -0.20244792 -2.6350389 8.0249996
1.7798449 -0.17519119 -2.6436362 9.8957148
2.2475603 -0.12589394 -2.4926889 10.222222
2.5142498 -0.19271302 -2.5668488 7
3.1350682 -0.31426358 -2.4841776 8.2886877
3.37323 -0.29693455 -2.4624963 7.8470335
4.3297272 -0.26020694 -2.6122448 8.5
4.549305 -0.2120875 -2.6008894 11.650001
4.8212185 -0.18946849 -2.5277894 7
-8.8887749 0.18730401 -2.6654806 14.444445
-8.7301807 0.10993472 -2.7616894 14.5
-4.8144841 0.022851586 -2.5789599 14
-4.129961 0.1676195 -2.6163948 14.2
-3.9503701 0.1064018 -2.426506 10.5
-2.8695495 0.053487837 -2.4936819 14.583334
-2.7937534 0.20272303 -2.7370498 14
-2.1908867 0.16186577 -2.5677226 14.031746
-1.9465547 0.17358172 -2.6366944 11.75
-1.0193967 0.21346422 -2.531285 8.833333
0.39221334 0.021850348 -2.7715149 11
0.52818161 0.15919888 -2.5617759 12.844999
1.1206363 0.18472135 -2.5774457 11.5
1.2571384 0.33631995 -2.5959539 11.9
1.8163948 0.1816189 -2.6532588 12.790476
2.2499647 0.26647779 -2.6035123 10.5
2.521862 0.083855271 -2.4670806 9.5
3.4905257 0.14188828 -2.4435766 10.142858
3.9617438 0.026953705 -2.481123 9
4.3238215 0.1303153 -2.6083684 14.5
4.6281676 0.15394415 -2.5675149 11.5
4.8230829 0.046762131 -2.6130819 9
5.2466788 0.17685726 -2.6787033 8.5
-8.9524937 0.42518687 -2.754003 15
-2.0487943 0.40536636 -2.7049923 14.5
-1.95919 0.52836418 -2.6090484 14.5
-1.0200651 0.62080091 -2.5315845 11.5
0.37050208 0.56549907 -2.6263645 14.4
0.45234156 0.44917905 -2.4043238 14
1.1410251 0.65816039 -2.6728261 13.875
1.2309583 0.6392014 -2.6127806 13.933334
1.8845609 0.55381036 -2.6592977 12.166667
2.2912767 0.64275897 -2.5423479 13.833333
2.5214648 0.58715105 -2.4715066 14
3.4937613 0.47885191 -2.4427462 13.333333
3.8687148 0.47102255 -2.4449317 13.178572
4.3882751 0.67612141 -2.5882087 14.5
4.7064643 0.59235156 -2.5866873 14.041667
4.8195052 0.6125012 -2.6309371 13.583334
5.2468319 0.56346524 -2.6781163 10.5
-1.0775852 1.0553215 -2.5303805 12.5
1.0971823 0.84556723 -2.717196 14.75
1.9522183 1.0508858 -2.7896745 13
2.1501865 0.87011027 -2.6165953 14.666667
5.246418 0.95552254 -2.6756945 12.5
-1.0751756 1.3738362 -2.542078 14
1.9502205 1.4320652 -2.7895133 15
5.2478247 1.3585984 -2.6780882 14.5
-1.060967 1.6745198 -2.4788558 15
-8.4691305 -1.3567667 -2.1667156 6.8888888
-8.3394461 -1.3004659 -2.2067394 6.3458333
-7.7787023 -1.3096081 -2.1421802 5
-7.4830098 -1.261745 -2.2593253 4.625
-7.0155973 -1.2798505 -2.1473544 4.4166665
-6.6281042 -1.2572473 -2.0663996 5
-6.3910232 -1.2056373 -2.2630086 4.6666665
-8.5341263 -0.98581535 -2.1951008 9.9784126
-8.3795452 -0.97578144 -2.1579728 11.407923
-7.782896 -1.1394775 -2.3821788 6
-7.3704524 -1.1884606 -2.321893 4.5
-6.6047373 -1.0175933 -2.1373713 7.5
-6.0573587 -1.1879693 -2.131911 5
-5.8438101 -1.0029293 -2.1876602 5
-5.5377293 -1.0431542 -2.3378377 4.5
-5.0667138 -0.89106327 -2.0662565 5.9538689
-4.6098118 -0.86741972 -2.1907041 6.4864197
-4.2142725 -0.82044572 -2.2067068 4.8611112
-2.5632262 -0.88692296 -2.3748553 7
-2.1545219 -0.98048007 -2.2303267 6.4388885
-1.8911036 -0.98832607 -2.1627514 6.4166665
-1.4554842 -0.94400275 -2.1942163 4.6999998
-1.1469545 -0.95173538 -2.3050208 5.5
-0.55491245 -0.90468693 -2.2875774 5.5
-0.18453966 -0.87770891 -2.1887379 5
0.16051133 -0.8484211 -2.2426112 4.6666665
0.4683581 -0.82924378 -2.0627933 5
2.4447863 -0.92943984 -2.1193948 6.25
-8.5558329 -0.61870843 -2.2239788 12.665013
-8.3833637 -0.72993428 -2.0577734 14.333333
-4.9961634 -0.59806991 -2.025147 12.67681
-4.6813712 -0.63768852 -2.1163909 10.669674
-4.1621552 -0.59128547 -2.2165818 10.22298
-3.8730915 -0.58540034 -2.2409537 8.9874144
-3.4067798 -0.74571776 -2.2511218 4.5
-2.9499643 -0.69396091 -2.204776 4.9166665
-2.6313758 -0.65627879 -2.1933072 7.3809528
-2.1700628 -0.62898403 -2.2358592 9.8731375
-1.9392133 -0.55361706 -2.1728187 7.3518906
0.65011716 -0.58244854 -2.2691774 7.375
0.98274392 -0.57310981 -2.1845262 8.4844379
1.3214146 -0.5788219 -2.0737195 7.75
1.9050764 -0.42772123 -2.1986303 6.7777772
2.2000604 -0.5154261 -2.2270367 7.3406863
2.4721844 -0.57121688 -2.1858003 7.4016643
3.0092125 -0.45203638 -2.280925 6
3.2690904 -0.45188537 -2.3212082 6
4.1436062 -0.61127448 -2.2657638 5
4.7065067 -0.55959392 -2.1501353 8.5961533
-8.6687794 -0.21669406 -2.2193537 13.99365
-4.634696 -0.2585462 -2.1737695 14.21111
-4.2094464 -0.28412157 -2.2262979 14.5
-3.922791 -0.22438779 -2.2844329 13.55361
-2.6832988 -0.18318389 -2.0894434 13.554761
-2.0993936 -0.25454924 -2.2896821 12.042067
-1.9326118 -0.27807537 -2.152142 12.250394
-0.95507675 -0.067268364 -2.2045491 6.8888888
-0.63218087 -0.12150859 -2.1834862 6
0.65593392 -0.088020377 -2.1966698 11.264286
0.97475845 -0.15928762 -2.211551 12.810431
1.3617687 -0.1562039 -2.2027564 9
1.8503871 -0.15779488 -2.2940831 9.9909096
2.1798847 -0.15217222 -2.1119556 11.639452
2.4098125 -0.14405698 -2.0952868 8.25
3.1137679 -0.29607621 -2.2663133 8.0809164
3.4293907 -0.086427867 -2.1693013 8.5
3.7766297 -0.1474005 -2.3535149 7.3333335
4.2899399 -0.20773196 -2.0062706 8.5
4.6576843 -0.23544125 -2.2150137 9.651516
4.8369598 -0.26523882 -2.161262 8.5
-8.7652731 0.16988826 -2.1749022 14.722222
-3.8560658 0.10750347 -2.0954394 10.8
-2.6615009 0.088692904 -2.2008333 14.666667
-2.1144276 0.17420837 -2.2548716 14.024692
-1.8572607 0.18661828 -2.1249449 13.02
-1.0194439 0.23085031 -2.1957295 8.958333
0.64089847 0.2832953 -2.2076216 14.125
1.1448226 0.34564146 -2.2740436 12.707693
1.3303033 0.28095993 -2.1290407 12.25
1.8908029 0.18826634 -2.3275614 12.071429
2.2656276 0.26540744 -2.269412 10.75
2.4805946 0.22202319 -2.033041 11.25
3.4480946 0.19512749 -2.1859667 11.142858
3.8167067 0.062601745 -2.3817956 9.3888893
4.2780161 0.2684412 -2.0183222 14
4.64185 0.20733605 -2.2289393 12.945578
4.8288569 0.068715632 -2.1950998 10.5
5.2600894 0.15872365 -2.1710186 8.5
-3.9238214 0.52680308 -2.2622869 12.892857
-2.0363081 0.69304889 -2.2803552 14.5
-1.8676482 0.55766344 -2.1769848 14.666667
-1.0138679 0.57835639 -2.2010808 11.220239
0.51917911 0.59603238 -2.2724738 14.25
1.1497285 0.67358643 -2.2823656 14.733334
1.3325547 0.60063499 -2.1296473 14.333333
2.1531045 0.62146175 -2.1295044 13.285714
2.5105116 0.50121099 -2.0214236 14.037037
3.4021971 0.4603774 -2.0218112 14
3.7751067 0.43401524 -2.3619747 13
4.590416 0.6045984 -2.2264774 14.233335
4.8394489 0.60226059 -2.2253175 14.142857
5.2627296 0.56472731 -2.1578512 10.8
-3.927048 0.8738479 -2.2158017 14.75
-1.0477694 0.9913972 -2.231456 12.333333
1.9858043 1.0568743 -2.3932006 13.5
2.1525211 0.82502747 -2.1829453 15
5.2622261 1.0037303 -2.1909447 13.2
-1.0495162 1.3938895 -2.2019923 14.416666
1.9847205 1.3232995 -2.3957236 15
2.016804 1.235835 -2.0777042 15
5.2604084 1.3337458 -2.1678638 15
-1.0463235 1.6187025 -2.2349513 15
-8.4777489 -1.2155461 -1.6053674 7
-8.2615166 -1.3055598 -1.8394324 6.5845237
-7.8410058 -1.3511829 -1.8154882 4.5
-7.3398323 -1.3715302 -1.689029 5
-6.9745207 -1.3412788 -1.759694 6
-6.6519451 -1.2819214 -1.7767813 5.25
-6.2989736 -1.2098907 -1.755759 4.9828572
-8.5147572 -1.0219061 -1.7969195 8.430357
-8.3016968 -0.98941851 -1.7975942 12.111707
-6.4945321 -0.93424779 -1.7544333 8.7142859
-6.3098769 -0.99822479 -1.7247729 8.5243368
-5.893909 -0.94157535 -1.8170094 7.1425915
-5.4815412 -0.91586405 -1.9086096 7.3386197
-5.0370398 -0.85822123 -1.9183334 5.25
-4.4798899 -0.87435377 -1.8655658 9
-2.513202 -0.93744975 -1.9024134 7
-2.126348 -0.98641509 -1.8574611 6.6218748
-1.8611465 -0.99790847 -1.7601177 6.4185185
-1.5167427 -0.9938429 -1.9211645 4
-1.0188832 -0.97771847 -1.6721244 4
-0.59537476 -0.91495055 -1.8056427 5.3333335
-0.2405182 -0.90597969 -1.7974542 4.1666665
0.19732888 -0.87391716 -1.7888467 4.75
0.49996889 -0.87320423 -1.7149497 5.5
2.606365 -0.870749 -1.7530318 6.8333335
3.7855375 -0.84278941 -1.7180561 6.875
4.0497971 -0.83451879 -1.8613139 6
-8.547533 -0.58151525 -1.8641073 11.885629
-8.3244123 -0.69132054 -1.7905086 13.969999
-6.4918947 -0.5681302 -1.7215374 13.078125
-6.2329974 -0.63133991 -1.7175026 13.001021
-5.8933954 -0.66724157 -1.7951044 12.407505
-5.3997622 -0.65355128 -1.9138365 12.765573
-5.1021953 -0.60601908 -1.9672619 12.191293
-4.5066638 -0.47436219 -1.8113611 12.392857
-3.7599633 -0.56699598 -1.8314205 10.429322
-3.3739376 -0.75740683 -1.8177061 3.75
-3.0574143 -0.74724692 -1.8004352 4.8333335
-2.5244079 -0.69920242 -1.8147862 7.5694447
-2.1595185 -0.62686765 -1.8105481 11.750162
-1.8637719 -0.55212975 -1.7654718 8.4237833
-1.3035994 -0.54714167 -1.6127076 6
-0.77776182 -0.51947939 -1.7255049 6
-0.22109115 -0.5008505 -1.7173665 6
0.7662946 -0.43536314 -1.8389096 8.75
1.0529159 -0.61518246 -1.7863623 8.2827921
1.4218652 -0.51970655 -1.8346002 7.75
1.952821 -0.42524964 -1.9601986 6.6666665
2.1071949 -0.42809337 -1.8675394 5.7666664
2.5425797 -0.54012305 -1.7106279 10.75
2.9832368 -0.45385489 -1.7107768 5
3.4452317 -0.49999291 -1.7010107 3
3.8012586 -0.56045198 -1.7105465 10.03681
4.0810285 -0.56491101 -1.8071123 8.5
4.8633566 -0.60802525 -1.7806969 8.25
-8.6190481 -0.18331623 -1.8344973 13.95
-6.570652 -0.3233873 -1.8058347 14.333333
-5.747746 -0.33114779 -1.7032295 14.174333
-5.256906 -0.35411552 -1.8527365 14.75
-4.8682733 -0.38781357 -1.9653082 15.0295
-4.5566607 -0.15318768 -1.8542986 14.722222
-3.7689242 -0.29124412 -1.7395093 13.676001
-2.5305238 -0.1971911 -1.7426112 13.985715
-2.0919504 -0.20359969 -1.8732989 13.225778
-1.859445 -0.24949396 -1.7761563 10.821408
-1.3900011 -0.088431031 -1.8391426 6.4000001
-0.97356063 -0.057668183 -1.8581038 6.8888888
0.68544251 -0.042830575 -1.7848805 8.333333
0.97854084 -0.11430602 -1.7503368 11.990164
1.3790852 -0.15947802 -1.7821445 8.953968
1.9406363 -0.16285959 -1.9388555 10.196969
2.1376827 -0.25451139 -1.913871 9.708334
2.5798585 -0.20378409 -1.7489519 9.083333
3.0284424 -0.24701765 -1.7722919 6
3.3638325 -0.25532374 -1.8744984 6.3333335
3.8142095 -0.18571869 -1.7397147 11.246667
4.3019295 -0.23099045 -1.744568 7.5277772
4.6702294 -0.20671764 -1.7316267 9
4.9192071 -0.18074426 -1.837417 10.791666
5.2684135 -0.10251201 -1.9331765 7
-8.6617479 0.1939615 -1.8123446 14.75
-3.7527268 0.083973289 -1.7440221 11
-2.026159 0.20367241 -1.8540199 13.9
-1.8178322 0.14371507 -1.7907054 11.816468
-1.376074 0.21495265 -1.9128332 10
-0.95063925 0.19647458 -1.9141279 9.625
0.62953806 0.23480146 -1.8316519 11.611111
0.95734578 0.18932417 -1.7226938 11.241873
1.3579596 0.28871819 -1.7965058 12.629251
1.9233307 0.14546625 -1.9686775 14.166667
2.0694017 0.17959063 -1.7830981 11.166667
2.5739918 0.056827866 -1.9929262 9.5
3.4024262 0.34779537 -1.9926796 13
3.7722089 0.22113475 -1.8204905 13
4.3348265 0.23694921 -1.7769413 14.071428
4.6783357 0.11420321 -1.8085696 12.898252
4.9084873 0.16027172 -1.7948432 12.416667
5.2709036 0.13011877 -1.8127623 8.3999996
-3.7741952 0.63783491 -1.7096453 14.25
-1.8187511 0.51736432 -1.7930979 14.141665
-1.40163 0.54017043 -1.9142251 13.714286
-0.95857167 0.5417701 -1.8907585 12.912698
0.63329476 0.51066786 -1.8719887 14.233334
0.98307639 0.52782035 -1.7681364 13.891
1.3637003 0.60577714 -1.7900168 14.733335
2.0940409 0.61627036 -1.8377333 12.5
2.5923631 0.40570372 -1.6126852 14
4.7133827 0.55497789 -1.8379207 14
4.8575139 0.45509848 -1.8075336 13.75
5.2694626 0.58549988 -1.8214502 11.142858
-1.0224559 1.0084465 -1.8538265 12.85
2.032721 0.99356824 -1.8950479 13.8
4.6315355 0.85537076 -1.8949169 15
5.270381 0.9787178 -1.7785597 13.5
-1.018315 1.3722327 -1.8182111 14.75
5.2730379 1.2400137 -1.7831297 15
-8.4064026 -1.220638 -1.3249186 7
-8.1971636 -1.361966 -1.4021508 6.5168648
-7.6793203 -1.4186854 -1.5211954 5
-7.3516135 -1.3579212 -1.3602122 5
-6.8891754 -1.342801 -1.5293775 5
-6.6794066 -1.3391665 -1.3828714 4.6666665
-6.2839375 -1.2416184 -1.4365965 5.746212
-8.4396391 -0.98143405 -1.4301771 8.8928576
-8.2405958 -1.0396647 -1.3964386 11.19634
-6.26755 -0.98625261 -1.3803854 11.755574
-5.8176899 -1.0742899 -1.4386169 3
-5.5740356 -1.0651871 -1.3716105 3
-5.0989537 -0.86347485 -1.5598916 3
-4.257576 -0.97488338 -1.393746 8.6875
-3.3283474 -1.1535228 -1.3252466 6
-2.9042428 -1.1024342 -1.4190607 6
-2.5759857 -1.0565808 -1.3848162 6.25
-2.2041099 -0.97538155 -1.3485823 7
-1.8257767 -1.043239 -1.403507 6.6710157
-1.3950295 -1.038036 -1.4274143 4.9444442
-1.0497459 -1.0046169 -1.4237468 4.5
-0.68444699 -0.99110776 -1.3650675 5.3333335
-0.21910471 -0.95390928 -1.4179951 5.5
0.12998217 -0.92000037 -1.4524025 4.8333335
0.47906849 -0.88660848 -1.421675 5
0.99651325 -0.82526225 -1.3394272 6.5
2.5960884 -0.95315951 -1.4863183 5.8035717
3.5513375 -0.85462064 -1.4572229 6.3333335
4.7640042 -0.85558301 -1.2817013 6
-8.4755306 -0.59716392 -1.4318719 11.555555
-8.2820024 -0.67411053 -1.4036613 13.770881
-6.42801 -0.6281417 -1.5475693 13.916666
-6.3357792 -0.740614 -1.5326369 12.25
-4.3023009 -0.51566666 -1.364445 12.907143
-3.6824284 -0.5446105 -1.4679374 10.317861
-3.4932036 -0.69498003 -1.2879777 7.0267859
-2.9992874 -0.77057099 -1.4921631 5.5
-2.568527 -0.70019782 -1.3985586 6.8886218
-2.1463871 -0.68790275 -1.4027042 10.286622
-1.8282099 -0.61054742 -1.3620771 9.8695936
-1.5579865 -0.58458626 -1.23866 7.625
0.24468541 -0.49399543 -1.5989029 6
0.61301655 -0.5027864 -1.4292336 6
1.0925833 -0.58425874 -1.4635651 8.5684519
1.3745322 -0.5832054 -1.4102672 7.6958337
1.6125592 -0.4228158 -1.439991 7
2.0671794 -0.41269118 -1.5188038 6.4333334
2.5589671 -0.6064328 -1.3870597 10.751534
2.9471922 -0.44620609 -1.3546844 4.75
3.4864833 -0.61898267 -1.4590956 9.3000002
3.6736047 -0.51784223 -1.5022603 9.1753244
5.0563502 -0.57065272 -1.4601156 8.8148146
-8.5142536 -0.22475883 -1.4103656 14.022222
-8.2706966 -0.32818457 -1.2890949 15
-6.2343149 -0.32999918 -1.55828 13.568182
-4.4321508 -0.25337446 -1.5091121 15
-4.267612 -0.31290862 -1.2933968 14.666667
-3.7001982 -0.25379694 -1.4047256 13.98063
-2.453372 -0.366889 -1.3945495 13.636364
-2.2950044 -0.22094452 -1.3209579 14.142857
-1.7791133 -0.24795049 -1.3595089 11.55856
-1.4913374 -0.19750214 -1.370356 8.9074068
-1.0367247 -0.077624932 -1.525036 7
-0.54772753 -0.12343927 -1.2216949 5
-0.31864622 -0.12326948 -1.2980801 5
0.74359351 -0.063987799 -1.4659086 7
1.0810789 -0.16491807 -1.4654429 13.347569
1.4000067 -0.14086924 -1.3741909 10.533334
1.7330823 -0.14004156 -1.4449097 7.1111107
2.0788357 -0.11590413 -1.4388114 9.6102943
2.5479405 -0.172328 -1.4470564 9.9285707
3.0331593 -0.33610547 -1.3781629 6
3.5058773 -0.20555457 -1.3936048 9
3.633873 -0.24786922 -1.5149713 12.027778
4.0959325 -0.33078 -1.2867136 6
4.5469437 -0.1733858 -1.3253665 8.6538458
4.9912133 -0.14365596 -1.4063964 9.9169636
5.2003908 -0.35142028 -1.2980192 9.5
-8.5389509 0.17950995 -1.4054867 14.888889
-3.6610379 0.12352324 -1.411859 11.6
-1.7881826 0.18015791 -1.4352847 11.6
-1.5517887 0.17991598 -1.4300777 10.095238
-1.0586942 0.18658741 -1.5267242 8.5
0.73134863 0.22632298 -1.4307148 9
0.96585917 0.21507414 -1.4909357 11.444445
1.4218715 0.28128964 -1.3908012 13.142859
1.6067163 0.22117662 -1.3598042 12.8
2.0789409 0.12562993 -1.3997858 13.268326
2.5798626 0.23787439 -1.4529078 12.38
3.603019 0.050554693 -1.5317435 13
4.5363741 0.19858265 -1.326872 13.983334
5.0029445 0.10560567 -1.3566464 11.5
5.2805786 0.22341152 -1.3845804 9.1000004
-3.6881742 0.60426968 -1.4299281 14.5
-1.78652 0.5868991 -1.4053428 11.895239
-1.5207195 0.60144746 -1.479785 10.7
-1.0517983 0.56578201 -1.5250474 10.75
0.69150656 0.62781686 -1.4492892 11.666667
0.90632945 0.60317963 -1.4914793 12
1.3907542 0.60190195 -1.4647949 14.525
1.6088717 0.46939385 -1.3138604 15
2.1203942 0.59076065 -1.3920381 12.777778
4.9144969 0.4700287 -1.4484551 13.685715
5.2763705 0.58364952 -1.5454113 11.333333
-1.8154688 1.0268656 -1.4172016 12.857142
-1.5402706 1.037578 -1.4754083 13
-1.057391 0.98497456 -1.5202489 13
1.2850609 1.0600841 -1.2749399 15
2.077287 0.9830274 -1.4147167 14.5
4.7876673 0.83531988 -1.4740577 14.571428
5.2814937 0.97868443 -1.3598912 14
-1.8114065 1.3962886 -1.3963137 14.666667
-1.5271413 1.3701627 -1.4751575 14.7
-1.0570427 1.3234822 -1.5184259 14.7
-1.8166218 1.6017509 -1.4350908 15
-8.1125536 -1.3132558 -0.96810806 8.5334291
-7.9375019 -1.4507451 -0.91837293 5.083333
-7.3746943 -1.3674612 -0.96973944 4.6666665
-7.0349698 -1.3912532 -0.96125281 5
-6.6159019 -1.3290694 -0.98046136 4.3333335
-6.1994848 -1.2637081 -1.0667521 6.0037417
-3.9080081 -1.2475175 -1.0266869 6
-3.5969949 -1.2430615 -0.83900416 6
-8.1775246 -1.0370674 -0.99032265 11.790577
-6.6399131 -1.1853781 -1.161064 3
-6.1694908 -1.0393579 -1.0576034 10.100565
-4.1395512 -1.0445743 -1.0018166 8.4487734
-3.7939446 -1.1942129 -0.99375558 6
-3.5546122 -1.1741223 -1.0768459 6
-3.1481025 -1.1502484 -1.0038595 6
-2.6161637 -1.132369 -0.8569082 4.5
-2.1919148 -0.97631001 -0.99669689 7.770833
-1.8642745 -0.93791878 -0.98875964 8.4970779
-1.4858586 -1.030268 -0.98508996 5.5
-0.94059449 -1.0104377 -1.0141393 5.3333335
-0.21658617 -0.99674636 -0.86246938 4
0.1815442 -0.9617157 -0.90077901 4.6666665
0.54092759 -0.91976804 -1.0026846 5.3333335
1.0565674 -0.89704305 -1.0081195 6.3333335
1.2842606 -0.81818104 -1.0433927 6.6666665
2.7327344 -0.96125418 -1.0276268 6.5
2.893317 -0.8475005 -1.0575457 8.25
-8.4260368 -0.56561691 -1.1862253 11
-8.2417212 -0.6557622 -0.95424038 12.488154
-6.2880397 -0.73986232 -1.0706141 14.46825
-4.2068124 -0.5293299 -0.98900145 13.892858
-3.6481349 -0.56216943 -1.1200297 9.4222221
-3.5190396 -0.60263366 -0.9882623 9.5753546
-2.9073446 -0.77673942 -0.97067022 4.5555553
-2.5480044 -0.67388469 -0.96379119 8.166667
-2.1954668 -0.70174152 -0.97736061 10.275946
-1.7615081 -0.57601207 -1.0273844 10.117563
-1.5009896 -0.56056511 -0.95122051 7.4000001
0.081698306 -0.55738294 -1.0965981 6
0.48086467 -0.55461657 -1.0309625 6
1.0981143 -0.54176009 -0.98741925 8.3625002
1.377179 -0.53428626 -1.0144037 8.8796616
1.71868 -0.55720878 -1.0272826 8
2.1834242 -0.40748179 -1.0552114 5.9869051
2.6447732 -0.52557206 -0.87908381 8.6029415
2.9696367 -0.50358635 -0.89479369 9.166667
3.8219566 -0.41131303 -0.92743629 4.6111112
4.1440797 -0.40356886 -0.86748224 5
5.1707211 -0.65276361 -1.0523865 8.25
5.3362341 -0.55999792 -0.87825692 8.875
-8.4422827 -0.19363861 -1.1121064 13
-8.3702831 -0.22956015 -0.96287537 13.275
-3.6541786 -0.25119069 -1.1096617 14.32975
-3.5368798 -0.29598728 -1.027956 12.716667
-2.1484799 -0.3985129 -0.9120276 13.555555
-1.7531947 -0.19433539 -0.99610615 12.540874
-1.512176 -0.25668016 -0.90126783 10.489459
-0.95212513 -0.1222693 -0.92767882 5
-0.72328335 -0.12268437 -1.1242024 5
0.65808475 -0.12470987 -1.065418 4.75
1.0463805 -0.12300891 -1.0048023 11.125
1.3599987 -0.20537829 -1.0277915 11.790159
1.675388 -0.13826528 -0.95185661 10.34
2.2248812 -0.20841189 -0.92087358 10.658529
2.6131458 -0.13257141 -1.1626278 8.9666662
3.1328754 -0.21641193 -0.94247407 9.7737436
3.4496601 -0.22855678 -0.86724186 8.7815437
3.6344619 -0.24556546 -0.98400152 8.75
4.5636225 -0.21494313 -1.0182014 8.2923393
4.9600067 -0.1877012 -1.0137873 8.375
5.314898 -0.15573321 -0.98606205 10.471429
-8.4391146 0.19263595 -1.0066026 14.75
-8.3939877 0.070364416 -0.88881624 14
-3.5683849 0.15402864 -0.98844022 13.016666
-1.7187918 0.1902401 -1.030496 12.416665
-1.5432566 0.093877241 -0.96315098 13.626389
1.0124725 0.24739249 -0.9548254 14.133334
1.3952942 0.16887389 -1.0496662 13.4
1.6709996 0.26382685 -0.97199148 13.236111
2.1399469 0.20198315 -0.97262585 9.5
2.6204097 0.2004208 -1.0076427 12.753204
2.9977102 0.16516905 -1.1246376 9
4.542635 0.18289594 -1.0235473 14.5
4.9441524 0.17898695 -1.0072671 11.402857
5.2731304 0.22631644 -1.0105828 12.5
-3.5599105 0.43894088 -0.99463987 14.2
-1.7457049 0.53345239 -1.0126162 12.70625
1.0700519 0.59022164 -1.0557785 14.6
1.46017 0.59619766 -1.0200531 14.25
1.6899056 0.53593427 -1.0832248 13.75
2.1395469 0.56928802 -0.96933907 13.142857
2.998219 0.5428952 -1.113976 12
4.9923115 0.47633544 -1.1183668 13.82381
5.2625475 0.65158886 -0.96293885 12.933333
-1.8010069 1.013688 -1.003492 13.238095
1.3962021 1.0145378 -0.93244207 15
1.684267 1.0730059 -0.99628055 14
2.1119263 0.90823323 -1.0389967 14.666667
2.9984913 0.86542332 -1.1074855 14.5
4.907021 0.86882889 -1.1495204 14.5
5.2996826 0.9654963 -0.92985678 14.5
-1.8017865 1.3156251 -1.0155274 14.833333
1.6742048 1.3657956 -0.96921694 15
-8.0686035 -1.3226875 -0.64299655 8.9475727
-7.9276719 -1.3648295 -0.56719178 7.8270569
-7.4001517 -1.4584557 -0.58655709 5.1999998
-6.9438386 -1.3463397 -0.546556 5
-6.6351037 -1.379941 -0.52810299 4.3333335
-6.1595931 -1.3136753 -0.58568698 5.7276773
-5.953979 -1.2867914 -0.48277462 5.5714288
-5.4705896 -1.2963998 -0.40269405 3
-4.0443172 -1.2290299 -0.68067557 6.583333
-3.8201423 -1.2583237 -0.49013081 6.5
-3.0610523 -1.2378018 -0.46963489 5
-2.7351193 -1.2184935 -0.45472756 5
-8.152607 -1.0028055 -0.62061679 11.074378
-7.9574013 -1.0636622 -0.55216771 12.718526
-6.0900574 -1.0549715 -0.62128597 11.72471
-5.9993939 -1.0131013 -0.4719795 11.5
-4.0662189 -0.95405245 -0.64504176 10.25
-3.9296279 -0.96469426 -0.51156735 9.9230766
-3.3553247 -0.81861866 -0.64987159 6.5
-2.9881968 -0.82946551 -0.51367474 5.25
-2.5902457 -1.1783867 -0.63478184 5
-2.0818021 -1.0056344 -0.60720432 7.9501781
-1.7663726 -0.97287589 -0.64312708 8.2930622
-1.4173299 -1.0180835 -0.53613782 6.395833
-1.033028 -1.0782084 -0.65043485 4
-0.59321755 -1.0437616 -0.66516155 4
-0.14644408 -1.0205052 -0.52016634 5.25
0.19532284 -0.98583162 -0.59915864 5.1999998
0.58635694 -0.95253503 -0.59159166 5.5
1.1591139 -0.93606496 -0.40373993 6
1.3952967 -0.85536712 -0.60989767 6.8166671
3.0196404 -0.90559185 -0.59300768 8.25
4.0982075 -0.98267043 -0.59311008 6
-8.2048798 -0.60956627 -0.59824234 12.17605
-5.9970922 -0.72452366 -0.46819437 15
-4.1052418 -0.64201349 -0.67059064 13.980952
-3.9596434 -0.64757037 -0.49346867 13.444445
-3.4398034 -0.60796559 -0.59742659 9.2519531
-2.8187475 -0.79399073 -0.59172618 3.3333333
-2.6033154 -0.79164898 -0.54154491 5.5
-2.1811237 -0.65719777 -0.63207924 10.658654
-1.7178969 -0.53291595 -0.62981927 9.835186
-1.4622514 -0.53414202 -0.54893827 8.734375
-1.1770585 -0.59896779 -0.45943493 5.5
-0.79867989 -0.59876794 -0.77286392 5
-0.32336232 -0.60901976 -0.6788736 5
0.23261845 -0.588498 -0.52956975 5
0.65265906 -0.56982672 -0.65993494 6
1.1652977 -0.53367215 -0.54807782 9
1.3976326 -0.59675235 -0.60958749 8.5203371
1.7749345 -0.54282272 -0.60765737 7.7692308
2.2629318 -0.40756583 -0.68777001 5.3571429
2.664289 -0.40358186 -0.51331395 5.6071429
2.9890513 -0.58561623 -0.52534842 11.821428
3.8325803 -0.4268077 -0.56266195 4.0625
4.3785524 -0.40060517 -0.5176748 5
5.4890957 -0.4485794 -0.51097047 8.75
5.6351013 -0.6646015 -0.5567286 8.8000002
-8.2986946 -0.19476287 -0.61126477 14.166667
-3.459938 -0.27813485 -0.61596459 12.445833
-1.7092531 -0.16254543 -0.58386183 11.7
-1.4386095 -0.20179594 -0.57429171 11.57919
-0.099142775 -0.11598199 -0.40563524 3
0.68321341 -0.12536052 -0.67923093 4
1.0967472 -0.13985744 -0.54233181 10.15
1.3636956 -0.20783041 -0.62193 11.554544
1.7753447 -0.19425391 -0.60671568 9.9722223
2.2669015 -0.22271612 -0.58003581 9.7959051
2.6296587 -0.25414285 -0.62245208 9.0766611
3.0582333 -0.26572099 -0.49429742 7.5
3.5052414 -0.2165851 -0.69080853 8.7787275
3.9483941 -0.23051932 -0.66509372 4.75
4.3022108 -0.30835292 -0.53277576 5
4.6611071 -0.19196989 -0.59100211 8.6163902
4.9182119 -0.15533359 -0.62654543 7.375
5.3346939 -0.14221579 -0.65946901 10.2
5.6233101 -0.29576105 -0.47174025 11.2
-8.309679 0.11121359 -0.5583666 15
-3.4620783 0.17524719 -0.60139507 13.799999
-1.714687 0.20372599 -0.5803135 11.599999
-1.4551961 0.13782927 -0.53885132 14.077778
1.1400163 0.17289726 -0.54809958 14.5
1.3849521 0.13200295 -0.61566305 13.809091
1.7509421 0.21029513 -0.58095914 12.566667
2.1619754 0.20923144 -0.57107997 9.75
2.6201286 0.13889676 -0.58194131 12.848186
4.6457653 0.18678008 -0.63345784 14.63725
4.9591212 0.27297145 -0.64862508 13.089
5.4015632 0.22865731 -0.63127869 12.75
-1.7632729 0.54825181 -0.53707701 12.166667
1.1934097 0.6154722 -0.68326592 15
1.46181 0.56844723 -0.59628481 14.5
1.7088072 0.54080003 -0.67412949 13.666666
2.1612573 0.5774352 -0.57447201 13.696428
5.3326511 0.60443664 -0.6341573 14.089286
-1.7634592 0.97282815 -0.53934181 13.25
1.5148611 0.97291279 -0.57237279 15
1.7846794 0.95993292 -0.62151122 13.333334
2.1474209 0.85769051 -0.68920851 15
5.3023987 0.91254616 -0.68134165 14.5
-1.7841353 1.3545082 -0.6227119 14.5
1.7478815 1.3957227 -0.57399017 14.666667
-8.0189075 -1.346419 -0.22912073 8.25
-7.889986 -1.382243 -0.26215702 8.7474995
-7.2479401 -1.3850094 -0.11450195 6
-6.9947867 -1.4963522 -0.19123264 5.3333335
-6.5849771 -1.4656918 -0.021068752 5
-6.1112475 -1.3337812 -0.258095 6.3285713
-5.9453006 -1.2885447 -0.099796034 6.840909
-3.8742962 -1.2541369 -0.27643123 6.6722221
-3.4004898 -1.2848198 -0.12805215 5
-2.9343472 -1.2415655 -0.27484441 5
-2.6735721 -1.2587075 -0.044486046 4.5
-1.240485 -1.2139413 -0.11976671 7
-8.0246248 -0.98348111 -0.26937753 12.916667
-7.8969522 -1.0763316 -0.1709196 12.197778
-6.0470185 -1.0721869 -0.28848231 12.470905
-5.9469714 -1.0059797 -0.076370105 12.272244
-3.9001999 -1.0211747 -0.23091757 10.090862
-3.2769644 -0.81449533 -0.19572692 6.4583335
-2.8891308 -0.82686633 -0.21239196 4.6666665
-2.5134602 -0.93551445 -0.28159443 4.8333335
-2.0838523 -1.0284299 -0.24772011 7.8242297
-1.8015605 -0.97654921 -0.077120103 9.5310402
-1.4991627 -0.97395611 -0.16507457 8.003602
-1.0160407 -1.1171104 -0.248495 4.6666665
-0.60345972 -1.0755665 -0.28816581 5.5
-0.21712692 -1.0547816 -0.23839939 4.5
0.16561151 -1.0089388 -0.32926893 4.5
0.57598972 -0.99455762 -0.18348843 5.5
1.0063334 -0.93455762 -0.20053594 6.3333335
1.4492986 -0.87275535 -0.22366476 6.9523811
1.6639001 -0.85514235 -0.080988407 7
3.0168664 -1.0067976 -0.34445572 7
3.3145621 -0.91162479 -0.20158267 9
5.8478045 -0.99450999 -0.19359422 7
-8.0481434 -0.60449713 -0.082371831 15
-7.9213333 -0.70751542 -0.19551468 13.464286
-6.0142527 -0.76081604 -0.27171218 15.0595
-5.9158473 -0.68882632 -0.1644479 14.623944
-4.0055776 -0.72503114 -0.36182046 14.285714
-3.8752201 -0.70392048 -0.1467957 14.5
-3.3237998 -0.53803343 -0.23193116 9.4104815
-2.6779194 -0.75540006 -0.24895854 4.5
-2.053117 -0.6985926 -0.21612068 12.804601
-1.6799901 -0.64719629 -0.21541817 12.07247
-1.414986 -0.57481617 -0.12540656 10.0925
-0.63419425 -0.64053345 -0.35771048 4
-0.2320673 -0.64008689 -0.27930465 4.5555553
0.085745811 -0.6280998 -0.11197543 4.5
0.59021574 -0.60543072 -0.16603892 5.3333335
1.4425858 -0.58849806 -0.22655264 9.0792532
1.7351526 -0.56295168 -0.17387915 8.1875
2.0502172 -0.67510474 -0.23372936 8
3.0230131 -0.62010342 -0.21057773 12
3.2919087 -0.54457593 -0.13612485 12
3.8603237 -0.41277763 -0.2584776 3.9166667
4.7107801 -0.40777469 -0.023740411 6
5.599596 -0.45604283 -0.11723232 8.5
5.8033009 -0.73970079 -0.20609117 8.5
-8.2799253 -0.26493186 -0.36571455 14
-7.9971485 -0.3262707 -0.17813158 14.666667
-3.3206573 -0.18526073 -0.18801755 12.922222
-1.664247 -0.18574476 -0.24892245 12.967901
-1.3929806 -0.20887938 -0.15388359 11.783033
-0.54741991 -0.11648672 -0.033219181 3
-0.33712405 -0.11414107 -0.26424906 3
1.0195228 -0.12794729 -0.086900279 4
1.4363945 -0.19407803 -0.18252534 12.381439
1.8075571 -0.1890105 -0.22024138 10.221826
2.1046686 -0.15183844 -0.15532085 8
2.7188537 -0.13940668 -0.13231269 7.3004313
2.9903433 -0.18436809 -0.14185716 9.6527777
3.3801842 -0.27339405 -0.069608659 9.25
3.8875365 -0.35410154 -0.25044602 4.125
4.2759824 -0.29528722 -0.15702923 4.5625
4.7010579 -0.19802064 -0.21388179 7.3333335
4.9141555 -0.19461544 -0.23165822 7.3000002
5.4475198 -0.058094203 -0.20491505 9.333333
5.7800131 -0.3666189 -0.14711499 10.75
-8.3119774 0.01442188 -0.35870218 15
-3.3001857 0.21968044 -0.12514076 14.125
-1.7529495 0.20402688 -0.23542611 9.166667
-1.4292383 0.16669388 -0.17441244 14.147059
1.4068514 0.1702871 -0.14861195 14.3
1.8159761 0.2073274 -0.21072207 12.988775
2.1256917 0.17505221 -0.1388102 10.181819
2.7115386 0.074792147 -0.1208784 12.803696
3.0257115 0.15176566 -0.0880301 9.5
4.7229862 0.19065244 -0.23635326 14.5
4.9485846 0.19693209 -0.23826282 12.862638
5.4016943 0.24001527 -0.19156924 10.4
5.6851087 0.34548807 -0.13305342 15
-1.7514977 0.5395155 -0.221579 11.791667
-1.5035428 0.4404479 -0.18846075 14.523808
1.5654496 0.49637175 -0.21449083 14.25
1.884388 0.60792798 -0.17572175 13.125
2.1848445 0.52779996 -0.14136299 13.75
3.0253215 0.51512194 -0.090954542 13.5
5.3614445 0.6170634 -0.22251105 12.816668
-1.7472321 0.97267312 -0.2218051 13.25
1.5896344 0.95021725 -0.34878862 15
1.9000603 0.93481976 -0.23091157 13.5
5.3888426 0.87224555 -0.14945406 14.666667
-1.7535362 1.3462815 -0.1779213 14.833334
1.8564872 1.3441204 -0.19593903 14.75
-7.822063 -1.3782035 0.14344364 8.7299328
-7.3356733 -1.5311289 0.13909629 4.9000001
-6.9663014 -1.4518683 0.13546881 5.5
-6.6220584 -1.4249464 0.17488658 5
-6.2871647 -1.4204 0.22113816 4.6666665
-5.8658385 -1.3263669 0.18056937 6.8835392
-5.3528042 -1.3780113 0.36840785 3
-4.0892034 -1.4237369 0.14827186 3
-3.6973343 -1.3063055 0.13384901 6.0151515
-3.4773757 -1.316853 0.32703796 5.3333335
-3.0093489 -1.305956 0.16321348 4.3000002
-2.5940094 -1.2713499 0.20532343 5.1999998
-2.2790346 -1.2635635 0.34766015 4.75
-1.7981077 -1.2193927 0.10086852 4
-7.8085237 -1.0411988 0.19883156 12.872829
-5.9006042 -1.0772151 0.16808771 12.349796
-3.7889698 -1.0052003 0.16162147 11.773568
-3.2777724 -0.86042213 0.30167681 7.4027777
-3.0650716 -0.83753139 0.28436059 6.0999999
-2.5637684 -0.83250511 0.097553015 4.9375
-2.2224126 -0.83181775 0.38702869 4.6666665
-1.8447918 -0.95186716 0.019357113 10.056862
-1.4058306 -1.1854162 0.26033887 4.75
-1.0710607 -1.1402266 0.05177629 4
-0.60004121 -1.1135521 0.10070247 4
-0.21538045 -1.1021476 0.29461715 4.75
0.18055844 -1.0510273 0.06354329 5
0.60475177 -1.0380492 0.22119367 6
0.96555859 -0.97697371 0.19275729 6.3333335
1.432058 -0.92883843 0.16742338 6.8000002
1.7041321 -0.89951468 0.22592139 7
3.1992147 -0.80042183 0.16516423 9.7777777
3.447758 -0.92950547 0.081008673 9
-7.8350463 -0.74297273 0.17846699 14.129992
-5.8405375 -0.68425304 0.20988448 14.280952
-3.6553073 -0.75078559 0.35304627 14.1
-3.2768505 -0.58337235 0.12682483 9.6923714
-3.1258733 -0.57087606 0.31517941 9.4466667
-2.1406059 -0.703785 0.08499074 6
-1.8288677 -0.65681326 0.085605949 11
-1.3021547 -0.53414184 0.088896833 8.8210793
-1.1289678 -0.65294427 0.18234174 6.8499999
-0.55395442 -0.69404507 0.15536322 4
-0.15533149 -0.66909933 0.15527047 5
0.16451418 -0.64499116 0.17575467 4.25
0.76323611 -0.62247002 0.20666239 5.5
0.8781842 -0.62950319 0.23400408 5
1.4934953 -0.60863048 0.22256476 9.3000002
1.757375 -0.59057879 0.22850025 8.1306486
2.0775588 -0.57316786 0.1070056 7.375
3.1674492 -0.42459792 0.20291471 13.75
3.3689904 -0.61907119 0.11218071 10.5
4.5249906 -0.40981317 0.18943155 6
5.9217138 -0.76007187 0.033563137 8.5
-3.2686725 -0.22399507 0.18988574 14.313637
-3.1060452 -0.22319543 0.33436489 12.75
-1.7462379 -0.061909821 0.26788759 6.5
-1.2917349 -0.20345643 0.12455927 12.40842
-1.0461209 -0.087168202 0.32707566 9.5
-0.69995922 -0.12307759 0.30124992 3
0.31459558 -0.12589359 0.35062003 6
0.5970757 -0.1227487 0.19384265 6
0.98611355 -0.12114096 0.11283267 5.3333335
1.4643457 -0.18452056 0.17932892 11.233334
1.798174 -0.20484555 0.1831177 9.7761908
2.0892673 -0.19222191 0.19014888 8.965436
2.6506672 -0.15064777 0.23731008 8.8308992
2.9653997 -0.23651806 0.35329455 8.75
3.3001068 -0.18616259 0.13964063 11.25
3.8091166 -0.30670455 0.26340687 4
4.283421 -0.29356208 0.25907493 4.6875
4.7151408 -0.24738975 0.20335646 5
4.9097624 -0.17883426 0.15641154 7.8333335
5.3994021 -0.099299155 0.22716975 7
5.8841653 -0.32385489 0.09099412 11
-3.1083584 0.036654174 0.39613962 15
-1.732302 0.22162506 0.22835995 10.1375
-1.3164793 0.17728068 0.086559504 14.084722
1.4284369 0.19865406 0.21167096 14.333334
1.7831264 0.080740958 0.27443892 13.382353
2.0976005 0.1705119 0.19083507 11.666667
2.6517968 0.0085129291 0.21943843 13.220167
2.9122 0.12831068 0.22605133 14.75
4.7877998 0.21114123 0.098229788 14.5365
4.9585419 0.2148813 0.15773179 13.508479
5.3941207 0.17567699 0.13433392 9.2222223
5.8230286 0.17776854 0.1165185 13.833333
-1.728941 0.52568299 0.22461124 12.98125
-1.3272122 0.46795571 0.13516434 14.722222
1.8369435 0.4511745 0.3702845 14.666667
2.1108792 0.5480864 0.18950535 13.125
5.3954425 0.584526 0.13589327 12.466667
-1.7140298 1.0081675 0.13221025 14
1.962986 1.0732064 0.18761432 13.5
2.0232368 0.96805096 0.18417621 14
5.3966212 0.88075066 0.12560646 14.666667
-1.731369 1.3206499 0.19694138 15
1.9276297 1.3881245 0.13605818 14.75
-7.9417872 -1.6178236 0.77348077 7
-7.4090071 -1.6177928 0.66631877 5
-7.1676903 -1.6011117 0.4666661 5
-8.038023 -1.4662222 0.50600183 8
-7.7371373 -1.4130191 0.55648577 8.9239645
-7.396596 -1.4615358 0.58564901 6.6999998
-7.0036697 -1.517451 0.63781154 5
-6.6193337 -1.5177356 0.60972184 5
-6.2136936 -1.4751329 0.5522334 5.1666665
-5.7674737 -1.3520745 0.66235501 7.7948713
-4.5663762 -1.3628763 0.73804188 7.1666665
-4.2862258 -1.3330103 0.71279794 7.2754631
-3.765594 -1.2878716 0.53671199 7.0722222
-3.419857 -1.3383849 0.62520099 5.6296296
-2.6014175 -1.3274219 0.64301968 4.5
-2.275142 -1.2961245 0.61903697 4.6666665
-1.7453765 -1.2457218 0.53270543 5
-1.210242 -1.2079393 0.66787726 4.5
-0.99557018 -1.2094705 0.7371949 5
-8.0662451 -0.94448197 0.57783258 12
-7.7283196 -1.0292565 0.60159057 13.284721
-5.7965798 -1.0485134 0.61412644 12.340776
-4.5737863 -1.1096767 0.76830167 12.937485
-4.2641945 -1.0666856 0.71380651 12.958891
-3.7711725 -1.045851 0.55823016 12.406165
-3.4424994 -0.97226703 0.49621582 11.804762
-3.0312068 -0.84201598 0.67421997 6.666667
-2.670867 -0.86710185 0.65446478 5.1111112
-2.1556387 -0.84559655 0.64322025 5.5
-1.7772306 -0.82103592 0.58188647 5.6666665
-1.3400326 -1.1927731 0.72257125 6.5
-1.0218409 -1.0560992 0.59556085 6.5
-0.54587907 -1.1578826 0.57209837 4.875
-0.21261752 -1.1380203 0.65493357 5.5
0.086043239 -1.1077441 0.51702195 5.5
0.72319877 -0.9961769 0.63255411 6
1.0709131 -0.97633171 0.63585025 6
1.5608292 -0.89521533 0.51089525 7
1.768671 -0.912862 0.5570569 7
3.340205 -0.82837713 0.49874568 9.5
3.6079082 -0.88650787 0.58704817 8.75
-8.0872412 -0.58503097 0.61720026 14.666667
-7.7002392 -0.68261296 0.60993218 13.916667
-5.7136488 -0.68953794 0.70030707 13.694445
-4.2568388 -0.52915537 0.79418117 9
-3.798537 -0.68855 0.60356396 12.698106
-3.3177643 -0.58266628 0.48645577 10.858334
-3.1256983 -0.62846822 0.52419156 9
-1.9547317 -0.74835038 0.55831146 5
-1.2801715 -0.67716539 0.50918877 5.4000001
-1.1415777 -0.60227215 0.52741086 9.9375
-0.69217044 -0.72021282 0.77916837 3.25
-0.29886997 -0.70092869 0.52289754 4.75
0.36199659 -0.66019189 0.42030731 4
0.71522695 -0.6573202 0.64595675 5
1.1381164 -0.64574325 0.56456536 5
1.5535059 -0.64459127 0.61385858 8.8571424
1.7822053 -0.63413161 0.62360525 8.9714289
2.1041214 -0.54974145 0.49045494 6.75
3.4952638 -0.501818 0.61357325 11.666667
3.8700147 -0.40048924 0.73708415 5
4.2351918 -0.41296315 0.41444886 6
-3.8105285 -0.094064504 0.69217676 12.8
-3.2907372 -0.21841507 0.48888999 14.211111
-3.151767 -0.26932746 0.50738412 13.618711
-1.7939258 -0.099521756 0.65321416 6.75
-1.2185835 -0.24952409 0.49850112 11
-1.1123874 -0.20410807 0.58161545 11.551948
-0.70552278 -0.12600371 0.61473322 3.5
-0.049666882 -0.13142185 0.60404181 6
0.72748017 -0.12434181 0.72686231 4
1.1136878 -0.12880744 0.65123832 5.25
1.4946998 -0.12340393 0.54118556 11
1.752714 -0.23191708 0.62890238 12.256543
2.1820488 -0.14591165 0.57535177 8.166667
2.6707819 -0.25279358 0.55021232 9.2371225
3.0695589 -0.17575979 0.61955792 8
3.4307194 -0.32517982 0.58614576 8.625
3.6461132 -0.38306123 0.44878691 3
4.2190638 -0.33237869 0.66776574 4.4000001
4.6290307 -0.20530105 0.59071618 5
4.9602895 -0.17894843 0.55034912 7.2636366
5.453197 -0.15413162 0.60399002 8
-3.7936378 0.16068971 0.70755404 15
-3.0994594 0.060111731 0.5647794 15
-1.7268654 0.1689283 0.62200367 9
-1.3170104 0.18376011 0.49240828 15
-1.1593282 0.21198273 0.52368832 13
1.466928 0.15014017 0.54295546 14.15
1.74051 0.18917219 0.564053 13.897618
2.1713603 0.18147308 0.58727843 11.617646
3.065027 0.19301029 0.597036 12.25
5.0257921 0.24216299 0.58010966 13.601897
5.4208999 0.21542986 0.56021404 10.70671
-1.728726 0.53874028 0.62389183 11.785714
-1.2130688 0.52460742 0.55355215 14.25
1.6527319 0.49558961 0.41136742 15
2.1939292 0.51983678 0.59247267 13.685715
3.0408204 0.46304673 0.48194671 14.5
5.4172029 0.58199394 0.59259003 13.755556
-1.7264228 0.91485733 0.62074846 13.683333
2.0593863 1.0550053 0.53727019 13.5
5.4561434 0.86411899 0.50489378 14.5
5.7823076 0.93100393 0.73274446 14.6685
-1.796218 1.2943007 0.6422506 14.666667
2.0192242 1.5104842 0.58647335 15
-7.7425985 -1.6262114 1.0265709 6.75
-7.4654393 -1.6274875 1.0919129 5.7539678
-6.9696178 -1.6195283 0.97613591 4.25
-6.7286654 -1.6155477 1.0178485 5.5
-7.6726837 -1.3785553 0.93731642 10.73088
-7.5362825 -1.370301 1.0314456 8.8349209
-6.7607722 -1.5401011 1.0139818 6
-6.3989983 -1.4999311 0.92675233 6
-5.7246423 -1.3601041 1.0431399 8.656929
-5.3113122 -1.3867168 1.0502098 8.1675444
-5.0477109 -1.3214486 0.92535967 9.2259207
-4.6247869 -1.4498614 0.91718918 5.0595236
-4.285738 -1.4538295 0.88571703 4.166667
-3.7276409 -1.4244258 0.98341268 4.9523807
-3.3781948 -1.4188631 0.98431158 4.1666665
-3.0929079 -1.375809 0.95224333 4.5
-2.6130924 -1.3719044 1.0395293 5
-2.1172764 -1.308566 0.96586114 5.6666665
-1.7019606 -1.2651308 1.0661031 5.1142855
-1.4250096 -1.2442051 0.98736066 5.5999999
-0.94643718 -1.2258615 1.0105941 5.25
-0.6199106 -1.2163485 1.0311148 4.6666665
-7.7496872 -1.0325534 0.9963367 13.670635
-7.5541134 -1.0628128 0.98139769 10.446429
-5.7303419 -1.0943147 1.0703218 13.325827
-5.454566 -0.94510251 1.0723016 12.023809
-5.0416789 -1.0560679 0.9725638 12.472767
-4.6495833 -1.0324708 0.8560791 12.046768
-4.1654291 -1.1488775 0.80383837 9.5
-3.6609883 -0.9455803 1.1109413 6
-3.4389338 -0.94182259 1.0979944 6
-2.8303037 -0.82329541 1.1126704 6
-2.556231 -0.87542093 1.0974641 5
-2.0409789 -0.83900869 1.019254 4
-1.6336526 -1.0122688 0.98052746 11.099823
-1.3923814 -0.98362994 0.90378904 9.8998947
-1.0130757 -0.97566444 1.0129377 8.5607138
-0.61185992 -1.1403931 1.0472047 6.5
-0.083530188 -1.1277534 0.82810867 6
0.32531452 -1.1224613 1.071445 6
0.68553209 -0.99860924 1.1016051 7.4000001
0.82273221 -1.0619884 1.1009163 6.666667
1.7731416 -0.93323624 0.99337685 7.125
3.494576 -0.89206773 0.86151147 9
3.799952 -0.89738631 0.85865474 9.5
-8.0031118 -0.66511524 0.86088979 14.5
-7.6142616 -0.61508417 0.96281534 14.291667
-7.5792885 -0.66553903 1.0633434 14
-5.6259575 -0.66119331 1.0784461 11.71111
-5.4303722 -0.6224128 1.1203718 12.25
-4.902524 -0.67886257 1.0212996 9.2775002
-4.7227035 -0.61118287 1.0068783 12.333333
-4.2651567 -0.77943563 0.82410598 10.25
-2.9047124 -0.57993042 0.86582315 9
-1.8654826 -0.78301597 1.0242447 5
-1.3820114 -0.61428612 0.95137316 12.598774
-0.99081707 -0.59409487 1.0179478 9.3717327
-0.67361784 -0.77505052 0.93552744 6
-0.38524652 -0.73312914 0.95675164 5
0.3243373 -0.69886041 0.90002191 4
0.69987583 -0.63259506 1.1295677 11.104167
0.9110086 -0.56607592 1.1547438 8.125
1.2538521 -0.67193109 0.98020935 5
1.8149078 -0.65586251 1.0271279 8.7587805
2.1878679 -0.56179208 0.98629504 6.8611112
3.4557424 -0.50125241 0.88237643 12.285714
3.7303109 -0.48857796 0.90691519 8.25
-5.2388439 -0.20523152 1.1114116 11
-5.0080986 -0.17149879 1.0711498 13.2775
-4.7415318 -0.12162474 0.96851355 11.8
-4.2607837 -0.14021239 0.82503921 12
-2.9957135 -0.17942683 0.85730749 12.428571
-1.7915413 -0.10260958 1.1080174 6.75
-1.3330448 -0.21098031 1.0116018 13.69697
-1.0089839 -0.1988474 0.98923099 12.405882
-0.62810153 -0.1232126 1.1240489 4.6666665
-0.19613555 -0.12446262 1.0127958 4
0.24449496 -0.12454318 1.0058125 4
0.69919652 -0.21513315 1.0972449 8.5555553
0.94149691 -0.23645817 1.1158495 11.181818
1.4022293 -0.1257844 0.96485806 5
1.7755836 -0.2282676 1.0117319 11.776507
2.2104995 -0.22412272 1.0580401 8.5238094
2.6532722 -0.22788349 0.92856812 9.392395
2.8870587 -0.14348763 1.0776647 8.4375
3.4169455 -0.12070629 0.99396956 10.569445
3.8342345 -0.32932273 1.0697147 7.8333335
4.1986399 -0.28431439 1.073089 4.4000001
4.6628695 -0.22582021 0.98331249 4.5999999
5.0420408 -0.18358535 0.94771028 7.3737369
5.4168439 -0.088744149 0.97460264 7
5.6762133 -0.048612297 1.1354223 9
-5.2345304 0.21029717 1.1430013 13.5
-4.7921252 0.24682534 1.0136859 14.2
-4.2655783 0.19219142 0.85157555 14.5
-3.0132313 0.11760324 0.89514953 14.666667
-1.7505594 0.20214109 0.99957132 9.333333
-1.3509314 0.1218984 1.0565212 14.666667
-1.0227863 0.21282141 1.0690376 14.666667
1.8467643 0.13948864 0.99286968 13.819048
2.2088175 0.12045398 1.0679249 12.472222
2.6616466 0.0016831756 1.0675662 15
2.9023027 0.15044485 1.0838491 12.818181
3.2401829 0.26708969 1.1412431 13.5
5.0777211 0.25228807 0.96119118 13.285293
5.4201212 0.15877411 0.97803831 9.4285717
5.6635466 0.35546479 1.1187264 12
-5.2309623 0.464472 1.1622262 15
-1.750832 0.54994661 1.0114355 12.066667
-0.97279251 0.40425709 1.1898808 15
1.8356968 0.45341554 0.93068552 14.555556
2.1528454 0.47882053 1.0738767 14.5
5.4216475 0.53677404 0.99333668 13
5.6541262 0.71572816 1.1093205 14.6
-1.7506849 0.95445865 0.98426777 13.15
5.4862781 0.84165341 0.87600088 14.666667
-1.7524639 1.2504854 0.95929646 14.75
-8.0723095 -1.7820184 1.5076346 7
-7.7118974 -1.6764929 1.5024629 7
-7.4611354 -1.6555946 1.3541911 6.1178575
-6.9665556 -1.6587055 1.3932598 4.625
-6.6641121 -1.6491712 1.4374567 4.6666665
-6.3532257 -1.6000826 1.2044259 4
-5.7524586 -1.616897 1.4520366 5.5
-4.9883194 -1.6163501 1.5509248 6
-8.0639114 -1.4822829 1.4500878 8.5
-7.6651125 -1.3719072 1.4072306 10.375
-7.4651952 -1.3580043 1.3390882 9.6076908
-6.1121774 -1.3509421 1.3243492 9.1999998
-5.7638636 -1.3754591 1.2997911 8.2066669
-5.4817209 -1.4261533 1.4828342 6.5
-5.0437341 -1.5817032 1.2361735 6
-4.6327929 -1.5348413 1.3498075 4.7142859
-4.1759176 -1.5000919 1.3489059 4.75
-3.6605549 -1.455462 1.4033964 5
-3.4306622 -1.4575305 1.3116188 5.6666665
-3.0412781 -1.4326252 1.4188524 5.3333335
-2.2534602 -1.3876576 1.4199034 4.8333335
-1.8433136 -1.3541443 1.4506363 5
-1.50897 -1.2790139 1.3897843 5.8461537
-1.0602047 -1.2623301 1.444595 6.4333329
-0.6973896 -1.2756478 1.3950071 6.4000001
-8.091198 -1.0707922 1.5005705 11
-7.6561408 -1.0656569 1.3851578 14.041667
-7.4994917 -0.93975812 1.3433058 13.414286
-6.1366591 -1.0120586 1.3644873 12.166667
-5.7618608 -0.96173978 1.3412547 12.640637
-5.456986 -1.105204 1.4971583 9.166666
-3.4198635 -0.9538939 1.4989293 6
-3.1041577 -0.93158352 1.2609626 6
-2.6659267 -0.89004821 1.4072574 6
-2.2586975 -0.88403928 1.4027154 5.5
-1.8734379 -0.85966545 1.4280291 5.1666665
-1.5174749 -0.9968555 1.414223 9.9165764
-1.0589737 -0.97659743 1.3474963 8.2290287
-0.75627851 -0.9520216 1.4968022 8.166667
-0.28109682 -1.1957068 1.344521 6
