# .PCD v0.7 - Point Cloud Data file format
VERSION 0.7
FIELDS x y z intensity
SIZE 4 4 4 4
TYPE F F F F
COUNT 1 1 1 1
WIDTH 1154
HEIGHT 1
VIEWPOINT 0 0 0 1 0 0 0
POINTS 1154
DATA ascii
-1.8261625 -0.57841617 -1.8012191 8.2820253
-1.3801538 -0.56904948 -1.8145243 6.0952377
-0.97055918 -0.56006652 -1.8783106 6
-0.57735306 -0.53572595 -1.8454554 6
-0.19649029 -0.52284312 -1.7288263 6
0.14102955 -0.51788712 -1.6662054 6
0.76197475 -0.43930283 -1.8504937 8.875
1.0424575 -0.60151863 -1.800391 8.419178
1.4037774 -0.56416219 -1.8332157 7.8756933
1.9654907 -0.42062715 -1.8820245 6.666667
2.1561377 -0.43499047 -1.8125554 6.6141286
2.5324509 -0.56351769 -1.7930046 8.3262253
2.9839172 -0.44465145 -1.7526938 5.4920635
3.4311094 -0.45814431 -1.7264915 4.3425922
3.7917273 -0.53401989 -1.728866 8.1919518
4.1542487 -0.51790202 -1.7761965 6.5032897
4.7274389 -0.6212942 -1.7966444 6.8571429
4.9451876 -0.58556473 -1.7565532 8.1940737
-8.5951424 -0.19621967 -1.8086085 13.896969
-6.5783806 -0.30859154 -1.8453671 14.75
-6.2449026 -0.389256 -1.6803006 14
-5.7920761 -0.33745176 -1.6736137 13.993038
-5.3856573 -0.34593269 -1.7896734 14.502034
-5.0190649 -0.35484925 -1.8951315 14.7614
-4.5377727 -0.18569158 -1.7934259 14.803493
-3.8248374 -0.22278038 -1.7984476 12.072268
-2.5288751 -0.20791353 -1.7484003 13.850644
-2.1078081 -0.20268917 -1.8565843 13.457625
-1.8179145 -0.22166623 -1.7888871 10.690957
-1.3827395 -0.079921506 -1.8684206 6.6208324
-1.0130067 -0.073677726 -1.8364866 6.8141418
-0.64203322 -0.12818822 -1.8215392 6
0.71403223 -0.067279331 -1.7742149 8.6339502
0.98294479 -0.10558476 -1.7560318 10.71829
1.3985399 -0.15016577 -1.7888436 9.5528393
1.8212641 -0.14120454 -1.7504784 8.1527338
2.1980989 -0.1066476 -1.8611414 9.0723944
2.543819 -0.17798805 -1.7409936 7.7761874
3.0558498 -0.26193589 -1.7899696 6.7794275
3.4283328 -0.24173944 -1.883148 7.4302192
3.7329473 -0.20839873 -1.7793552 8.6560183
4.2180939 -0.25014585 -1.6938537 7.1777778
4.6125741 -0.20267388 -1.7822019 8.1870508
4.9247565 -0.17730199 -1.7795944 8.855484
5.3693547 -0.11062312 -1.8164651 7
-8.6476784 0.15281337 -1.8153943 14.90625
-4.0177002 0.28870052 -1.9959437 14.6
-3.8411286 0.15849154 -1.7952681 12.22
-2.5302241 0.075918913 -1.9533507 14.566667
-2.0574234 0.14491664 -1.9037099 14.273808
-1.7891181 0.18432499 -1.7629302 12.006246
-1.4086049 0.20152114 -1.8718135 9.6221743
-0.98613453 0.19899 -1.8441817 9.0917759
0.67620146 0.23560895 -1.7852917 11.052618
0.96416569 0.21183059 -1.7070769 10.532241
1.3698275 0.26666713 -1.8020087 12.588853
1.9525253 0.13574654 -1.8622131 14.258441
2.1926315 0.25663731 -1.8585266 11.523154
2.5339272 0.14606196 -1.8063743 10.671144
3.0793521 0.18811686 -1.7848784 11.94014
3.4874854 0.27386823 -1.9219267 13.040076
3.6358135 0.34295005 -1.9619887 13
4.3454652 0.24675715 -1.7855288 14.048238
4.6222844 0.21993576 -1.8229249 12.25544
4.90588 0.095501915 -1.7957395 10.199051
5.3917274 0.16168074 -1.797181 8.6798325
-3.8423374 0.57517415 -1.7936864 13.605556
-1.7971053 0.58642489 -1.7677219 14.202051
-1.4133668 0.56977534 -1.8724957 13.26532
-0.9932574 0.58130252 -1.8313318 11.960909
0.66949445 0.54653341 -1.7868654 13.659732
0.95994496 0.56859952 -1.7115639 13.183162
1.3486533 0.61046726 -1.7752243 14.626293
2.209651 0.5976423 -1.8805077 13.60112
2.6004469 0.47332916 -1.8653934 13.581806
2.9383817 0.57178485 -1.8852265 12.435714
3.6492128 0.44043928 -1.9114747 14
4.6667476 0.53163505 -1.8571779 14.402635
4.90768 0.50665808 -1.7938207 13.415077
5.3938074 0.54957175 -1.8096457 11.005358
-3.925004 0.90205276 -1.8120551 14.677084
-1.6936488 0.91629213 -1.7396333 14.543478
-1.4840963 0.90742183 -1.7831128 14.634615
-0.97881043 0.97200388 -1.8011833 13.67107
1.3460927 0.82992053 -1.9279511 15
2.1322424 0.95251632 -1.7909487 14.474357
2.7410607 0.84719068 -1.7767818 14.5
3.0202832 0.93495208 -1.8889067 14.428572
4.6905951 0.85269243 -1.8192985 14.785714
5.0589099 0.86661088 -1.802173 14.525597
5.3990922 0.99089825 -1.7822685 13.654762
-1.016492 1.3665466 -1.7589554 14.719642
2.0260746 1.2245368 -1.9400303 15
5.4232106 1.2726947 -1.8121425 14.918056
-8.4101667 -1.2421062 -1.4431005 7
-8.1933708 -1.3700267 -1.3866262 6.5574703
-7.7301712 -1.4258312 -1.4148016 4.75
-7.3217926 -1.3779582 -1.3815823 5.181818
-6.9658279 -1.3514943 -1.3772291 5.0823531
-6.651895 -1.3254765 -1.3970528 4.7986112
-6.2848668 -1.2465814 -1.397761 6.0221753
-5.8226595 -1.2655036 -1.3791502 3
-3.5247216 -1.2053493 -1.2164087 6
-8.4341431 -1.0040804 -1.4509176 8.9072924
-8.2497616 -1.0438244 -1.381665 11.077646
-6.5074706 -1.0796781 -1.4896377 6.8277779
-6.286902 -0.99592334 -1.3877847 10.479278
-5.7354617 -1.1164758 -1.5049378 3
-5.5854778 -1.1025286 -1.3461099 3
-4.971693 -0.94413698 -1.5305779 3
-4.298614 -0.97447181 -1.4124128 8.666667
-3.3498001 -1.1384788 -1.3188921 5.7857141
-3.0043726 -1.1181686 -1.4075636 6
-2.5486665 -1.0606891 -1.4314712 5.9333329
-2.1855016 -0.99769878 -1.3623706 6.6517339
-1.8362335 -1.0170656 -1.3784689 6.8640876
-1.4125073 -1.0377035 -1.3934095 4.541667
-1.0343109 -1.0071744 -1.4157711 4.8235292
-0.62000442 -0.97405565 -1.398412 5.2666669
-0.17043869 -0.94934493 -1.3762163 4.9523811
0.19954363 -0.91761559 -1.4053043 4.8249998
0.531416 -0.89225084 -1.4279116 5.3125
1.0540012 -0.81760126 -1.4274498 6.6027775
1.3812287 -0.83784688 -1.3056879 6.875
2.6489749 -0.92300749 -1.4072773 6.656642
2.8391926 -0.99273908 -1.234863 7
3.5557194 -0.87906832 -1.4281176 6.0750003
3.6770039 -0.85793644 -1.5483474 7
4.7640042 -0.85558301 -1.2817013 6
4.9597869 -0.83781558 -1.2888242 6.4444442
-8.4554625 -0.59204912 -1.4067488 11.804197
-8.3095102 -0.65618032 -1.3916662 13.363623
-6.428762 -0.61620492 -1.4609841 12.828231
-6.3047028 -0.72079939 -1.4499804 12.490907
-4.4162245 -0.48035926 -1.5508299 13
-4.3447485 -0.4873876 -1.3810545 13.252823
-3.6675825 -0.58541983 -1.4108595 9.3198805
-3.4552412 -0.70813137 -1.3671107 6.3839417
-2.9802902 -0.76522344 -1.4083489 4.628788
-2.5433102 -0.67714804 -1.3984003 7.941843
-2.1474931 -0.6881063 -1.4023913 10.692929
-1.7700725 -0.60951072 -1.4022688 9.1021938
-1.5673163 -0.62067211 -1.2670562 7.9282613
-0.99559826 -0.54612184 -1.5128629 6
-0.55697644 -0.53749353 -1.4846509 6
-0.13685223 -0.53884053 -1.3849384 6
0.23718302 -0.52564633 -1.4544266 6
0.54832375 -0.51588696 -1.3787551 6
1.0902094 -0.5785163 -1.4516733 8.7316351
1.4681534 -0.54909348 -1.4104041 8.0558949
1.644979 -0.51155084 -1.2622347 7.5
2.2021954 -0.4152143 -1.3932498 6.2200279
2.6531687 -0.51315743 -1.3703356 8.1524801
3.0450659 -0.43251517 -1.4042693 5.5645161
3.4679708 -0.47071913 -1.4094381 6.9890833
3.8180418 -0.46394312 -1.3946998 6.7874455
4.2668133 -0.44666556 -1.4182714 5.8125
4.7341437 -0.78770828 -1.4717896 6
5.0409136 -0.54800272 -1.4298639 8.4066668
5.2590222 -0.63415426 -1.2664804 7.9071426
-8.4946413 -0.2087003 -1.3898495 14.071736
-8.3268614 -0.29511228 -1.3811375 15
-6.4565854 -0.26551273 -1.4398358 14.055555
-6.2181649 -0.31855837 -1.5404215 13.609038
-4.4316421 -0.25481218 -1.5017866 15
-4.3508081 -0.2813127 -1.3780035 15
-3.710238 -0.24835272 -1.4273762 12.207575
-3.5724859 -0.26216108 -1.2887896 13.375
-2.4598413 -0.347958 -1.4363508 13.848485
-2.179518 -0.22081448 -1.3998761 13.670064
-1.7330178 -0.18846165 -1.3837612 10.598195
-1.4565446 -0.16165701 -1.3995934 8.1283951
-1.0625032 -0.090118103 -1.5149962 6.8000002
-0.55380189 -0.12355635 -1.2743751 5
-0.32951149 -0.12357474 -1.338825 5
0.26207662 -0.1227571 -1.3987924 6
0.67040384 -0.093093187 -1.3816613 6.1999998
1.0367771 -0.130577 -1.4618201 11.479477
1.4799205 -0.14490528 -1.4114996 10.183405
1.7715144 -0.1321926 -1.3585736 6.9770112
2.250946 -0.17874146 -1.4406716 8.5353336
2.5455244 -0.21549289 -1.4221781 7.5413489
2.9760718 -0.3143096 -1.3869754 6.4642739
3.37515 -0.31831032 -1.3838111 6.6545696
3.7123671 -0.29897407 -1.4260907 7.0859241
4.1271377 -0.31607175 -1.3396099 6
4.6361756 -0.19716525 -1.3956614 7.8493695
4.9363995 -0.17014629 -1.3817315 8.027072
5.3807569 -0.12393858 -1.3587515 7.8714285
-8.5222483 0.17807627 -1.4000438 14.944444
-3.7307515 0.14991336 -1.4348719 12.488242
-2.0348454 0.0079380274 -1.5459775 14.6
-1.7259837 0.19939347 -1.3828366 11.984297
-1.4268655 0.18172535 -1.4623394 9.2958336
-1.1074396 0.20500001 -1.5216761 8.5745096
0.65017456 0.23095521 -1.4849722 9.0078411
0.96587396 0.20872466 -1.4478421 11.648234
1.4748887 0.28810129 -1.3884711 13.200423
1.6115072 0.24312036 -1.2851483 12.585
2.2217693 0.22636934 -1.4465491 12.30759
2.5546112 0.20873107 -1.4154495 12.011749
3.0073872 0.13070586 -1.3953277 11.539295
3.4527841 0.14698859 -1.4051249 14.5799
4.3854761 0.20640719 -1.5697031 14.0615
4.6382704 0.27118391 -1.454168 13.188491
4.9234371 0.15407702 -1.3680346 11.042143
5.3709536 0.18399648 -1.3985221 9.1378355
-3.7482002 0.56567496 -1.4146374 14.140531
-1.7215093 0.53907168 -1.3746578 13.699988
-1.411991 0.58647734 -1.4847751 10.810938
-1.1025388 0.58953434 -1.5237622 10.722222
0.66270286 0.59278065 -1.4852121 11.619898
0.92889154 0.62478572 -1.4464698 12.782207
1.4575125 0.5507111 -1.4384222 14.697952
1.6188626 0.44031897 -1.2870913 15
2.162854 0.60767424 -1.39101 12.875559
2.67011 0.46978864 -1.4678829 13.846335
2.9183772 0.57760412 -1.4183393 13.185064
4.7583585 0.4109177 -1.5276748 13.581907
4.9495869 0.4975498 -1.4221982 13.644956
5.3856497 0.57528883 -1.4199263 11.439642
-3.8375082 0.85890824 -1.3930308 14.666667
-1.7397326 0.97562242 -1.3901896 13.426515
-1.4018315 1.0024086 -1.4914724 12.90008
-1.0866399 1.000369 -1.5244682 12.887222
1.036451 0.93995243 -1.4201676 15
1.3597106 1.0643337 -1.2730572 14.75
2.1604135 0.911313 -1.3829656 14.748486
2.7812061 0.8229925 -1.4691968 15
3.0497255 0.87458158 -1.4426936 14.583333
4.7914705 0.82098067 -1.4529746 14.585714
5.0590425 0.86807889 -1.4302702 14.688542
5.3897991 0.98506021 -1.3890257 14.012302
-1.7506367 1.3509701 -1.3795109 14.632238
-1.4000314 1.3592172 -1.4875672 14.720098
-1.1151438 1.333396 -1.5243574 14.764706
5.466764 1.2465121 -1.4544734 15
-1.797079 1.6323469 -1.3426203 15
-8.1390581 -1.3435689 -1.0087075 7.7007799
-7.8885365 -1.4469423 -0.92049992 5.6120911
-7.4212132 -1.4041023 -0.98957556 4.8947368
-7.0137534 -1.381892 -0.99859881 4.7142859
-6.5882716 -1.3510478 -1.0125762 4.5256405
-6.1992059 -1.2792916 -1.0048261 5.9973407
-4.1058903 -1.2133685 -0.92327881 6.8333335
-3.7783787 -1.2385304 -1.0208938 6
-3.5805612 -1.2340648 -0.93653357 6
-3.0404515 -1.3096193 -1.098809 3
-2.5743687 -1.2374822 -0.94108456 3.2222223
-8.1805172 -1.0383894 -1.0113543 11.713387
-6.6399131 -1.1853781 -1.161064 3
-6.1872568 -1.0126935 -1.0177052 11.356654
-5.2630982 -1.137018 -1.0062823 3
-5.0088243 -1.12892 -0.89529037 3
-4.1628165 -1.0313731 -1.0235133 8.5259972
-3.8411193 -1.1399878 -1.0042876 5.6190481
-3.4102921 -1.1378524 -1.0419081 5.9230771
-2.9763277 -1.0233098 -0.98849851 4.7142859
-2.6130018 -1.1194234 -0.98069674 5.181818
-2.1993546 -1.012619 -1.0000606 7.038475
-1.8452386 -0.95971757 -0.97675407 8.1685104
-1.4646403 -1.0534884 -0.98145968 5.1571426
-1.0039874 -1.0324769 -1.0102842 5.1333332
-0.66106838 -1.0074908 -1.0535102 5.1538463
-0.19140448 -0.98714906 -0.97833121 4.875
0.19558293 -0.95392203 -0.9953478 5.090909
0.52146387 -0.91741067 -1.0497202 5.2727275
1.096464 -0.88581157 -1.0094247 6.3266668
1.3090912 -0.83092582 -0.98687321 6.8077388
2.6823516 -0.93092597 -1.0382932 6.8922472
2.878897 -0.92414027 -1.0153438 7.2777777
3.6105256 -0.9519912 -1.0744878 5
5.1375909 -0.8097496 -1.0955571 7
5.5080929 -0.84065384 -0.88653302 7
-8.4243813 -0.56103361 -1.1473533 11.25
-8.2820158 -0.62851357 -0.98323345 12.771286
-6.2873011 -0.73361969 -1.0313756 14.119169
-4.2154732 -0.55398005 -0.9953565 13.695094
-3.6230874 -0.56899744 -1.064841 9.194478
-3.5203724 -0.62344104 -0.96510613 8.8028698
-2.960089 -0.78341442 -1.0206249 4.6583333
-2.5902095 -0.75605989 -0.99809611 4.7941175
-2.2148128 -0.68866986 -0.98377812 10.264744
-1.7712142 -0.60816085 -1.0041 10.05498
-1.514155 -0.55027103 -0.94446701 8.3202248
-1.0094397 -0.62960136 -0.99179947 5
-0.61331534 -0.60905129 -0.91065228 5
-0.33454081 -0.59961271 -0.84893358 5
0.22713244 -0.55624127 -1.0300933 6
0.62355417 -0.54069835 -1.0532476 6
1.0761271 -0.5411616 -1.0226614 8.3719959
1.4082335 -0.55426663 -1.0526229 8.6899652
1.6604509 -0.57439184 -1.0169896 7.8493757
2.2383125 -0.40863732 -1.0574077 5.961905
2.6415517 -0.51561922 -0.98648649 8.1386986
2.9593997 -0.51326406 -0.97897536 7.2764406
3.4884894 -0.44253433 -0.91828007 4.0972223
3.7971313 -0.46142772 -0.9370054 4.2199998
4.2150674 -0.41195956 -0.9857462 5.3499999
4.431325 -0.41647977 -1.062096 6
5.1070919 -0.54216695 -1.0746716 8.6629629
5.3279366 -0.57171303 -0.96453679 8.5648155
-8.4360237 -0.19095001 -1.0824662 13.7
-8.3509331 -0.22593176 -0.99826604 13.951693
-3.6468322 -0.23729406 -1.0601823 13.860559
-3.5440607 -0.27437535 -0.97554713 12.732315
-2.134954 -0.2863203 -0.9830454 13.738492
-1.7679534 -0.17339247 -1.0206395 10.889758
-1.5204774 -0.19045158 -0.95789349 10.915797
-0.95967436 -0.1235568 -0.96716034 5
-0.62093449 -0.1249516 -1.0013772 4.416667
-0.30777672 -0.12586886 -0.94050628 3.3076923
0.33060148 -0.11894476 -1.1185015 6
0.63981301 -0.121634 -0.97755051 4.853334
1.0484589 -0.13702171 -1.0077363 10.0544
1.4465386 -0.12630318 -1.0651681 11.245931
1.6737343 -0.15572315 -0.98723948 9.8807735
2.2595432 -0.17642151 -1.050598 8.6890488
2.5371385 -0.18648504 -1.0867406 7.7766352
3.0352778 -0.21962097 -0.88899803 7.1458769
3.430927 -0.22769612 -0.93569738 7.0717092
3.7410476 -0.24547808 -1.0019917 6.2842107
4.1805305 -0.29378691 -1.0166923 5.8421054
4.6259794 -0.23256059 -1.0311426 7.7081809
4.9349499 -0.19222245 -0.99954879 7.0925207
5.3255501 -0.14099762 -1.0041323 9.9045744
-8.4314642 0.15916777 -1.0453274 14.857142
-8.3620892 0.16043934 -0.90581912 15
-3.6331322 0.10259547 -1.0465629 11.973333
-3.5576048 0.14798911 -0.95346683 13.229682
-1.7173617 0.19220489 -1.0062975 11.462696
-1.5473199 0.19981344 -0.94760871 13.826387
1.0255204 0.21791172 -0.98503953 14.057982
1.5191077 0.26778468 -1.0449035 13.750495
1.6504791 0.21874546 -0.9805752 12.901956
2.2437966 0.19617125 -1.0368378 12.269417
2.5773206 0.21164137 -1.0106076 12.947903
2.9270535 0.13233912 -0.98984891 9.7142859
3.4715242 0.088816583 -1.1656786 15
4.6614065 0.24399613 -1.0498334 13.687238
4.91394 0.18840961 -1.0055621 11.589324
5.3440924 0.20404184 -0.9912293 11.065476
-3.6666064 0.5519191 -1.0692407 14.357142
-3.5642498 0.426691 -0.98175544 14.162857
-1.7353003 0.54770666 -1.0203906 12.858602
-1.5494347 0.42295787 -0.94925642 14.583334
1.0558399 0.62203509 -0.9940927 14.694446
1.4857751 0.56958669 -1.0484576 14.176191
1.6609066 0.53308553 -1.0023886 13.945946
2.1723206 0.59143996 -0.99595481 13.164202
2.7503633 0.48007762 -1.056211 14.029762
2.9434917 0.57232213 -1.0010222 13.475155
5.0314937 0.50954908 -1.026382 13.874457
5.3726163 0.58935702 -0.99980903 12.02192
-1.7767793 0.9656347 -0.98913008 13.565627
1.1775708 0.88396472 -0.97003675 15
1.455436 1.0173501 -0.99385095 14.727273
1.6751816 1.0505188 -0.92374241 14.1
2.1650751 0.88946062 -1.0012355 14.90476
3.0359631 0.847987 -1.0877731 14.9
5.0345545 0.82683289 -1.0516796 14.72963
5.403276 0.97142518 -1.0069801 14.361826
-1.8260068 1.378121 -0.98640025 14.67451
1.5667269 1.2936954 -1.1153128 15
1.6705216 1.3523729 -0.9060297 15
5.4141741 1.2024627 -1.1153054 15
-1.94907 1.6176609 -1.0256636 15
-8.0805283 -1.334538 -0.61961973 8.439539
-7.9022231 -1.4057999 -0.57045335 6.8046598
-7.3882103 -1.4522265 -0.60008436 5.1458335
-6.9905362 -1.4189081 -0.56687564 5.1176472
-6.5956435 -1.399014 -0.57259077 4.9473686
-6.1465969 -1.3174858 -0.5999046 5.7293181
-5.9271383 -1.2508558 -0.54841703 4.7735391
-5.4705896 -1.2963998 -0.40269405 3
-4.039825 -1.2348987 -0.68868387 6.6785712
-3.9142261 -1.2546599 -0.53630853 6.5666666
-2.9318399 -1.2290901 -0.48744383 5
-2.7034752 -1.2222018 -0.61258984 4.3333335
-2.2477746 -1.2317618 -0.62763238 3
-8.1295033 -0.983316 -0.61740851 11.202246
-7.9602051 -1.057742 -0.55549777 12.274207
-6.0967031 -1.0264375 -0.60440195 11.965676
-5.883039 -1.0029731 -0.55217409 8.583333
-4.0702128 -0.98970169 -0.67732364 9.6201534
-3.9020948 -0.99332446 -0.56254882 7.430769
-3.3395634 -0.80881172 -0.62815028 6.2777772
-3.0165119 -0.88384074 -0.57774436 4.8645835
-2.616586 -1.0436631 -0.60380042 5.1266661
-2.1145883 -0.99363828 -0.57930517 7.8450208
-1.7356901 -0.95416468 -0.60232413 8.4473763
-1.4119951 -1.0302881 -0.59410381 6.6022954
-1.0106308 -1.0689985 -0.61621308 5
-0.60948771 -1.0439953 -0.62489349 5
-0.17004639 -1.0166013 -0.59972119 4.7870374
0.21162468 -0.98128337 -0.61932868 5
0.58672786 -0.94649202 -0.62067562 5.5833335
0.99980503 -0.93793827 -0.54472774 6.1666665
1.403488 -0.85245055 -0.60707283 6.8125348
2.7833214 -0.88060582 -0.66480726 6.5
2.9940979 -0.91201198 -0.58672261 8.2708998
4.1106071 -1.0066316 -0.52428639 6
5.5399337 -0.81081408 -0.74306202 7
-8.1787395 -0.61799943 -0.58814114 12.690639
-6.1014957 -0.74544472 -0.58452475 14.547955
-5.9904089 -0.7239579 -0.46304297 15
-4.0946317 -0.64100432 -0.64284056 13.964869
-3.9596434 -0.64757037 -0.49346867 13.444445
-3.4336901 -0.61906606 -0.61445731 9.0973845
-2.8749709 -0.78988743 -0.68367922 4.666667
-2.5648904 -0.77079076 -0.64850402 4.8888888
-2.1813247 -0.65544844 -0.60576373 9.8980665
-1.7477181 -0.59048921 -0.60886002 10.50071
-1.4492998 -0.56982672 -0.6075936 8.8307076
-0.99103385 -0.63622439 -0.55654931 4.4666667
-0.60654551 -0.62933904 -0.55530208 4.4285712
-0.18068983 -0.60537744 -0.60693204 5
0.23297074 -0.59206575 -0.51594001 5.1999998
0.7181285 -0.56220734 -0.63844329 6
1.105635 -0.5518114 -0.61022139 7.9210525
1.3855437 -0.57617313 -0.60660088 8.7172794
1.7628595 -0.57470155 -0.63750118 8.032258
2.2483919 -0.42654657 -0.60660833 5.9047623
2.7023408 -0.47459829 -0.62458789 6.1212544
2.9604094 -0.48894766 -0.54829258 6.9768004
3.3576262 -0.42234296 -0.54202104 4.6217947
3.7409883 -0.43574828 -0.58213753 4.5095677
4.174367 -0.41667229 -0.56895071 5
5.4696774 -0.51582259 -0.60707444 8.59375
5.632359 -0.61468637 -0.48614937 8.5599995
-8.2531214 -0.20918289 -0.56500661 13.933333
-3.4634988 -0.27137798 -0.61787856 13.361094
-2.0348177 -0.19483924 -0.65750861 15
-1.7375937 -0.1315589 -0.60413784 10.031075
-1.4380255 -0.19059634 -0.60262167 11.466973
-0.94244975 -0.12599821 -0.55722088 3.9375
-0.63570213 -0.12920217 -0.66056919 3.8421052
-0.099142775 -0.11598199 -0.40563524 3
0.2820054 -0.12566367 -0.56915629 5
0.64918846 -0.12309613 -0.6316191 4.5591397
1.0338556 -0.1319173 -0.58189178 7.8569808
1.3596997 -0.17477226 -0.59645623 10.3873
1.7571549 -0.13310592 -0.62474084 10.665402
2.2971416 -0.18763788 -0.64478803 8.8214359
2.5739045 -0.18714707 -0.67182183 7.7777376
3.0443525 -0.24575843 -0.5357064 5.671989
3.4217606 -0.29083088 -0.51006764 4.9223247
3.8837242 -0.25535253 -0.59836328 4.864162
4.2661119 -0.26157504 -0.52208984 5.0431366
4.6861463 -0.20168637 -0.63076419 8.3192959
4.9200611 -0.18965237 -0.59535438 6.9218845
5.4016256 -0.14440428 -0.63258088 9.4258986
5.6233101 -0.29576105 -0.47174025 11.2
-8.2933598 0.13492346 -0.585675 14.969696
-3.472564 0.18370354 -0.61422652 13.623936
-1.7355701 0.18705715 -0.60066611 9.90697
-1.4708163 0.17805216 -0.61260641 14.239002
1.1051718 0.19496955 -0.59230238 14.298245
1.3667731 0.16166419 -0.58905107 13.562667
1.7307601 0.24518035 -0.62515581 13.709857
2.273813 0.18204062 -0.63063347 12.206435
2.5930848 0.16475396 -0.609842 13.268989
2.9238732 0.15238658 -0.58499527 10.985547
4.6856799 0.22076672 -0.63870907 14.280466
4.9289684 0.21025068 -0.60254478 12.395449
5.389792 0.2032627 -0.60972148 11.436187
-1.7394599 0.56134272 -0.59105635 12.596941
-1.5177857 0.42829958 -0.53744602 14.533333
1.1449689 0.54973131 -0.64543802 14.916667
1.3895783 0.57954764 -0.57240456 14.194445
1.7467172 0.55078578 -0.5783233 13.848148
2.1887758 0.58217454 -0.59314901 13.700631
2.7906499 0.49487993 -0.72609407 13.5
2.9543841 0.52270615 -0.6278885 13.849483
5.0889597 0.52880704 -0.63655227 13.998074
5.3718162 0.59816551 -0.60287017 12.860723
-1.7586433 0.96132022 -0.58680367 13.627952
1.4312147 0.93395448 -0.60046291 15
1.7799407 1.0163666 -0.53178674 13.971334
2.1612709 0.84613341 -0.65190113 15
5.1467381 0.83922064 -0.64716238 14.75
5.3930354 0.91470373 -0.62299484 14.432036
-1.8008559 1.3401296 -0.58940333 14.767858
1.7607411 1.3626047 -0.59271032 14.725778
-8.03442 -1.3236494 -0.24354799 8.7119226
-7.8773775 -1.3918811 -0.18091369 8.0688429
-7.417264 -1.5070924 -0.15433036 5
-7.0320725 -1.4603281 -0.21637025 4.9130435
-6.6142101 -1.4404893 -0.22726844 4.5454545
-6.1782336 -1.390506 -0.21430731 4.6137257
-5.9414315 -1.3023084 -0.14510866 6.3052354
-3.8629465 -1.2748575 -0.24341609 6.5240192
-3.3832457 -1.2854362 -0.15712428 4.8407407
-3.020035 -1.2526617 -0.23858067 4.8571429
-2.6340785 -1.2347203 -0.1800448 4.8499999
-2.2405741 -1.213148 -0.085841142 6
-1.8758228 -1.2131016 -0.024574533 3
-1.240485 -1.2139413 -0.11976671 7
-8.0645208 -0.93856132 -0.25736374 11.994625
-7.8990655 -1.0493543 -0.19396412 12.135437
-7.0394421 -1.0961573 -0.10385895 3
-6.0460768 -1.046847 -0.27488545 12.619424
-5.9406686 -1.0271467 -0.12118008 11.561501
-5.449048 -1.1740255 -0.045018077 3
-3.9153879 -1.0289153 -0.26851428 9.9002934
-3.2891195 -0.81460553 -0.18027957 6.3295994
-2.9637907 -0.83622628 -0.22870038 5.0500002
-2.5587034 -0.8664068 -0.22788654 4.8466663
-2.0874684 -0.99410832 -0.25273818 8.3008127
-1.7368864 -0.96820033 -0.1827866 8.6145258
-1.4590237 -0.98375189 -0.20997718 7.7521682
-1.0533998 -1.1166297 -0.16908839 5.4285712
-0.6097154 -1.0817662 -0.22665198 5
-0.1939341 -1.0556936 -0.19085425 4.6399999
0.23084606 -1.0216689 -0.22482213 5.2857141
0.60016412 -0.99615842 -0.18076056 5.8333335
0.97714305 -0.95761007 -0.17273001 6.2666669
1.4343847 -0.87914407 -0.2169117 6.8362198
1.6383773 -0.86919481 -0.15741946 7
3.0472567 -0.92359126 -0.20183721 8.0500002
3.2885597 -0.90986866 -0.14465058 8.625
4.1452332 -0.98577285 -0.30092275 6
5.8315439 -0.95835471 -0.20424402 7
-8.124259 -0.57249141 -0.25341088 13.327796
-7.9346895 -0.65944242 -0.20705871 13.48203
-6.008544 -0.75472844 -0.32776576 15.02975
-5.9292927 -0.72186857 -0.17199562 14.544625
-4.0055776 -0.72503114 -0.36182046 14.285714
-3.925596 -0.7225458 -0.20775931 14.48874
-3.3281682 -0.58505774 -0.20843494 9.4566669
-3.1907725 -0.53621864 -0.13491654 10
-2.596441 -0.75443637 -0.21699926 4.5714288
-2.094228 -0.70897973 -0.2507444 9.3224564
-1.7201325 -0.57134503 -0.20946325 11.680288
-1.3468885 -0.59136349 -0.1939763 9.3147125
-1.0815145 -0.61411393 -0.08612249 6.0357141
-0.61236411 -0.63463992 -0.35365209 4.0999999
-0.22331822 -0.63478559 -0.23895916 4.333333
0.16602109 -0.62039924 -0.17861302 4.7916665
0.59235114 -0.60966808 -0.16995946 5.375
1.0101516 -0.5758158 -0.18737039 6
1.441519 -0.59343964 -0.23007134 8.9227962
1.8087575 -0.53125256 -0.25833252 8.3608484
2.0674849 -0.60150146 -0.17759325 7.9375
2.7538066 -0.41491729 -0.3199122 5.8428574
2.9271796 -0.48190227 -0.20403385 7.1654224
3.2754953 -0.46038201 -0.1175321 5.3095241
3.7494781 -0.41929197 -0.23694704 4.3608694
4.1478686 -0.42893714 -0.19639631 4.9363637
4.5022035 -0.41030261 -0.046366304 5.5
5.5122399 -0.4811224 -0.19648528 8.25
5.6998525 -0.58208787 -0.22160794 8.4454556
-8.1739492 -0.23673834 -0.30598471 14.244475
-7.9748106 -0.34533545 -0.17250568 14.916667
-3.3474388 -0.24015208 -0.20300694 13.941092
-1.7034394 -0.10300467 -0.20953831 9.8729525
-1.352789 -0.20492026 -0.20878275 11.786145
-1.0139227 -0.14155641 -0.16092211 4.5073686
-0.61816633 -0.13289188 -0.13851832 4.4285712
-0.18617754 -0.12833908 -0.14104563 3
0.34578481 -0.12670526 -0.24037974 4.8333335
0.613603 -0.12373695 -0.20282905 4.7380953
0.99686128 -0.12249706 -0.17741956 4.8974357
1.4224371 -0.18429559 -0.21221884 10.52793
1.8251541 -0.16341734 -0.26614636 10.877399
2.2571461 -0.13725181 -0.22987944 8.7313557
2.596277 -0.19442366 -0.2380136 7.5618792
3.0059049 -0.27656406 -0.2404905 5.7594543
3.3939369 -0.29508021 -0.14367521 4.6431627
3.8050892 -0.32326317 -0.23498283 4.6627121
4.1970234 -0.28249106 -0.17126928 4.6382513
4.6671252 -0.21322222 -0.21318592 7.2966471
4.9309483 -0.18001221 -0.2031216 7.324779
5.4426351 -0.10495345 -0.22018355 8.2060604
5.7010317 -0.19556266 -0.14171439 10.877083
-8.2306337 0.07679081 -0.35568556 15
-3.3688064 0.1947667 -0.23990951 14.25926
-1.7229029 0.18379238 -0.19546491 10.026164
-1.3434995 0.11088432 -0.19673163 14.451671
1.1494949 0.1965216 -0.37200156 14.555556
1.4073195 0.14677219 -0.19466458 14.296875
1.8272651 0.19713664 -0.27525651 13.886421
2.2136748 0.19634782 -0.21448503 10.653401
2.6336713 0.096197709 -0.21431217 13.231902
2.9355719 0.17069627 -0.14971362 12.176586
4.7186384 0.18808861 -0.23361631 14.557528
4.951921 0.21301903 -0.20862538 12.963678
5.4314985 0.19870353 -0.2124337 10.326809
5.6676493 0.29953751 -0.15362175 14.185715
-1.7295886 0.54220122 -0.20230608 12.945409
-1.4103464 0.45249391 -0.1944526 14.395237
1.4104196 0.53294075 -0.26830661 14.458333
1.884962 0.56942344 -0.20167467 13.361905
2.1993294 0.54893887 -0.20922711 13.827443
2.9944639 0.47666666 -0.18624596 13.935845
5.1123457 0.47355017 -0.24653915 14.081416
5.4082079 0.60573041 -0.22336206 13.083564
5.6407909 0.52241677 -0.19581449 15
-1.7489349 0.95998949 -0.20003752 13.570293
1.493901 0.88699675 -0.35018393 15
1.8509599 1.0272545 -0.20437028 14.176471
5.4094086 0.90255684 -0.20293537 14.687619
-1.7866861 1.3224565 -0.18375166 14.754487
1.8655144 1.350871 -0.19723518 14.916667
-8.0363436 -1.4367435 0.19636726 8
-7.8297939 -1.3967284 0.19857654 8.7205782
-7.3849335 -1.5406073 0.17771631 4.876812
-6.9496818 -1.4974051 0.17291874 5.2941175
-6.5741005 -1.4534314 0.18977071 4.7391305
-6.2732353 -1.4405015 0.20958278 4.6315789
-5.8442836 -1.3373115 0.23798834 6.6313953
-5.4705133 -1.4003222 0.34700391 3
-5.0356011 -1.3840069 0.31531939 3
-4.1515541 -1.3629873 0.23039812 3
-3.7351398 -1.2964298 0.14481689 6.2308702
-3.3632696 -1.3068161 0.25582153 4.9963765
-3.0193796 -1.2964244 0.22367258 4.852469
-2.5982959 -1.2731607 0.18227792 5.0666666
-2.2371399 -1.2502524 0.25398049 4.9035087
-1.839901 -1.2223668 0.25681192 5.1333337
-1.5857706 -1.204133 0.24248144 5.333333
-8.0564451 -0.8751955 0.071810998 12.333333
-7.8471451 -1.0020356 0.20425729 13.290756
-5.896399 -1.0553049 0.18199848 12.185142
-3.7925415 -0.98407507 0.15812485 12.05584
-3.2679207 -0.88647532 0.23915412 7.6133037
-3.1022513 -0.86434805 0.26651761 6.8249998
-2.6541579 -0.837488 0.17259699 4.4645834
-2.2576821 -0.82710785 0.23815952 4.9777775
-1.8519255 -0.96179205 0.068565756 7.7620134
-1.3888227 -1.1426147 0.18015888 5.9642859
-1.0409833 -1.0785102 0.16058445 6.0021334
-0.60071206 -1.1218286 0.20408045 4.7352943
-0.23557891 -1.0964884 0.20934553 4.8157897
0.16290028 -1.0660871 0.2250981 5.4285712
0.63553214 -0.91067266 0.30997458 6
1.0355483 -0.99187255 0.21065451 6.2352943
1.4432149 -0.90929294 0.1796611 6.8000002
1.7161036 -0.89072764 0.20017919 7
2.2034686 -0.9082706 0.11903906 7
3.1303458 -0.82641709 0.12598562 8.3888893
3.378293 -0.90600455 0.21885076 8.9444447
-8.0642958 -0.58940268 0.14057568 14.52
-7.8836441 -0.65504414 0.1974805 14.411664
-5.8496089 -0.70137775 0.21113855 14.155951
-3.7526495 -0.74559635 0.21896157 14.32097
-3.2546628 -0.5817647 0.16393894 9.8827696
-3.1317847 -0.60245085 0.28155547 9.3406544
-2.5308216 -0.74923545 0.15041174 5.3333335
-2.1679976 -0.7566579 0.25363454 4.5555553
-1.8195267 -0.67766994 0.13404511 9.0008516
-1.3040272 -0.60907531 0.16440177 8.5199232
-1.1415598 -0.59272921 0.22823642 8.2663288
-0.62365097 -0.69313568 0.18673863 3.761905
-0.1759112 -0.67162412 0.15347429 4.4722223
0.2094235 -0.64367533 0.17645302 4.3125
0.65688759 -0.67064917 0.23147379 5.390625
0.98811698 -0.63350505 0.240798 5.5882354
1.4763123 -0.63066882 0.19301654 8.4211321
1.7756042 -0.59314007 0.19064967 8.0700874
2.0858893 -0.5555563 0.18235905 7.3670902
2.9808607 -0.4858422 0.09801513 7.4325399
3.4175868 -0.60284168 0.18885507 8.1413536
3.8259635 -0.4156639 0.15085872 4.0971427
4.1992145 -0.41449291 0.16703466 4.5808516
4.4858184 -0.41252673 0.20604542 5.2399998
4.8845334 -0.40122029 0.064143062 6
5.8178983 -0.5826816 0.078460537 8.833333
-7.903924 -0.37224898 0.017191172 15
-3.2563894 -0.25710729 0.21017165 14.238313
-3.1494384 -0.18110301 0.24287875 13.39597
-1.7123474 -0.083645217 0.17483601 7.2351518
-1.2789179 -0.1997776 0.14940111 11.777947
-1.1263055 -0.098915972 0.25848305 11.787838
-0.57796133 -0.13923196 0.24398477 4.1428571
-0.12815981 -0.13613039 0.25495857 4.1999998
0.28878456 -0.12578875 0.19090872 6
0.59771848 -0.12495124 0.19838737 4.9551287
0.9985922 -0.12276749 0.20608154 4.7254901
1.4398434 -0.17646043 0.18714416 8.7453003
1.7733908 -0.19440894 0.16534194 9.6400032
2.1616316 -0.12368206 0.20600398 7.5876412
2.5640264 -0.17634854 0.19889541 9.2335129
2.9538939 -0.27679431 0.12031429 5.7255993
3.361156 -0.24633801 0.14074013 7.111248
3.8890309 -0.31704044 0.17925937 4.0656934
4.2608342 -0.29405093 0.20424478 4.4007092
4.6479931 -0.24874525 0.18427356 6.4136038
4.9514356 -0.17347762 0.19080721 7.3494997
5.3938856 -0.1189773 0.22372024 7.154839
5.7888017 -0.17950225 0.093508482 10.66
-3.2769272 0.20624979 0.12625742 15
-3.1201673 0.081575535 0.31381163 15
-1.7135506 0.18478447 0.19856168 9.853138
-1.2722193 0.1009296 0.11772442 14.533164
-1.1835005 0.15206236 0.19331488 14.094138
1.4144951 0.16666283 0.18931249 14.192105
1.798159 0.12936793 0.15686285 13.80019
2.1766949 0.18518928 0.21823563 10.868745
2.6622458 0.057057835 0.15453854 13.693349
2.8978443 0.1496338 0.2052764 12.356535
3.3318126 0.056338102 0.17317247 14
4.7510276 0.16298366 0.15095598 14.630326
4.9766598 0.20769599 0.18955734 13.312067
5.4038525 0.17940597 0.18225524 9.722105
5.7332597 0.2386407 0.10045259 13.196969
-1.7164345 0.53155309 0.20062523 12.933372
-1.3008064 0.49143988 0.1679633 14.270833
-1.198705 0.69381481 0.38797784 15
1.4421489 0.45083436 0.16858785 15
1.8108099 0.47606102 0.19734941 14.453705
2.2041686 0.52451527 0.21637213 13.90065
3.0328639 0.44671902 0.19770283 14.434921
5.13766 0.44076234 0.16986486 14.24381
5.4047318 0.58162957 0.18305776 12.90414
5.6799436 0.65442854 0.15782781 14.333638
-1.7274621 0.95219952 0.21293287 13.713008
1.9646204 1.0624566 0.15903631 14.1875
2.043159 1.0320179 0.26718467 13.958333
5.4391551 0.89295387 0.17376073 14.729918
5.6608176 0.94647682 0.27375793 15.084249
-1.7753806 1.2934806 0.21912323 14.782577
1.9547248 1.3708624 0.12321461 14.916667
2.041986 1.3729905 0.35310858 15
-8.0071745 -1.6293144 0.73726571 7
-7.722918 -1.620959 0.75556982 6.0476193
-7.4375343 -1.6099077 0.65381163 4.9250002
-7.044313 -1.6090946 0.68348557 5
-6.7892952 -1.6061516 0.75137115 6
-8.0317707 -1.4177198 0.4894909 8.333333
-7.7368155 -1.4221667 0.6040476 8.9621344
-7.4002838 -1.5069493 0.56121981 6.0174599
-7.0335908 -1.5407606 0.57779157 5.2200003
-6.6364093 -1.5117671 0.56539094 5.2307692
-6.2258468 -1.4821671 0.58003783 4.7857141
-5.7987633 -1.3756628 0.59588665 6.6553211
-4.9334011 -1.4125221 0.78936172 5.4000001
-4.5536156 -1.3644475 0.76265657 6.9846029
-4.208591 -1.3617616 0.67437953 6.2882199
-3.7872529 -1.3377649 0.54976726 5.9861665
-3.4316328 -1.3357784 0.56509966 5.442636
-3.0335021 -1.3460031 0.60058028 4.742424
-2.5746815 -1.3079529 0.55562115 4.8425922
-2.1907098 -1.2875967 0.61820638 4.625
-1.7874216 -1.251261 0.59951723 5.0999999
-1.3623637 -1.2220659 0.65253448 4.8000002
-1.0386676 -1.2067206 0.70504057 4.625
-8.038413 -0.94430703 0.49960712 12
-7.7602739 -1.036503 0.60424781 13.485366
-5.7929306 -1.0672086 0.60954744 12.100332
-4.539032 -1.0960867 0.76430023 12.551201
-4.2071776 -1.0368905 0.69855124 12.5077
-3.8017142 -1.0180261 0.56479192 11.88831
-3.4475408 -0.96682549 0.48144683 10.840364
-3.0110338 -0.85055262 0.57754564 6.232738
-2.5769489 -0.85516018 0.59344327 4.9212966
-2.1739509 -0.82998961 0.60773188 4.8039212
-1.8143444 -0.82095218 0.60823226 5.1944442
-1.4219855 -1.0016141 0.73091233 5.9615383
-0.95651561 -1.0369678 0.65293121 5.453125
-0.58664149 -1.1607683 0.6014685 4.7045455
-0.19534723 -1.1301161 0.62453479 5.4000001
0.21059068 -1.0972501 0.60791826 5.875
0.69016349 -0.93940139 0.59283537 6
1.0808958 -0.91487926 0.62771773 6.0103092
1.5515406 -0.90894949 0.52639425 7
1.7880636 -0.91270769 0.57559943 7.04
3.456125 -0.85683829 0.60173035 9.125
3.6137121 -0.93097728 0.59700888 8.166667
-8.0583916 -0.60088521 0.54536122 14.611112
-7.7726994 -0.66894901 0.62003034 14.227778
-5.7434716 -0.68229151 0.64310884 13.829243
-4.0986633 -0.60388988 0.75688326 9.8587656
-3.7680402 -0.66616195 0.60675693 11.926988
-3.3880367 -0.62442869 0.5005694 11.428562
-3.0939426 -0.60324401 0.56079435 9.6134663
-2.6835399 -0.76263106 0.55083549 6
-2.1108623 -0.77140367 0.58508003 5
-1.7934009 -0.75290346 0.58850592 4.8333335
-1.3194727 -0.69749397 0.5352096 5.3809524
-1.0965797 -0.68107259 0.49551558 8.021368
-0.61849725 -0.72075492 0.65157217 4.3461537
-0.19414902 -0.69953692 0.55786788 4.0952382
0.24975321 -0.66891521 0.58017445 4.3571429
0.62206137 -0.65997547 0.63170207 4.7826085
1.0650615 -0.70056295 0.50455683 5.6363635
1.510269 -0.65109587 0.57829046 8.1915588
1.8145251 -0.63592589 0.59476697 8.4625816
2.1415932 -0.55560547 0.58250278 6.7962117
3.1338668 -0.45611399 0.51584119 10.166667
3.4319296 -0.54491764 0.57069337 10.799163
3.7590373 -0.47237778 0.6288684 5.125
4.1677723 -0.40944195 0.60341454 4.2179999
4.5656819 -0.40747476 0.57340413 5.0740743
-4.0906677 -0.14729419 0.77862501 12.361607
-3.7658617 -0.16441976 0.69524997 12.968632
-3.3321652 -0.1679139 0.52563864 13.907835
-3.115474 -0.23524311 0.57275075 13.699404
-1.7093784 -0.087587304 0.61125362 6.6853466
-1.3227658 -0.11419421 0.56824404 6.4642859
-1.1063768 -0.20919344 0.51708841 10.394203
-0.66094822 -0.13498987 0.64092565 4.2307692
-0.19314903 -0.13868476 0.61868149 4.2727275
0.2426445 -0.12673905 0.59239781 6
0.6874522 -0.12703732 0.62983203 4.7586207
1.0253428 -0.12632588 0.60551304 4.5544872
1.4194824 -0.15506165 0.58835447 7.4155149
1.7582016 -0.20195799 0.61337709 10.471085
2.2153554 -0.11033296 0.60390759 7.3707666
2.6265657 -0.15530927 0.54740542 11.613944
2.9740732 -0.17571014 0.59899294 7.4645624
3.4306574 -0.24336082 0.59548825 8.5433855
3.8068891 -0.28796789 0.58714616 3.8571429
4.2690043 -0.29305756 0.62168604 4.031106
4.6544752 -0.27184227 0.59321284 5.1597099
4.933033 -0.18146981 0.58032787 7.4189849
5.3851175 -0.12095577 0.59505647 7.3647799
-4.0083556 0.18937522 0.79746699 14.5
-3.7833545 0.12936299 0.7207315 15
-3.5289314 0.17303425 0.64413106 15
-3.0332198 0.083039403 0.62167579 14.928572
-1.7037365 0.17949103 0.60369849 9.5919304
-1.3704268 0.16739266 0.52256101 12.785714
-1.1368943 0.20351441 0.51300955 12.80119
1.4916116 0.11273374 0.60417694 14.192106
1.7858678 0.14699686 0.59519738 13.780416
2.2069352 0.19246346 0.61289465 11.372917
2.6267183 0.025055967 0.45661932 15.008626
2.9359972 0.1530721 0.58756781 12.886859
3.4613521 0.13841213 0.64091599 14.142858
4.7765574 0.16534537 0.54136133 14.697314
4.9900126 0.20766325 0.58495498 13.667734
5.395072 0.20357284 0.59402305 10.174169
-1.7029037 0.52979082 0.59691238 12.903781
-1.3213035 0.61972034 0.60489625 14.571428
-1.1646452 0.50071657 0.47218928 13.925
1.5248811 0.42194703 0.57288748 14.916667
1.8378115 0.45656601 0.59891248 14.744443
2.2335858 0.49598882 0.61581439 14.259941
3.0757768 0.42519951 0.54184246 14.745142
5.1697145 0.43393913 0.54642582 14.477654
5.4126081 0.57300204 0.61396009 13.421165
-1.7214409 0.94024217 0.60995871 13.706385
-1.5906465 0.82396626 0.58886755 15
2.0892239 1.0592661 0.6124227 13.625
5.4781156 0.90176386 0.56063598 14.621876
5.8111024 0.89049262 0.71290904 14.778999
-1.7783031 1.2904664 0.63751334 14.78264
2.0658653 1.4697937 0.60070294 15
-8.0725765 -1.6777997 1.0278381 7
-7.6857467 -1.6250517 1.0512804 6.5403571
-7.4551177 -1.6325243 1.0120564 5.4114852
-7.0023952 -1.6267279 1.021032 4.9583335
-6.665421 -1.616143 1.052633 5.1428571
-6.3176646 -1.6075106 1.1993074 4.6666665
-8.0776997 -1.4042513 0.96996629 8.8999996
-7.6771913 -1.388775 0.96777678 10.00179
-7.5409846 -1.367062 1.0445479 8.9109735
-7.0121841 -1.5799503 0.86945045 4.5
-6.6479692 -1.5668918 0.96999204 5
-6.1891346 -1.5433502 0.94679683 4.697917
-5.7244153 -1.3963581 1.0566009 7.8489776
-5.4124093 -1.3733025 1.0774169 8.4116993
-4.9900255 -1.3753529 0.95896727 7.5577993
-4.6465507 -1.4132074 0.93122977 6.0780978
-4.2117748 -1.4691827 0.99735641 4.13908
-3.7951102 -1.4393731 0.98200721 4.7099996
-3.4037483 -1.4112911 0.99081403 5.0694442
-3.0114708 -1.3843511 0.95102096 4.7727275
-2.5602176 -1.3568958 0.99939907 5.1428571
-2.1889138 -1.3233358 1.0014411 5.3000002
-1.7470922 -1.2802609 0.99191642 5.0176473
-1.4002613 -1.2322086 0.98047501 6.0507889
-0.99709189 -1.2244951 0.99274838 5.5597701
-0.61403024 -1.2141973 1.0621103 4.9000001
-8.0917978 -0.96479028 0.99622107 12.083333
-7.7073493 -1.0144695 1.003971 13.894012
-7.5408845 -0.99844092 1.0714387 11.731051
-5.7226233 -1.0675378 1.0225056 12.598145
-5.4147811 -0.99269956 1.1033795 12.348769
-4.993619 -1.0387137 0.96754128 12.992311
-4.617929 -1.0349001 0.85604495 12.034096
-4.1654291 -1.1488775 0.80383837 9.5
-3.7435691 -0.94656998 1.0189456 6
-3.486294 -0.93118685 1.082774 6
-3.0170736 -0.89265501 1.0153074 6.1875
-2.6323712 -0.86914432 0.98268908 5.1999998
-2.1927254 -0.85235405 1.0246845 4.9958334
-1.7380658 -0.89525825 1.0196316 7.6610136
-1.3466005 -0.98115927 0.9646765 9.0689192
-0.94481921 -1.0010682 1.0116007 6.9272389
-0.63074201 -1.0398562 1.0361009 5.8666668
-0.20375554 -1.1587017 0.91524667 5.5714288
0.2249406 -1.1253917 0.98559028 6
0.65233302 -1.0487891 1.1236584 6.9117284
1.0355424 -0.98130882 0.9126606 6.3518519
1.5085779 -1.0411603 1.0119888 7
1.827087 -0.96706736 0.97553903 7
2.0615344 -0.94126648 1.0889453 7
3.4919631 -0.9122346 0.95695621 9.0952377
3.7616096 -0.90856111 0.93023622 9.3000002
-8.0867376 -0.62850565 1.0092702 14.544445
-7.7186508 -0.66418463 0.9725967 14.401098
-7.5680709 -0.62866205 1.0688541 14.6
-5.6840959 -0.64877027 1.0308398 13.62687
-5.3982687 -0.60235441 1.1353172 12.252501
-4.9683785 -0.624488 1.0418977 11.179706
-4.6199803 -0.58048457 0.93677002 10.483334
-4.2956824 -0.65729511 0.83177358 10.788095
-2.9102654 -0.60466737 0.89353836 9.0555553
-1.8255106 -0.77266228 1.0294728 6.8000002
-1.3405395 -0.58692682 1.0109447 12.021864
-1.0160722 -0.58291376 1.0333494 9.0834818
-0.66444403 -0.73105711 1.0910201 5.8280301
-0.21045312 -0.72984654 0.9874925 4.708333
0.24071865 -0.70937669 1.0219853 4.8499999
0.63526821 -0.65739447 1.0546417 8.4013615
0.92294472 -0.69217777 1.0709246 6.0063243
1.3371388 -0.66212553 1.0396085 5.3636365
1.8358546 -0.6896804 1.0014416 8.7254696
2.1533105 -0.58284241 1.0181613 7.2888889
3.4346497 -0.52029788 1.0107305 8.7671432
3.7503541 -0.53601331 0.98798782 7.2916665
4.21176 -0.40991989 0.96048069 3.1666667
4.567697 -0.40472323 0.97476238 5
-5.6086082 -0.34005314 1.1438367 13.25
-5.2633839 -0.20939028 1.1361555 11.2
-4.9579377 -0.20300403 1.0431403 12.323181
-4.6028581 -0.17520691 0.94587708 12.069751
-4.2809544 -0.15941165 0.84936398 12.751324
-2.9745958 -0.20196728 0.89236164 12.480518
-1.7129503 -0.096083753 1.0181245 6.6593266
-1.3759269 -0.16730501 1.01829 12.194445
-1.0251322 -0.15909362 1.0371276 9.9450731
-0.62221509 -0.13819471 1.0304005 4.7833333
-0.18732074 -0.1330495 1.0012802 3.9464285
0.22321792 -0.12671068 0.9864552 4.3809524
0.65521944 -0.127967 0.99953896 5.0107532
0.99233454 -0.15535504 1.0264205 5.7670059
1.4175949 -0.13534638 0.98445326 5.3164244
1.8126138 -0.21576321 0.99648339 9.6293974
2.2013028 -0.13739605 1.0270704 7.3669729
2.6240263 -0.20687762 1.0137285 9.9002781
3.005373 -0.17210673 1.0145125 7.2661018
3.3913703 -0.19671005 0.97118503 7.9196177
3.7839153 -0.27907708 1.0125341 6.3086419
4.2552791 -0.28403613 1.0193279 3.383903
4.6633334 -0.26671061 0.99026561 4.8264265
4.9736533 -0.17649153 0.97193682 7.6117377
5.4182534 -0.1188345 0.96570182 7.2488098
5.6662111 -0.13292447 1.09879 7.8571429
-5.2339001 0.21450309 1.1629814 13.625
-5.0161362 0.17193325 1.0829029 14.185715
-4.5986867 0.18422331 0.96795434 14.476541
-4.2067242 0.14780158 0.84300297 14.758334
-3.965013 0.19081724 0.80052519 14.75
-2.9917016 0.092538945 0.89933163 14.730769
-1.7006304 0.18194629 0.99138886 9.6154766
-1.4685161 0.19926164 1.058311 12.801816
-0.98823237 0.22460121 1.0961176 14.6
1.5474851 0.082060672 0.93500042 14.473333
1.8388987 0.11880723 1.0093473 13.766329
2.2233078 0.19429283 1.0249004 11.685009
2.6943293 0.088009559 1.0289431 13.945666
2.99228 0.15581864 1.0022041 13.103025
3.2633436 0.21897483 1.1083003 13.685185
3.6958084 0.1246504 1.0548563 13.666667
4.7831454 0.19898538 0.85735035 14.5
5.0243979 0.21405284 0.98777717 13.599551
5.4250937 0.2150428 0.97158241 10.291213
5.64467 0.31483644 1.0606887 11.1875
-5.2216673 0.4859125 1.178412 15
-4.9527116 0.45265025 1.1057591 15
-1.7001028 0.52189469 0.99782997 12.869745
-1.5799221 0.60169631 1.0202253 13.562879
-0.97279251 0.40425709 1.1898808 15
1.8177526 0.46902287 1.003366 14.689155
2.2267814 0.47129381 1.0205625 14.644656
2.5221939 0.49456102 1.1600008 13.5
3.2837377 0.50545448 1.1321685 15
5.1798453 0.40667692 1.0694085 15
5.4424119 0.56815863 0.99339306 13.503966
5.6849146 0.68189651 1.0131493 13.908434
-1.6993868 0.94254971 1.0011797 13.786041
-1.5992645 0.850223 1.1215564 14.5
2.497777 0.84203988 1.1942973 15
5.5246186 0.91202283 0.94175208 14.579041
5.8270087 0.92078638 1.0300326 14.717667
-1.7643462 1.2828833 1.0367457 14.850877
2.0448246 1.5086533 0.82201707 15
-8.0547867 -1.7437842 1.4486661 7
-7.8285141 -1.693195 1.447401 7
-7.4498119 -1.6521839 1.4034626 6.1402612
-6.9990182 -1.6602964 1.3644675 4.7037039
-6.6330462 -1.6469643 1.4153024 4.9250002
-6.1751094 -1.633104 1.4079242 5.177083
-5.8183613 -1.619722 1.4361039 5.2592592
-5.450305 -1.6100361 1.4440347 5.8000002
-4.9443612 -1.6128304 1.5253828 6
-4.7942357 -1.6031333 1.473147 6
-8.0694847 -1.4397502 1.3677317 8.833333
-7.6953683 -1.3737282 1.3552773 10.578788
-7.5004301 -1.3675903 1.4052883 10.094777
-6.0883527 -1.3656886 1.3334438 9.0352945
-5.777391 -1.4024719 1.2898109 7.9300079
-5.430068 -1.5103117 1.3885109 5.2380953
-5.0192623 -1.5544256 1.4188694 4.5
-4.5971308 -1.5328625 1.3754791 4.3866668
-4.2228355 -1.5172961 1.3874509 4.8095236
-3.7928107 -1.4785758 1.4265698 5.2142859
-3.3868282 -1.4546363 1.3645077 5.2857141
-3.0145397 -1.4425445 1.4589229 5.25
-2.6177549 -1.4010683 1.3582419 5
-2.1813054 -1.3798417 1.4296588 4.8055553
-1.823343 -1.3499242 1.4246765 4.6666665
-1.4622163 -1.2699659 1.3478396 6.0140777
-1.0171057 -1.2591101 1.385406 6.2516661
-0.70035738 -1.2709935 1.3763319 6.2307692
-0.3317849 -1.2203503 1.513634 6
-8.093255 -1.0409501 1.4165182 11.461905
-7.6898146 -1.036762 1.3605232 13.525289
-7.5168762 -1.0223022 1.4266961 13.912483
-6.1138568 -0.9579488 1.3825583 12.579221
-5.7680945 -0.98658258 1.3125459 12.9353
-5.4851093 -1.0593808 1.3933527 10.22508
-3.6322591 -0.95505971 1.2687818 6
-3.3789866 -0.9477607 1.4286449 6
-2.9736171 -0.90894377 1.4155741 6
-2.6442802 -0.8929674 1.4383235 6
-2.2369044 -0.87916064 1.3419067 5.4166665
-1.8193837 -0.8485468 1.3936746 5.2894735
-1.441897 -0.96147919 1.3820264 10.184679
-0.98252648 -0.96471882 1.3617691 8.0285139
-0.76879305 -0.98426932 1.4694598 6.9671545
-0.34166005 -0.93589664 1.5044644 5.1199999
0.24893178 -1.0297172 1.3946899 7.7445626
0.58260924 -0.95369506 1.4056208 6.1864147
0.8757807 -0.92950469 1.4288617 5.7174516
1.3270221 -1.0149387 1.2493412 7.69625
1.8706576 -0.99253976 1.4385664 7.1071429
2.32741 -0.87859523 1.4706124 6.5913243
2.4666009 -0.89140046 1.4828732 6.6333327
3.5214503 -0.83801132 1.2069554 9
3.80955 -0.89239395 1.3600749 9.2142859
4.0510902 -0.9216432 1.4050262 9.5
-8.1134949 -0.61513484 1.4404074 14.236364
-7.7855711 -0.66673446 1.3011478 14
-7.5223646 -0.59181428 1.3947779 14.854545
-6.1498451 -0.63822973 1.4252599 14.666667
-5.7674112 -0.64031529 1.3349211 13.823046
-5.5312948 -0.65353 1.4032205 12.762868
-5.1885519 -0.52269888 1.2222211 14.5
-1.3359588 -0.64009064 1.3323801 13.29037
-0.95883447 -0.573892 1.4024206 11.077748
-0.74673533 -0.61357683 1.4639785 10.280055
-0.23680541 -0.76353937 1.3923692 5.0714288
0.25437337 -0.59197181 1.4073501 10.257239
0.61748958 -0.57463056 1.3636001 9.5377455
0.93884879 -0.59274179 1.3291192 8.6158543
1.2631843 -0.5913412 1.2856276 9.0004044
1.8650016 -0.7146883 1.406209 9.0593109
2.2709782 -0.62280709 1.3668323 8.7203636
2.4355009 -0.59564805 1.4840206 8.8814192
2.8756042 -0.4039793 1.574813 5
3.5058467 -0.48547149 1.3456526 6.6642857
3.8631036 -0.50733674 1.4445832 7.5441175
4.1536407 -0.49630922 1.3980961 5.5555553
4.5223541 -0.4030844 1.281033 5
-8.1305056 -0.39301324 1.5835056 15
-7.6653252 -0.29821563 1.5917022 10
-5.6933479 -0.26585233 1.2636727 10.666667
-5.5720224 -0.32489425 1.3223054 13.238095
-1.7076721 -0.10123425 1.4370811 6.6281042
-1.3595724 -0.16235928 1.3425829 10.672618
-0.98702979 -0.20010655 1.390514 12.414983
-0.67968047 -0.20282026 1.3925588 9.187109
-0.17809421 -0.13476709 1.396233 4.4108791
0.20907243 -0.13040106 1.4013766 4.6708331
0.66577232 -0.18276829 1.4093207 8.3549194
0.95814067 -0.2116863 1.3670363 8.8913593
1.4036539 -0.12788193 1.3949009 4.4809527
1.8129438 -0.18370004 1.4123299 7.6584172
2.2511315 -0.15761735 1.4222422 9.7447481
2.5837073 -0.21285209 1.4336599 10.279763
2.8759403 -0.17030331 1.449916 5.9461317
3.394027 -0.13792987 1.4091095 7.6598945
3.8381386 -0.25979391 1.4447795 4.5520091
4.1797738 -0.27811447 1.4148061 3.6365252
4.5735416 -0.27087367 1.3814765 4.8264637
5.0112128 -0.17653725 1.3688173 7.4294906
5.3969789 -0.11078115 1.3934878 7.2980523
5.6959877 -0.09249571 1.4081658 7.7416668
-5.6852655 0.15945157 1.2670169 13.5
-5.5083299 0.18253088 1.2455653 13.5
-1.708045 0.17273609 1.3959653 9.5107412
-1.4490184 0.17623959 1.4168077 11.587947
-0.98244828 0.20829208 1.4320207 14.279807
-0.76184541 0.21026567 1.4614832 12.357142
0.75433397 0.059100688 1.3952678 14.5
0.87198478 0.018353462 1.3473917 13.5
1.8464613 0.085799716 1.3551022 13.896527
2.2295728 0.1805771 1.4127245 11.851273
2.748445 0.051466353 1.4355034 13.061152
2.8612621 0.10080644 1.4254935 12.699764
3.344578 0.25316885 1.4415053 13.221231
3.8714073 0.17934565 1.5085179 13.75
5.0596166 0.21367006 1.3816273 13.188945
5.3919897 0.21118376 1.3841649 10.619658
5.6708798 0.28146452 1.4289258 10.034616
-5.7256699 0.49948034 1.3228465 14.833333
-5.4363213 0.49804294 1.2479945 15
-1.702558 0.53067607 1.3978803 12.912004
-1.5124176 0.5518921 1.417001 13.565801
-0.90055948 0.54006052 1.4669214 14.764706
-0.75912565 0.49968362 1.4341127 13.333333
1.8303469 0.48739988 1.3466617 14.647058
2.1943104 0.49537432 1.4286361 14.330321
3.3538837 0.49930233 1.4126694 14.952382
5.1558323 0.411479 1.4321438 14.602468
5.4382715 0.5538466 1.382712 13.744622
5.6718831 0.66860592 1.4394457 12.607693
-1.7228135 0.95646465 1.377984 13.605882
-1.5864668 0.82171893 1.4326814 15
-0.86058187 0.83448887 1.4995911 14.5
-0.76729012 0.88743186 1.4485891 14.5
5.541502 0.89354819 1.3263413 14.622223
5.6190104 1.0067283 1.4451253 14.119921
-1.7800289 1.2764527 1.4374123 14.829545
5.6395392 1.2428259 1.4406308 15
-8.0539417 -1.819064 1.8124313 7.25
-7.8580551 -1.7884344 1.8901607 7
-7.4013014 -1.6756601 1.8069489 6.5594821
-6.9740825 -1.7052163 1.7658706 5.1140351
-6.5969248 -1.6803839 1.7758183 4.7241378
-6.1807952 -1.681689 1.8243505 5.1428571
-5.78581 -1.6560764 1.8054112 4.7272725
-5.4227176 -1.6355523 1.7533926 5
-5.0007505 -1.6313176 1.8894683 5.1111112
-4.6482697 -1.6189058 1.8697257 5.25
-4.2942796 -1.6050895 1.90157 5.6666665
-8.090663 -1.5200522 1.7821447 8.7288885
-7.8464913 -1.4588972 1.8012328 8.6416664
-7.4194455 -1.3707541 1.806008 10.381227
-7.1485634 -1.5605829 1.9345108 7
-5.3488159 -1.5378653 1.7826526 5.7142859
-5.0167289 -1.5654348 1.7474227 4.5833335
-4.5640936 -1.5622206 1.8443619 4.75
-4.2145901 -1.5393637 1.8110759 5.125
-3.8198636 -1.5278811 1.8072057 5.3333335
-3.386482 -1.5098971 1.8268861 5
-2.9876394 -1.487619 1.8625606 4.6999998
-2.603148 -1.4535193 1.7864798 4.6736112
-2.2168424 -1.4267603 1.7818787 4.673913
-1.8214731 -1.3941091 1.8103523 5.6269841
