# .PCD v0.7 - Point Cloud Data file format
VERSION 0.7
FIELDS x y z intensity
SIZE 4 4 4 4
TYPE F F F F
COUNT 1 1 1 1
WIDTH 1327
HEIGHT 1
VIEWPOINT 0 0 0 1 0 0 0
POINTS 1327
DATA ascii
-5.6560788 0.21399102 -7.4765716 29
-7.4984884 0.58592504 -9.3626823 29
-5.6428194 0.27469423 -7.1300149 29
-4.0190773 0.73642468 -9.44555 29
-7.5089655 0.66986758 -5.793376 29
-1.1752205 1.4919314 -9.5717878 30
-1.1345305 1.4458059 -8.8008204 30
-5.65661 0.22744983 -7.4769087 30
-7.4998417 0.63667578 -9.3641663 30
-4.0184793 0.80163598 -9.4460239 30
-7.5089784 0.72837633 -5.7933626 30
-5.5092521 -0.032386631 -7.4718819 11
-5.6285014 -0.01657328 -7.4791174 11
-5.6286054 -0.003904894 -7.4792256 12
-5.6394672 -0.026044495 -7.2781434 12
-5.5087805 -0.017654397 -7.4715052 12
-5.6286035 0.0086558163 -7.4792237 13
-5.6394649 -0.0099736899 -7.2781405 13
-5.5087781 -0.0029178485 -7.4715023 13
-5.6281776 0.021087334 -7.4787803 14
-5.6399255 0.0060977116 -7.2789011 14
-5.5082707 0.011674285 -7.471097 14
-5.6281776 0.033538111 -7.4787803 15
-5.6399221 0.021989465 -7.2788968 15
-5.5082717 0.026280276 -7.471097 15
-5.6277437 0.045912493 -7.4783287 16
-5.6403956 0.0378762 -7.2796769 16
-5.5077534 0.040800463 -7.4706831 16
-7.249032 0.016066059 -9.3341532 17
-7.1033444 0.019589934 -9.3191137 17
-5.2407174 0.022931952 -9.3403416 17
-4.8279696 0.016153652 -9.3325577 17
-5.6277428 0.058304608 -7.4783273 17
-5.6403947 0.053655088 -7.2796764 17
-5.5077524 0.05533598 -7.4706817 17
-3.0323632 0.049905971 -7.605196 18
-7.2500558 0.059649415 -9.3352604 18
-7.1027107 0.060399629 -9.3181934 18
-5.2408686 0.061258923 -9.3400669 18
-4.8280792 0.059437431 -9.3324299 18
-5.6277418 0.070679419 -7.4783263 18
-5.6403937 0.069411933 -7.2796755 18
-3.8692839 0.053604327 -9.3049555 18
-5.507751 0.069851197 -7.4706802 18
-7.6557913 0.053890333 -5.971478 18
-3.03303 0.11755078 -7.6052523 19
-5.2408757 0.099561684 -9.3400583 19
-7.1027031 0.10115942 -9.318182 19
-7.2500429 0.10326284 -9.3352537 19
-4.8280902 0.10269959 -9.3324203 19
-1.7607965 0.13608448 -8.4363918 19
-5.6273127 0.083058104 -7.4778795 19
-1.8332028 0.13610931 -8.8077507 19
-5.6408544 0.085150324 -7.2804365 19
-3.8693027 0.11243735 -9.3049459 19
-5.5072422 0.084369875 -7.4702735 19
-7.6557388 0.11147054 -5.9715123 19
-3.0330291 0.18523273 -7.6052499 20
-5.2408824 0.13788843 -9.3400497 20
-4.8281012 0.14598882 -9.3324127 20
-7.2174091 0.15276974 -9.5715952 20
-7.1020913 0.14190558 -9.3172932 20
-1.7608147 0.23317431 -8.4363928 20
-1.8332014 0.23312856 -8.8077545 20
-5.6273093 0.095450051 -7.4778762 20
-5.6408534 0.10089102 -7.2804356 20
-3.8693216 0.17130703 -9.3049364 20
-5.5072379 0.0989035 -7.4702697 20
-7.6557264 0.16908689 -5.9715009 20
-3.0337152 0.25298554 -7.6053071 21
-5.2124491 0.17703691 -9.3393707 21
-4.828218 0.18933928 -9.3322754 21
-1.7460299 0.33130777 -8.4383907 21
-1.8216219 0.33101088 -8.8103752 21
-5.6268883 0.10789818 -7.4774375 21
-7.1983347 0.20061538 -9.5975504 21
-7.3422899 0.19103685 -9.3092079 21
-5.6413302 0.11660323 -7.2812233 21
-3.8690577 0.23029336 -9.3051167 21
-5.5067372 0.1134987 -7.4698696 21
-7.6557388 0.22680072 -5.9714603 21
-3.03372 0.32094395 -7.6053047 22
-1.7460418 0.42915446 -8.4383936 22
-1.8216338 0.42871749 -8.8103762 22
-5.2125978 0.21579455 -9.3391094 22
-5.6268868 0.12035745 -7.4774356 22
-7.1973948 0.24813218 -9.5963202 22
-7.3414392 0.23503278 -9.3082066 22
-5.6413307 0.13239089 -7.2812243 22
-3.8687506 0.28945601 -9.3053246 22
-5.5067348 0.12810963 -7.4698672 22
-7.6557322 0.28466803 -5.9714427 22
-3.0343521 0.38908714 -7.6053576 23
-1.7457619 0.5273928 -8.4384346 23
-1.8232975 0.52660757 -8.8100033 23
-5.6264672 0.13292569 -7.4769988 23
-7.1973782 0.29591566 -9.5963106 23
-7.3414345 0.2792688 -9.3081989 23
-5.6417799 0.14814623 -7.2819667 23
-3.8687606 0.34881431 -9.3053217 23
-5.5062399 0.14284033 -7.4694715 23
-7.6556425 0.3427363 -5.9715195 23
-3.0343499 0.45760429 -7.6053553 24
-1.8389735 0.62124395 -8.7421188 24
-5.6264653 0.14550383 -7.4769969 24
-7.1965036 0.34374326 -9.5951681 24
-7.340642 0.32355851 -9.3072653 24
-5.6417785 0.1640473 -7.2819653 24
-3.8687716 0.40845245 -9.3053179 24
-5.506237 0.15758896 -7.4694686 24
-7.6556292 0.40108824 -5.971509 24
-3.0349922 0.52641839 -7.6054082 25
-1.8401737 0.71942616 -8.741869 25
-5.632771 0.15798377 -7.4724879 25
-7.1964912 0.39199674 -9.5951643 25
-7.340641 0.36823195 -9.3072624 25
-5.6422443 0.17990454 -7.2827344 25
-3.8684697 0.46849 -9.3055229 25
-5.5057459 0.17251629 -7.4690762 25
-7.6556082 0.45977455 -5.9715066 25
-3.034986 0.59578347 -7.6054058 26
-1.7162299 0.8304075 -8.4424295 26
-1.7961941 0.82871163 -8.8161392 26
-5.6327691 0.17069386 -7.472486 26
-7.1964788 0.4405784 -9.5951595 26
-7.340641 0.41320908 -9.3072586 26
-5.642242 0.19598514 -7.282732 26
-3.8684695 0.52888924 -9.3055267 26
-5.5057454 0.18746458 -7.4690752 26
-7.655591 0.51886004 -5.9714999 26
-3.0349798 0.66569281 -7.6054029 27
-1.7162223 0.93180811 -8.4424343 27
-1.7962017 0.92987204 -8.8161421 27
-5.6327672 0.18350369 -7.4724841 27
-7.1964664 0.48954129 -9.5951557 27
-7.3406405 0.45853913 -9.3072567 27
-5.64224 0.21219192 -7.2827296 27
-3.8684702 0.58976245 -9.3055296 27
-5.5057449 0.20253001 -7.4690742 27
-7.6555743 0.57840878 -5.9714928 27
-3.0349751 0.73622459 -7.6054006 28
-1.8218026 1.017424 -8.6177197 28
-5.6327653 0.19642755 -7.4724817 28
-7.2204623 0.53873521 -9.5756016 28
-6.9967327 0.5093978 -9.5714798 28
-5.6422381 0.22854303 -7.2827272 28
-3.86847 0.65117794 -9.3055325 28
-5.5057445 0.21772948 -7.4690733 28
-7.6555572 0.63848728 -5.9714861 28
-3.0357025 0.80728 -7.6054611 29
-1.0064583 1.341702 -9.1505489 29
-1.8224006 1.1187958 -8.6176157 29
-5.6333394 0.2092744 -7.4730978 29
-7.2204485 0.58860385 -9.5755968 29
-6.9967198 0.55611211 -9.571476 29
-3.8683159 0.71325141 -9.3056393 29
-5.5052123 0.23324618 -7.4686484 29
-7.6556683 0.69921219 -5.9713326 29
-5.6417851 0.24142955 -7.3004704 29
-3.0357022 0.87928319 -7.6054583 30
-1.0064673 1.4662454 -9.1505508 30
-5.6333385 0.22245078 -7.4730964 30
-7.2213721 0.63943267 -9.5767918 30
-6.9959521 0.60297072 -9.5703068 30
-3.8683178 0.77596927 -9.3056421 30
-5.5052118 0.2487831 -7.468647 30
-7.6556559 0.76056677 -5.9713192 30
-5.6417842 0.25776881 -7.3004699 30
-5.6405897 -0.015053853 -7.4855537 11
-5.3663816 -0.031265356 -7.4899745 12
-5.6410303 -0.0025036111 -7.4861155 12
-5.641027 0.0098456293 -7.4861116 13
-5.366374 -0.014359131 -7.4899697 13
-5.6410236 0.022127561 -7.4861083 14
-5.3663669 0.0024550706 -7.489965 14
-5.6414962 0.034413796 -7.4867105 15
-5.366251 0.019184828 -7.4898853 15
-5.2771473 -0.01111649 -9.3648767 16
-5.6414952 0.046582464 -7.4867105 16
-5.3662496 0.035871074 -7.4898849 16
-5.3142366 0.036983173 -8.9573107 17
-7.5481386 0.015530083 -9.0507202 17
-7.0958967 0.018977396 -9.3597736 17
-4.8726034 0.018698111 -9.36903 17
-5.2771521 0.025339503 -9.3648605 17
-5.6419702 0.05874569 -7.4873152 17
-5.3661308 0.052512717 -7.4898033 17
-5.3177114 0.064970009 -8.9517403 18
-3.0426714 0.05045275 -7.7303162 18
-7.5497608 0.059143364 -9.0518951 18
-7.0948815 0.060098432 -9.3584642 18
-4.8725982 0.059916541 -9.3690338 18
-5.2771482 0.061743774 -9.3648643 18
-5.6419706 0.070850797 -7.4873166 18
-5.3661327 0.069138817 -7.4898047 18
-7.5146656 0.052730516 -5.7018762 18
-3.9373405 0.05411208 -9.3783083 18
-5.3181701 0.092730582 -8.9510021 19
-3.0432692 0.11654754 -7.7303514 19
-7.0948787 0.10115261 -9.3584623 19
-4.8723536 0.10112514 -9.3693562 19
-7.549757 0.10280201 -9.0518932 19
-5.2771368 0.098134622 -9.3648834 19
-1.8990088 0.13442978 -8.9659615 19
-1.7944946 0.13483082 -8.6178331 19
-5.6422539 0.082944795 -7.4876781 19
-5.3660488 0.085759915 -7.4897475 19
-3.9359148 0.11067939 -9.3793373 19
-7.5137978 0.11337172 -5.7031183 19
-5.315238 0.12070397 -8.9556971 20
-3.043889 0.18265629 -7.7303886 20
-4.8721395 0.14237617 -9.3696365 20
-5.2771349 0.13454869 -9.3648815 20
-1.9017143 0.22916266 -8.9652557 20
-1.7929139 0.23038432 -8.6181002 20
-5.6422529 0.095042564 -7.4876776 20
-3.9346101 0.16735624 -9.3802776 20
-7.513792 0.17403847 -5.7031212 20
-5.3659391 0.10239725 -7.4896722 20
-3.0438862 0.24888289 -7.7303877 21
-4.8721352 0.18369053 -9.3696384 21
-1.8980813 0.32431287 -8.9661961 21
-5.2512407 0.17170426 -9.3651905 21
-1.7816491 0.32674846 -8.6200132 21
-5.6420455 0.10718013 -7.4874139 21
-7.5497522 0.20146021 -9.3519964 21
-5.3659401 0.11906007 -7.4896727 21
-3.9346013 0.22410443 -9.3802805 21
-7.5130558 0.23472944 -5.704174 21
-3.0445168 0.31523427 -7.7304249 22
-5.2512431 0.20853609 -9.365181 22
-1.8913426 0.42014855 -8.9679461 22
-1.7766914 0.42336187 -8.6208534 22
-5.6418247 0.11936691 -7.4871335 22
-7.5480628 0.24943602 -9.3504543 22
-3.933362 0.28112867 -9.3811741 22
-5.3658018 0.13578106 -7.4895778 22
-7.5130529 0.29562968 -5.7041726 22
-3.0445175 0.38186809 -7.7304239 23
-1.891345 0.51592439 -8.9679413 23
-1.77669 0.52003354 -8.6208506 23
-5.6418242 0.13157754 -7.4871335 23
-7.5480614 0.29772493 -9.3504553 23
-3.9333577 0.33827305 -9.3811741 23
-5.3658013 0.15255387 -7.4895782 23
-7.5123558 0.35662767 -5.7051692 23
-3.0450602 0.44874704 -7.7304559 24
-1.9013629 0.60709965 -8.8419046 24
-5.6418238 0.1438458 -7.487134 24
-7.5461998 0.3459208 -9.3487558 24
-3.9320138 0.39589778 -9.382143 24
-5.3656902 0.16942298 -7.4895015 24
-7.5123568 0.41801438 -5.7051625 24
-3.0450506 0.51606917 -7.7304544 25
-1.9013534 0.70297194 -8.8419037 25
-5.6416054 0.15623766 -7.4868565 25
-7.5461864 0.39465663 -9.3487453 25
-3.9320269 0.45367697 -9.3821297 25
-5.365684 0.18637598 -7.4894977 25
-7.5114374 0.47951248 -5.7064786 25
-3.0450411 0.58384895 -7.730453 26
-1.8907471 0.80138075 -8.8443365 26
-5.6416025 0.16866907 -7.4868536 26
-7.5445948 0.44335225 -9.3472929 26
-3.9306135 0.51215321 -9.3831491 26
-5.3656783 0.20344442 -7.4894938 26
-7.5114288 0.54163253 -5.7064857 26
-3.0457015 0.6520285 -7.7304926 27
-1.8918166 0.89869738 -8.8440876 27
-5.6414165 0.18125659 -7.4866171 27
-7.5445929 0.49275589 -9.3472929 27
-3.9306102 0.5708245 -9.3831482 27
-5.3656158 0.22066051 -7.4894514 27
-7.5107517 0.60400921 -5.7074528 27
-3.0456977 0.72093153 -7.7304912 28
-1.8813243 0.99944228 -8.8464937 28
-5.6414156 0.1939036 -7.4866171 28
-7.5430231 0.54213166 -9.3458614 28
-3.9306066 0.63001812 -9.3831472 28
-5.3656149 0.23801675 -7.4894514 28
-7.5107484 0.66714728 -5.7074528 28
-2.9941778 0.80254692 -7.7700834 29
-3.0485122 0.79482138 -7.5195193 29
-5.6412315 0.2067492 -7.486383 29
-7.5430307 0.59242481 -9.34587 29
-3.9291482 0.69023991 -9.3841991 29
-5.3655577 0.25556275 -7.4894118 29
-7.5100794 0.73063093 -5.7084074 29
-2.9943943 0.87402976 -7.7700925 30
-3.0485973 0.86557943 -7.5195303 30
-5.6412325 0.21966979 -7.4863853 30
-7.5430379 0.64327443 -9.3458786 30
-3.9291291 0.75073248 -9.3842096 30
-5.365561 0.2732859 -7.4894147 30
-7.5100803 0.7950772 -5.7084012 30
-5.6515079 -0.026765987 -7.4719529 10
-5.6515093 -0.014311589 -7.4719582 11
-5.6518111 -0.001851052 -7.4725866 12
-5.6518111 0.010412857 -7.472589 13
-5.2419267 -0.023338892 -7.46632 13
-5.6521106 0.022677742 -7.4732118 14
-5.2419209 -0.0048210248 -7.4663191 14
-5.6524448 0.034863278 -7.4739075 15
-5.2422166 0.013643406 -7.4665418 15
-5.3375411 0.012643084 -8.9511576 16
-5.3386154 -0.0069639012 -9.3571625 16
-5.6524439 0.046931259 -7.4739079 16
-5.2422137 0.032008141 -7.4665427 16
-5.3440919 0.039474636 -8.9398832 17
-4.9195228 0.021326918 -9.3621788 17
-7.3793182 0.01415544 -9.1873894 17
-5.3386083 0.027724244 -9.3571711 17
-6.9152637 0.017557643 -9.4757242 17
-5.6528087 0.058996178 -7.4746666 17
-6.5655117 0.023880642 -9.4492559 17
-5.242455 0.050338142 -7.4667253 17
-5.3472266 0.065623872 -8.9344854 18
-3.062151 0.051274039 -7.7054563 18
-4.919117 0.060570106 -9.3627491 18
-5.3385296 0.062362812 -9.3573523 18
-7.3810396 0.058532305 -9.1887512 18
-6.9140635 0.059450693 -9.4740753 18
-3.062902 0.051058106 -7.4532056 18
-5.6530786 0.071004629 -7.4752283 18
-6.5648627 0.061172128 -9.4479742 18
-7.6172872 0.051665097 -5.7010908 18
-5.2427402 0.068629466 -7.4669404 18
-3.9747956 0.054839596 -9.3642597 18
-3.0621469 0.11551985 -7.7054644 19
-5.347332 0.091566421 -8.9342995 19
-4.9191122 0.099820033 -9.362751 19
-5.3385253 0.096994296 -9.3573532 19
-6.9128957 0.10123642 -9.4724722 19
-7.3827415 0.10299055 -9.1900969 19
-3.0628982 0.11598063 -7.4532137 19
-1.8079309 0.13357097 -8.5600128 19
-5.6530781 0.082989335 -7.4752307 19
-1.9138947 0.13302261 -8.9074106 19
-6.5642319 0.098384924 -9.4467278 19
-7.6172843 0.11611599 -5.7011046 19
-5.2427406 0.086902812 -7.4669437 19
-3.9747899 0.10908227 -9.3642673 19
-3.0627401 0.17978457 -7.705524 20
-5.3447175 0.11771354 -8.9387932 20
-4.9187145 0.1391198 -9.3633099 20
-5.3384466 0.13165486 -9.3575325 20
-3.0671253 0.18078721 -7.4539595 20
-1.8054056 0.22711781 -8.5604029 20
-1.9172637 0.22554314 -8.9066105 20
-5.6529927 0.09498886 -7.4750552 20
-6.5642338 0.13560936 -9.4467392 20
-7.6158509 0.18052186 -5.70296 20
-3.9728498 0.16344704 -9.3656902 20
-5.2430234 0.10517479 -7.4671569 20
-3.0627375 0.24416384 -7.7055321 21
-5.338366 0.1445778 -8.9497156 21
-5.3384414 0.16637009 -9.3575363 21
-3.0671577 0.24575916 -7.4539747 21
-1.8053908 0.32078391 -8.5604172 21
-1.9172628 0.3182649 -8.9066219 21
-5.6529927 0.10700533 -7.4750581 21
-7.3555236 0.20269765 -9.4906225 21
-6.563611 0.17281348 -9.4455099 21
-7.6158495 0.24506722 -5.7029729 21
-3.9728403 0.21786842 -9.3656998 21
-5.2430253 0.12348177 -7.4671612 21
-3.0633345 0.30866575 -7.7055917 22
-3.0803039 0.30981404 -7.4562736 22
-1.7879744 0.41613925 -8.5630379 22
-1.9076128 0.41204542 -8.9089565 22
-5.6529078 0.1190699 -7.4748845 22
-7.3555245 0.25148189 -9.490633 22
-6.5636148 0.21016808 -9.4455242 22
-5.2231994 0.14316002 -7.4671507 22
-7.6144414 0.3095969 -5.7047963 22
-3.9708908 0.27263188 -9.3671293 22
-3.0638864 0.37338334 -7.7056484 23
-3.0942838 0.37341467 -7.4587183 23
-1.7851715 0.51109755 -8.5634699 23
-1.9111414 0.50520396 -8.9081182 23
-5.6528215 0.13118811 -7.4747081 23
-7.3575478 0.30074424 -9.4926567 23
-6.5629296 0.24750112 -9.44417 23
-5.2235556 0.16190502 -7.467411 23
-7.6144409 0.3745015 -5.7048073 23
-3.9687924 0.32772565 -9.3686686 23
-3.0638814 0.43845257 -7.705657 24
-3.0942752 0.43848279 -7.4587259 24
-1.9130166 0.59536195 -8.7851067 24
-5.6528215 0.14334726 -7.47471 24
-7.3575463 0.35000446 -9.4926643 24
-6.5629292 0.28513533 -9.4441767 24
-5.2235551 0.18077482 -7.4674139 24
-7.6127949 0.43937057 -5.7069359 24
-3.9687901 0.38286614 -9.3686724 24
-3.0644562 0.5038088 -7.7057142 25
-3.0942674 0.50392562 -7.4587336 25
-1.9141097 0.68895364 -8.7848883 25
-5.6528211 0.15557638 -7.4747114 25
-7.3595133 0.39996514 -9.4946308 25
-6.5623012 0.32277638 -9.4429369 25
-5.2235541 0.19975322 -7.4674163 25
-7.612792 0.50489438 -5.7069511 25
-3.9667177 0.43870938 -9.3701925 25
-3.0644512 0.56968391 -7.7057228 26
-3.1077943 0.56743079 -7.4610987 26
-1.8885908 0.79263568 -8.9135828 26
-1.7397418 0.80632722 -8.5703135 26
-5.6527414 0.16792029 -7.4745483 26
-7.3595114 0.44990939 -9.4946394 26
-6.5623035 0.36085278 -9.4429483 26
-5.2239089 0.2187845 -7.4676752 26
-7.6113033 0.57044309 -5.708878 26
-3.9667072 0.49460483 -9.370203 26
-3.0644464 0.63607585 -7.7057319 27
-3.1078262 0.63350773 -7.4611135 27
-1.8885882 0.88899982 -8.9135962 27
-1.7397218 0.90452802 -8.5703287 27
-5.6527414 0.18033308 -7.4745517 27
-7.3610716 0.50067824 -9.4962015 27
-6.5616264 0.39893121 -9.4416103 27
-5.2239103 0.23803087 -7.4676795 27
-7.6112995 0.63687277 -5.7088928 27
-3.9666977 0.55093908 -9.3702135 27
-3.0649695 0.70294189 -7.7057853 28
-3.1215451 0.69711173 -7.4635124 28
-1.8792815 0.98832834 -8.9158487 28
-1.7133904 1.0094612 -8.5742874 28
-5.6526594 0.19289821 -7.4743834 28
-7.3587837 0.55080414 -9.4939346 28
-6.5609426 0.4372772 -9.4402599 28
-5.2242765 0.25734955 -7.4679465 28
-7.609642 0.70329916 -5.7110376 28
-3.9645705 0.60835266 -9.3717737 28
-3.0654762 0.77045488 -7.7058377 29
-1.8823318 1.0859807 -8.9151258 29
-1.7046981 1.1122957 -8.5756025 29
-5.6525755 0.20559779 -7.4742126 29
-7.3587799 0.6020689 -9.4939404 29
-6.5609412 0.47630641 -9.4402647 29
-5.2246385 0.27684152 -7.4682112 29
-3.9624414 0.66645837 -9.3733349 29
-7.6079645 0.77025759 -5.7132092 29
-3.0662138 0.83862889 -7.7059097 30
-5.652575 0.21839535 -7.4742131 30
-7.3568892 0.65318727 -9.4920673 30
-6.5603762 0.51543111 -9.4391499 30
-5.2246356 0.29664928 -7.4682121 30
-3.9604757 0.72527099 -9.3747768 30
-7.6079521 0.8385601 -5.7132359 30
-5.6391263 -0.027167365 -7.4877386 10
-5.6391263 -0.014672965 -7.4877377 11
-5.6432991 -0.0038655698 -7.4750347 12
-5.6432996 0.0087070465 -7.4750347 13
-5.6437669 0.0213756 -7.476634 14
-5.0945792 -0.01186344 -7.4717822 14
-5.6437678 0.033786241 -7.4766359 15
-5.0945797 0.0081811175 -7.4717827 15
-5.2681456 0.016167082 -8.9426155 16
-5.3014178 -0.0030300543 -9.3526344 16
-4.8909035 -0.01309327 -9.352232 16
-5.6442442 0.046245039 -7.4782648 16
-6.4171443 -0.0074162856 -9.4265776 16
-5.0946531 0.028161895 -7.471837 16
-5.2745323 0.04155774 -8.9316149 17
-3.8743248 0.0021326244 -9.3433332 17
-4.8909068 0.024247535 -9.3522339 17
-5.3723068 0.041363627 -8.9873381 17
-5.3014212 0.03005816 -9.3526354 17
-7.4369397 0.013488151 -9.124383 17
-6.9985032 0.017000444 -9.4522352 17
-5.6442456 0.058544993 -7.4782686 17
-6.4171453 0.027556241 -9.4265747 17
-5.0946531 0.048087604 -7.471837 17
-3.0496602 0.05197984 -7.6692452 18
-5.277523 0.066283546 -8.926466 18
-4.8907895 0.061534502 -9.3524122 18
-5.3754511 0.06624043 -8.9803791 18
-5.3014483 0.063100815 -9.3525743 18
-7.438333 0.058581598 -9.1253023 18
-6.9974685 0.059600368 -9.4510298 18
-5.6447177 0.070841812 -7.4798832 18
-6.416759 0.062487703 -9.4257431 18
-3.8732271 0.055535994 -9.3441029 18
-5.094727 0.067986265 -7.4718919 18
-7.5890799 0.050294243 -5.6571717 18
-3.04966 0.11459332 -7.6692467 19
-5.2776518 0.090812318 -8.9262486 19
-4.8907919 0.098813996 -9.3524151 19
-5.3755612 0.090867952 -8.9801416 19
-5.3014512 0.096128911 -9.3525772 19
-6.9974718 0.1021351 -9.4510288 19
-5.6447177 0.083081827 -7.4798832 19
-1.7745132 0.1328074 -8.5153246 19
-7.4383335 0.10370956 -9.1252975 19
-1.8931305 0.13203594 -8.8521042 19
-6.4167614 0.097377658 -9.4257412 19
-3.8732276 0.10896065 -9.3441076 19
-5.0947289 0.087874494 -7.4718928 19
-7.5884438 0.11700545 -5.6580005 19
-3.04966 0.17724656 -7.6692476 20
-5.2750278 0.11554638 -8.9307756 20
-4.8907938 0.13611726 -9.3524189 20
-5.3732882 0.1157116 -8.9851828 20
-5.3014541 0.12917806 -9.3525791 20
-5.6447177 0.095329612 -7.4798827 20
-1.7745061 0.22459844 -8.5153275 20
-1.8931348 0.22252063 -8.8521051 20
-6.4167628 0.13228986 -9.4257402 20
-3.8732276 0.16241947 -9.3441124 20
-5.0947313 0.10777524 -7.4718943 20
-7.5884438 0.18375003 -5.6579981 20
-3.0503047 0.23996478 -7.6693239 21
-5.2690325 0.14095506 -8.9411125 21
-5.3686919 0.14118007 -8.9953709 21
-5.3014851 0.16227722 -9.3525085 21
-5.645185 0.10749909 -7.4814806 21
-1.7732353 0.31661683 -8.5154953 21
-1.8955598 0.31300789 -8.8515759 21
-7.4211359 0.20525555 -9.4565582 21
-6.4163628 0.16720346 -9.4248772 21
-3.8721178 0.21604693 -9.3448906 21
-5.0947976 0.12770398 -7.4719434 21
-7.5877638 0.25053862 -5.6588836 21
-3.050303 0.30287451 -7.6693249 22
-5.6451845 0.11976231 -7.4814787 22
-1.7582021 0.41007429 -8.5174484 22
-1.8825541 0.40491772 -8.854435 22
-7.4211349 0.2548618 -9.4565516 22
-6.4163628 0.202245 -9.4248724 22
-3.8721256 0.26976728 -9.3448906 22
-5.0947962 0.14768907 -7.4719424 22
-7.5877614 0.31754613 -5.6588845 22
-3.0509777 0.36594528 -7.669405 23
-5.6456766 0.13188753 -7.4831605 23
-1.756711 0.50313348 -8.5176439 23
-1.8849516 0.49611908 -8.8539114 23
-7.4226875 0.30486625 -9.4578953 23
-6.4159937 0.23732461 -9.424077 23
-3.8710353 0.32382596 -9.3456554 23
-5.0948634 0.16773921 -7.471992 23
-7.5871954 0.38470405 -5.6596212 23
-3.0509782 0.42936969 -7.6694059 24
-5.6456766 0.144214 -7.4831605 24
-1.8060269 0.59123105 -8.5705175 24
-1.8377888 0.59584999 -8.9250059 24
-7.4242716 0.35520488 -9.4592657 24
-6.4155755 0.27251548 -9.4231758 24
-3.8710322 0.37803108 -9.3456631 24
-5.0948663 0.18789037 -7.4719939 24
-7.5871968 0.45225555 -5.6596179 24
-3.0515869 0.49306691 -7.6694784 25
-5.6461344 0.15636641 -7.484725 25
-1.8048224 0.68437356 -8.570694 25
-1.8413675 0.68908137 -8.9241676 25
-7.4242687 0.40561187 -9.4592581 25
-6.415575 0.30801255 -9.4231691 25
-3.8699517 0.43274593 -9.3464203 25
-5.0949159 0.20814857 -7.4720306 25
-7.5864506 0.52001119 -5.6605887 25
-3.0521774 0.55717242 -7.669549 26
-5.6464291 0.16862825 -7.485733 26
-1.8747294 0.77089852 -8.7369671 26
-7.4258447 0.45672387 -9.4606218 26
-6.4151464 0.3435753 -9.4222469 26
-3.8688841 0.48788983 -9.3471699 26
-5.0949602 0.22854283 -7.4720631 26
-7.5856767 0.58816397 -5.6615958 26
-3.0521662 0.62187302 -7.6695485 27
-5.6464281 0.18114604 -7.4857292 27
-1.8747191 0.86429858 -8.7369719 27
-7.425837 0.5079183 -9.4606094 27
-6.415143 0.37956852 -9.4222336 27
-3.8689103 0.54326296 -9.3471565 27
-5.0949526 0.2491072 -7.4720578 27
-7.5856647 0.65703982 -5.6616101 27
-3.052155 0.68715006 -7.669548 28
-5.6464272 0.19377543 -7.4857259 28
-1.8757246 0.95830321 -8.736784 28
-7.4273434 0.56000972 -9.4619122 28
-6.4148374 0.41572452 -9.4215736 28
-3.8677716 0.59944046 -9.3479548 28
-5.094945 0.26985502 -7.4720521 28
-7.5856528 0.72652781 -5.6616235 28
-3.0528684 0.75290066 -7.6696324 29
-5.646358 0.20659034 -7.4854884 29
-1.8649499 1.0561237 -8.7388277 29
-7.4273391 0.61222231 -9.4619036 29
-6.4148388 0.45238525 -9.4215708 29
-3.8677742 0.65590191 -9.3479586 29
-5.0950527 0.2907753 -7.4721317 29
-7.5852518 0.79655153 -5.6621451 29
-3.0528612 0.81953949 -7.6696329 30
-5.6463585 0.21949168 -7.4854889 30
-7.4260554 0.6645577 -9.460783 30
-6.4144473 0.48920232 -9.4207277 30
-3.8677764 0.71298742 -9.3479624 30
-5.0950537 0.31195611 -7.4721322 30
-7.5852442 0.86749262 -5.6621523 30
-5.6586876 -0.019233815 -7.4713964 11
-5.6586847 -0.0062164888 -7.4713893 12
-5.6586819 0.0067166239 -7.4713817 13
-5.6593571 0.019991536 -7.4754839 14
-4.9772663 -0.018118195 -7.4897742 14
-5.6593547 0.032703146 -7.4754806 15
-4.9772587 0.0033213124 -7.4897685 15
-5.2995744 0.019814342 -8.9492741 16
-5.6593528 0.045371324 -7.4754767 16
-4.9637418 -0.0084531307 -9.3674822 16
-5.3631139 0.00060109049 -9.3594427 16
-4.9772511 0.024687659 -7.4897628 16
-5.3047924 0.043631066 -8.9388599 17
-5.6600604 0.058144569 -7.4797721 17
-5.4118538 0.043470044 -8.990737 17
-4.963789 0.026919093 -9.3673916 17
-5.3631749 0.032183722 -9.3592224 17
-3.8984184 0.0037546605 -9.3867493 17
-7.5431066 0.012347393 -9.0021982 17
-7.16045 0.015451007 -9.3636732 17
-4.977109 0.045997754 -7.489665 17
-3.0694518 0.05221346 -7.7531648 18
-5.3071346 0.066836275 -8.9341803 18
-5.6600595 0.070666723 -7.4797773 18
-5.4137735 0.066810057 -8.985466 18
-4.9637823 0.062236518 -9.3673916 18
-5.3631697 0.063710243 -9.3592224 18
-7.5431032 0.058500685 -9.0021963 18
-7.1604476 0.059328489 -9.3636732 18
-3.077528 0.051976509 -7.5183811 18
-3.8984046 0.055817034 -9.3867493 18
-4.9771094 0.067287199 -7.489665 18
-7.5269275 0.049257252 -5.4927349 18
-3.0701764 0.11306863 -7.753232 19
-5.3073487 0.089864045 -8.9337463 19
-5.6604581 0.083149612 -7.4822006 19
-5.4143181 0.089945264 -8.983963 19
-4.9638171 0.097539544 -9.367321 19
-5.3632278 0.095221832 -9.3590136 19
-3.0803552 0.11336751 -7.5189099 19
-7.1595335 0.10317179 -9.3628235 19
-1.8440964 0.13078693 -8.6475668 19
-7.5442781 0.10465568 -9.0028238 19
-7.4913244 0.16339307 -2.0029964 19
-1.940589 0.13043469 -8.9750576 19
-3.8979695 0.10786734 -9.3870573 19
-4.9769831 0.088570513 -7.4895778 19
-7.5268798 0.11908367 -5.4927812 19
-3.0701704 0.17395598 -7.7532263 20
-5.3052626 0.11307266 -8.9378977 20
-5.6604562 0.095619321 -7.4822001 20
-5.4126296 0.11326204 -8.9885798 20
-5.3632231 0.12675171 -9.3590126 20
-4.9638109 0.13286443 -9.3673201 20
-3.0803702 0.17477173 -7.518908 20
-1.8440802 0.22014895 -8.6475573 20
-7.4913101 0.30477619 -2.0029626 20
-1.9405842 0.21915284 -8.9750462 20
-3.8979576 0.15995544 -9.3870554 20
-4.9769821 0.10986852 -7.4895773 20
-7.5268722 0.188954 -5.4927702 20
-3.0701647 0.23494373 -7.7532201 21
-5.3004756 0.13688596 -8.9474354 21
-5.6604548 0.10810957 -7.4821997 21
-4.990139 0.1674422 -9.3667927 21
-5.3632183 0.15833375 -9.3590117 21
-3.0803854 0.23627624 -7.5189066 21
-1.8440628 0.30965871 -8.6475487 21
-7.4912944 0.4463937 -2.0029297 21
-1.9405801 0.30801708 -8.9750347 21
-7.5337658 0.20799793 -9.3606291 21
-3.8979447 0.21212979 -9.3870544 21
-4.9769816 0.13120155 -7.4895768 21
-7.5268645 0.25893992 -5.4927592 21
-3.0708959 0.29603368 -7.7532883 22
-5.6603975 0.12066088 -7.4818645 22
-4.9901791 0.20260319 -9.3667116 22
-3.0833323 0.29770029 -7.5194573 22
-1.8288062 0.40066844 -8.649971 22
-1.92943 0.39805681 -8.9778023 22
-7.4899745 0.58800602 -2.0074067 22
-7.5323572 0.25839657 -9.3595924 22
-3.8974886 0.26448864 -9.3873777 22
-4.9768591 0.15260351 -7.4894919 22
-7.5267816 0.32910207 -5.492856 22
-3.0708926 0.3573927 -7.7532825 23
-5.6603956 0.13323848 -7.481863 23
-3.0833166 0.35952991 -7.5194502 23
-1.8288019 0.4910982 -8.6499596 23
-1.929425 0.48774758 -8.9777918 23
-7.489965 0.73042321 -2.0073538 23
-7.5323477 0.30908477 -9.3595858 23
-3.8974833 0.31700766 -9.3873711 23
-4.9768553 0.17407596 -7.4894896 23
-7.5267763 0.39953193 -5.4928408 23
-3.0716293 0.41894656 -7.7533507 24
-5.6603384 0.145919 -7.4815235 24
-3.0861812 0.42127895 -7.5199857 24
-1.918282 0.57932222 -8.9805565 24
-1.8135643 0.58391726 -8.652379 24
-7.4886551 0.87291908 -2.0117908 24
-7.53092 0.35978743 -9.3585348 24
-3.8970456 0.36984277 -9.387681 24
-4.9767251 0.19566934 -7.4893999 24
-7.5266981 0.47027817 -5.4929314 24
-3.0716281 0.48093203 -7.753345 25
-5.660336 0.15863673 -7.4815211 25
-3.0861375 0.48369569 -7.5199728 25
-1.918277 0.67021763 -8.980545 25
-1.8135743 0.67564785 -8.6523657 25
-7.4886513 1.0167311 -2.0117197 25
-7.5309038 0.41096607 -9.3585243 25
-3.8970475 0.4229241 -9.3876686 25
-4.9767184 0.21737139 -7.4893951 25
-7.5266953 0.54144633 -5.4929123 25
-3.0722413 0.54323137 -7.7534013 26
-5.6602826 0.1714955 -7.4812078 26
-3.0895019 0.54593706 -7.5206027 26
-1.7980196 0.77073205 -8.6548347 26
-1.9070277 0.76373887 -8.9833364 26
-7.4870443 1.1605229 -2.0171871 26
-7.5295496 0.46220344 -9.3575268 26
-3.8964858 0.47648668 -9.3880692 26
-4.9766483 0.23923454 -7.4893465 26
-7.5264606 0.61302865 -5.4932241 26
-3.0722277 0.60611498 -7.7533946 27
-5.6602807 0.18440729 -7.4812059 27
-3.0894868 0.6091876 -7.5205946 27
-1.7980042 0.86418033 -8.6548252 27
-1.9070072 0.85624206 -8.9833298 27
-7.4870105 1.3062985 -2.0172143 27
-7.5282874 0.51378953 -9.3565979 27
-3.8964796 0.53036487 -9.3880625 27
-4.9766445 0.26125693 -7.4893436 27
-7.526444 0.68522918 -5.4932261 27
-3.0729609 0.6693933 -7.7534618 28
-5.6602283 0.19750232 -7.4808989 28
-3.0926297 0.67229402 -7.521183 28
-1.9087832 0.94916129 -8.9828739 28
-1.7976279 0.95854104 -8.6548729 28
-7.4857945 1.4524329 -2.021328 28
-7.528285 0.56610936 -9.3565979 28
-3.8959532 0.58486462 -9.3884373 28
-4.9765611 0.28349668 -7.4892859 28
-7.526401 0.75806201 -5.4932642 28
-3.0729477 0.73345149 -7.7534552 29
-5.6602268 0.21066593 -7.4808984 29
-3.092648 0.73665965 -7.5211816 29
-7.4857645 1.6008705 -2.0213437 29
-7.5282831 0.61895096 -9.3565969 29
-3.8959398 0.63978195 -9.3884363 29
-4.9765606 0.30593795 -7.4892855 29
-7.5263858 0.83163023 -5.4932628 29
-3.073806 0.79798341 -7.7535362 30
-5.6602249 0.22397499 -7.4808979 30
-3.0951509 0.80105793 -7.5216489 30
-7.4857335 1.7509468 -2.0213575 30
-7.5268707 0.67190731 -9.3555565 30
-3.8955717 0.69542408 -9.3886948 30
-4.9764013 0.32867879 -7.4891758 30
-7.52637 0.90601099 -5.4932618 30
-5.6418514 -0.035440758 -7.4913354 10
-5.6418514 -0.022007935 -7.4909816 11
-5.6418505 -0.0086094663 -7.4909792 12
-5.6418509 0.0046599656 -7.4906321 13
-5.64185 0.017906532 -7.4906287 14
-4.8415294 -0.024226464 -7.477685 14
-5.641849 0.03109429 -7.4906259 15
-4.8415251 -0.0013782829 -7.4776797 15
-5.6418486 0.0442186 -7.4902816 16
-5.2817736 0.023106929 -8.9398251 16
-4.9949532 -0.0034142211 -9.3518486 16
-5.3713598 0.0038879216 -9.3495064 16
-4.8412495 0.021373823 -7.477479 16
-5.6418476 0.057337418 -7.4902802 17
-5.2863207 0.045532834 -8.9300356 17
-5.4178457 0.045273617 -8.9873981 17
-4.9949503 0.029871818 -9.3518457 17
-5.3713579 0.034111444 -9.3495026 17
-7.1130738 0.012910657 -9.4283257 17
-7.4589386 0.010756098 -9.0498161 17
-3.8514991 0.0059281588 -9.3540068 17
-4.8412495 0.044096977 -7.4774766 17
-5.6418471 0.070437908 -7.4902792 18
-3.0697765 0.053065386 -7.713819 18
-5.2884202 0.067393236 -8.9255133 18
-5.4194446 0.067343265 -8.9820328 18
-4.9949474 0.063111529 -9.3518419 18
-5.3713555 0.064292893 -9.3494997 18
-7.1130733 0.05857531 -9.4283218 18
-7.4589381 0.057967499 -9.0498114 18
-3.069324 0.052700639 -7.4827437 18
-4.8412495 0.066788368 -7.4774747 18
-3.8514924 0.056528047 -9.354002 18
-7.560647 0.047738604 -5.462883 18
-5.6418462 0.083533391 -7.4902778 19
-3.0697753 0.11212817 -7.7138114 19
-5.2885561 0.089086935 -8.9252148 19
-5.4195447 0.089226931 -8.9816895 19
-4.9949446 0.096338674 -9.3518391 19
-5.3713531 0.094462916 -9.3494968 19
-7.1130733 0.10422273 -9.428318 19
-1.800663 0.13021544 -8.5518284 19
-3.0693228 0.11265026 -7.4827356 19
-7.4589376 0.10516105 -9.0498066 19
-7.5657082 0.16509655 -1.9501057 19
-4.8412495 0.089471035 -7.4774723 19
-3.8514862 0.10710886 -9.3539972 19
-7.560647 0.12094903 -5.4628677 19
-5.6418452 0.096637152 -7.4902768 20
-3.0697739 0.17122827 -7.7138033 20
-5.2867904 0.11094533 -8.9290066 20
-5.4185553 0.11124846 -8.9849968 20
-4.995059 0.12957785 -9.3516169 20
-5.3714232 0.12464128 -9.3492069 20
-1.8006558 0.21821436 -8.551816 20
-3.0693219 0.17263776 -7.482728 20
-1.9119198 0.21677242 -8.9293537 20
-7.5656986 0.30980262 -1.9500923 20
-7.4187326 0.15874088 -9.4348183 20
-4.8412495 0.112168 -7.4774704 20
-3.8514791 0.15772194 -9.3539925 20
-7.5606461 0.19420621 -5.4628534 20
-5.6418457 0.10978302 -7.4899282 21
-3.0705276 0.23038088 -7.7138958 21
-5.2825875 0.13337138 -8.9380426 21
-5.3714209 0.15487373 -9.3492031 21
-4.9950562 0.1628755 -9.351613 21
-1.8010099 0.30633712 -8.5517578 21
-3.0700316 0.23268116 -7.4828787 21
-1.9131489 0.30391535 -8.9290562 21
-7.5659018 0.45478952 -1.9493957 21
-7.4187336 0.20993248 -9.4348135 21
-3.8514874 0.20841771 -9.3539772 21
-4.8409729 0.13492249 -7.4772692 21
-7.560976 0.2676174 -5.4623909 21
-5.6418447 0.12295125 -7.4899273 22
-3.0705173 0.28971988 -7.7138872 22
-5.3714185 0.18518697 -9.3492002 22
-1.7844746 0.39607087 -8.5538464 22
-3.0700216 0.29291213 -7.4828687 22
-1.900151 0.39242804 -8.9320478 22
-7.5658903 0.60013705 -1.9493833 22
-7.4187336 0.26126096 -9.4348097 22
-3.8514805 0.25924969 -9.3539724 22
-4.8409729 0.15772516 -7.4772673 22
-7.5609636 0.34120288 -5.4623919 22
-5.6418438 0.13616808 -7.4899259 23
-3.070507 0.34927821 -7.7138777 23
-1.7844532 0.48514867 -8.5538349 23
-3.0700111 0.35336587 -7.4828587 23
-1.9001372 0.48047674 -8.9320374 23
-7.5658789 0.74602085 -1.9493713 23
-7.4468985 0.31388888 -9.4144955 23
-3.8515348 0.31026173 -9.3539238 23
-4.8409734 0.18061194 -7.4772654 23
-7.5609512 0.41505951 -5.4623928 23
-5.6418438 0.14948881 -7.4895983 24
-3.0713353 0.40901047 -7.7139802 24
-3.0708063 0.41400021 -7.4830284 24
-1.8336837 0.56932777 -8.603837 24
-1.8884053 0.57047284 -8.9347363 24
-7.5660238 0.89265859 -1.948863 24
-7.4468951 0.36589232 -9.4144878 24
-3.8515182 0.36152229 -9.3539257 24
-4.8406887 0.20365119 -7.4770589 24
-7.5614657 0.48937699 -5.4616814 24
-5.6418433 0.16285162 -7.4895988 25
-3.0721779 0.46904606 -7.7140856 25
-3.0716095 0.4749451 -7.4832001 25
-1.8342156 0.65829766 -8.6037483 25
-1.8897316 0.65951616 -8.9344158 25
-7.5660071 1.0400827 -1.9488692 25
-7.4479928 0.41839889 -9.4152708 25
-3.8515763 0.41306484 -9.3538752 25
-4.8403873 0.226842 -7.47684 25
-7.5614605 0.56403017 -5.4616718 25
-5.6418433 0.17636697 -7.4892421 26
-3.0721822 0.52959788 -7.7140775 26
-3.0716133 0.53640878 -7.4831924 26
-1.8331273 0.74813133 -8.6038885 26
-1.8821673 0.75068504 -8.9361506 26
-7.5662222 1.1886415 -1.9481392 26
-7.4479961 0.47108963 -9.4152689 26
-3.8515646 0.4649691 -9.3538742 26
-4.8403897 0.25014222 -7.4768395 26
-7.561934 0.63932991 -5.4610157 26
-5.6418428 0.18993434 -7.4892421 27
-3.0736847 0.59054786 -7.7029276 27
-3.074105 0.59825313 -7.4720497 27
-1.8727119 0.84258527 -8.9211426 27
-1.8168962 0.8412683 -8.5892963 27
-7.5662079 1.3382485 -1.9481359 27
-7.443409 0.52462947 -9.4239178 27
-6.1127701 0.35457897 -9.4048386 27
-3.8478439 0.51735544 -9.3485937 27
-7.5619383 0.71510178 -5.4609928 27
-5.64433 0.20363756 -7.4888864 28
-3.0745482 0.65192592 -7.7030315 28
-3.0749276 0.66056448 -7.4722219 28
-1.8743515 0.93386781 -8.9207458 28
-1.8174462 0.9326517 -8.5891972 28
-7.5925488 1.4887204 -1.9555616 28
-7.4434175 0.57824063 -9.423914 28
-6.1127687 0.38788515 -9.4048328 28
-3.8478942 0.57011628 -9.3485441 28
-4.8426113 0.29732236 -7.4731064 28
-7.5735669 0.79147041 -5.4685326 28
-5.6443291 0.21747054 -7.488884 29
-3.0745578 0.71408629 -7.7030182 29
-3.0749378 0.7236619 -7.4722095 29
-7.592535 1.6411819 -1.9555354 29
-7.4443998 0.63268036 -9.4246149 29
-6.1127672 0.42152354 -9.4048271 29
-3.8478849 0.62341815 -9.3485365 29
-4.8426123 0.32125902 -7.4731021 29
-7.5735798 0.86870325 -5.4684887 29
-5.644331 0.23156108 -7.4884906 30
-3.0752747 0.77674174 -7.7031021 30
-3.075614 0.78727275 -7.4723487 30
-7.5928469 1.7956152 -1.9544854 30
-7.4444027 0.68745273 -9.4246063 30
-6.1125474 0.4553766 -9.4042788 30
-3.8481262 0.67722708 -9.3483515 30
-4.8422236 0.34558868 -7.472816 30
-7.5739021 0.94692957 -5.46803 30
-5.640574 -0.028223693 -7.4957666 11
-5.640625 -0.014008395 -7.4954352 12
-5.6406236 0.00017050654 -7.4954352 13
-5.6406746 0.014238831 -7.4951048 14
-5.6406732 0.028285213 -7.4951053 15
-5.3739972 -0.022263035 -9.3563337 15
-4.7019987 -0.0055115223 -7.4746675 15
-5.6406713 0.042283446 -7.4951062 16
-5.2379928 0.025877979 -8.9504032 16
-4.9862003 0.00052516162 -9.3572235 16
-5.3740187 0.0067573562 -9.3561897 16
-4.7023492 0.018518999 -7.474925 16
-5.6407228 0.056237426 -7.4947729 17
-5.2418981 0.047074314 -8.9407158 17
-5.3930221 0.046703681 -8.9983225 17
-4.9861979 0.032074597 -9.3572206 17
-5.3740158 0.035696812 -9.3561869 17
-7.1130371 0.011109367 -9.447999 17
-7.4534559 0.0085584521 -9.0827742 17
-3.7775474 0.0073019937 -9.3522654 17
-5.3255196 0.047904696 -8.9413147 17
-4.7023449 0.04245827 -7.4749236 17
-5.6407213 0.07018999 -7.494772 18
-3.0564935 0.053718496 -7.7067032 18
-5.2435446 0.067719743 -8.9366283 18
-5.394619 0.067657962 -8.9908276 18
-4.9861603 0.063579261 -9.3572931 18
-5.3740382 0.064597107 -9.3560371 18
-7.4548178 0.0573304 -9.083457 18
-7.1114616 0.058034774 -9.4466896 18
-5.3267188 0.06794969 -8.9373865 18
-3.7764482 0.056726068 -9.3530293 18
-4.7023406 0.066364259 -7.4749217 18
-7.587769 0.046905316 -5.4027066 18
-5.6407709 0.084141813 -7.494453 19
-6.7984557 0.16390248 -1.948792 19
-3.057148 0.11090074 -7.7068057 19
-5.2436738 0.088215835 -8.9363022 19
-5.3946981 0.088361494 -8.9904461 19
-4.986156 0.09507449 -9.357296 19
-5.3740349 0.093481772 -9.35604 19
-7.1114626 0.10487931 -9.4466944 19
-1.7969689 0.12853244 -8.5493345 19
-3.0586479 0.11148576 -7.4816895 19
-7.6498365 0.16684751 -1.9719205 19
-7.4548144 0.10613099 -9.083457 19
-5.326797 0.087855987 -8.9371252 19
-3.7764366 0.1061729 -9.3530331 19
-4.7026644 0.090255588 -7.4751596 19
-7.5869961 0.12335857 -5.4037142 19
-5.640769 0.098105162 -7.4944544 20
-6.7984385 0.30552775 -1.9488025 20
-3.0571437 0.16811348 -7.7068048 20
-5.2421355 0.10887223 -8.9401112 20
-5.3937106 0.10924782 -8.9950657 20
-4.9861512 0.12658986 -9.3572979 20
-5.3740315 0.12238489 -9.3560419 20
-1.8886814 0.21320906 -8.9213686 20
-1.7969539 0.21415049 -8.5493336 20
-3.0586438 0.16964155 -7.4816885 20
-7.649817 0.31304878 -1.9719315 20
-7.4366112 0.16136542 -9.4525957 20
-5.3259416 0.10787936 -8.9399137 20
-3.7764244 0.15565148 -9.3530369 20
-4.7026649 0.11415847 -7.4751616 20
-7.5869908 0.19984981 -5.4037094 20
-5.6407676 0.1120915 -7.4944553 21
-3.0577528 0.22538391 -7.7069001 21
-5.2383118 0.13010934 -8.949584 21
-5.3918505 0.130629 -9.0037737 21
-5.008461 0.15761641 -9.3573589 21
-5.374054 0.15132657 -9.3558903 21
-1.8912072 0.29822451 -8.9207993 21
-1.7955184 0.29999462 -8.5495033 21
-3.0591049 0.22786492 -7.4818034 21
-7.6497965 0.45949072 -1.9719439 21
-7.4382505 0.21434155 -9.4537392 21
-5.3242249 0.12824169 -8.9455214 21
-3.7751617 0.2053023 -9.3539152 21
-4.7030478 0.1380727 -7.4754429 21
-7.5869846 0.27646747 -5.4037051 21
-5.6408215 0.12614392 -7.4941082 22
-3.0577452 0.28283021 -7.7068987 22
-5.0084581 0.18906023 -9.357357 22
-1.8782115 0.3846496 -8.9237041 22
-3.0590975 0.28626153 -7.4818015 22
-1.7802262 0.38727328 -8.5513315 22
-7.6503415 0.60646486 -1.9703145 22
-7.4382429 0.26738515 -9.4537373 22
-3.7751603 0.25502914 -9.3539114 22
-4.7030439 0.16206837 -7.475441 22
-7.5859733 0.3531535 -5.4050293 22
-5.64082 0.14022747 -7.4941077 23
-3.0577374 0.34048864 -7.7068973 23
-1.8781977 0.47060508 -8.9237041 23
-3.0590894 0.34487391 -7.4817996 23
-1.7802203 0.47396103 -8.5513287 23
-7.6503296 0.75388032 -1.970305 23
-7.4382358 0.32062456 -9.4537354 23
-3.7751586 0.30493942 -9.3539085 23
-4.7030396 0.18615276 -7.4754395 23
-7.5859623 0.43022096 -5.4050317 23
-5.6408725 0.15442094 -7.4937701 24
-3.0583999 0.3983331 -7.7070007 24
-1.7627015 0.56330252 -8.5534239 24
-1.8678029 0.55832046 -8.9260273 24
-3.0596066 0.40369415 -7.4819274 24
-7.6508603 0.90220535 -1.9687123 24
-7.4399109 0.37437648 -9.4549046 24
-3.7739098 0.35527873 -9.3547764 24
-4.7034183 0.21029055 -7.4757175 24
-7.5850506 0.50746197 -5.4062223 24
-5.640871 0.16866037 -7.4937687 25
-3.0583975 0.45658082 -7.7070003 25
-1.762712 0.65130258 -8.5534201 25
-1.8677969 0.64542174 -8.9260254 25
-3.0596039 0.46290883 -7.4819274 25
-7.6508512 1.0512092 -1.9686942 25
-7.439909 0.42822278 -9.4549055 25
-3.7739122 0.40574697 -9.3547707 25
-4.703413 0.23461747 -7.4757147 25
-7.5850477 0.58530611 -5.4062138 25
-5.6409178 0.18304957 -7.4934654 26
-3.0590496 0.51510936 -7.7071018 26
-1.7593398 0.74049044 -8.5538206 26
-1.8704395 0.73264462 -8.9254303 26
-3.0601113 0.52243495 -7.4820528 26
-7.6512966 1.2014695 -1.96735 26
-7.4382281 0.48208019 -9.4537382 26
-3.7725232 0.45685184 -9.3557367 26
-4.7038627 0.25901198 -7.4760456 26
-7.5850458 0.6636796 -5.4062057 26
-5.6409163 0.19750491 -7.4934664 27
-3.0590506 0.57419646 -7.7071018 27
-1.857476 0.82357299 -8.9283276 27
-1.8080041 0.82163507 -8.6031208 27
-3.060112 0.5825063 -7.4820533 27
-7.6512766 1.3526907 -1.9673605 27
-7.4382296 0.53667122 -9.453743 27
-3.772512 0.50810349 -9.3557396 27
-4.7038631 0.28368196 -7.4760475 27
-7.5841265 0.74236965 -5.4074063 27
-5.6409144 0.21208885 -7.4934673 28
-3.059051 0.63380921 -7.7071018 28
-1.8574836 0.91298562 -8.9283218 28
-1.807997 0.91082084 -8.6031189 28
-3.0601127 0.64311212 -7.4820542 28
-7.6512566 1.5052574 -1.9673705 28
-7.4382315 0.59174848 -9.4537468 28
-3.7725003 0.55981171 -9.3557434 28
-4.7038636 0.30857137 -7.4760489 28
-7.5841274 0.82202756 -5.4073925 28
-5.6409125 0.22681814 -7.4934683 29
-3.0590522 0.69401586 -7.7071018 29
-1.8414674 1.007293 -8.9319038 29
-1.793057 1.0045698 -8.6051235 29
-3.0601132 0.70432186 -7.4820547 29
-7.651238 1.6593443 -1.9673824 29
-7.4382334 0.64737535 -9.4537516 29
-3.7724884 0.61203569 -9.3557472 29
-4.7038641 0.3337087 -7.4760509 29
-7.5841293 0.90248048 -5.4073782 29
-5.6409574 0.24178919 -7.4931779 30
-3.0597186 0.7547071 -7.7072062 30
-1.8449285 1.0980395 -8.9311247 30
-1.7910383 1.0965447 -8.6053915 30
-3.0606356 0.76606387 -7.4821839 30
-7.6516337 1.8154775 -1.9661779 30
-7.4360585 0.70290661 -9.4522409 30
-3.7710371 0.66530782 -9.3567572 30
-4.7043405 0.35896581 -7.4764004 30
-7.5832376 0.98342675 -5.4085426 30
-5.6499267 -0.034965724 -7.4845905 11
-5.6499295 -0.019782372 -7.4845901 12
-5.6500115 -0.0047384202 -7.4842639 13
-5.6500149 0.01027146 -7.4842625 14
-5.6500177 0.025214657 -7.4842615 15
-5.4433041 -0.019385457 -9.3589973 15
-4.5972862 -0.0080192164 -7.500072 15
-5.6500206 0.040106729 -7.4842601 16
-5.263504 0.02825889 -8.9617548 16
-5.413682 0.028327532 -8.9901562 16
-5.0622644 0.0041625351 -9.370038 16
-5.4433069 0.008772321 -9.3589954 16
-5.3444047 0.030001339 -8.9479065 16
-4.5972886 0.016796365 -7.5000706 16
-5.6500235 0.054962963 -7.4842587 17
-5.2662907 0.04844927 -8.9523602 17
-5.4147882 0.04847404 -8.9806471 17
-5.0622687 0.034216039 -9.3700371 17
-5.4433098 0.036862206 -9.3589945 17
-7.3027468 0.0069116279 -9.3634949 17
-7.5440798 0.0058440864 -8.9861717 17
-3.7688687 0.0086603612 -9.4018965 17
-5.3457022 0.049349755 -8.941577 17
-4.597291 0.041552257 -7.5000687 17
-5.6500263 0.069798514 -7.4842572 18
-3.0682349 0.054983236 -7.7732139 18
-5.2675915 0.068126455 -8.9479799 18
-5.415307 0.068118602 -8.9761944 18
-5.062273 0.064227574 -9.3700352 18
-5.4433131 0.064912871 -9.3589935 18
-7.3027544 0.056493379 -9.3634892 18
-7.5440888 0.056151778 -8.9861679 18
-3.1173143 0.054996878 -7.5309048 18
-5.3463421 0.068352759 -8.9384594 18
-7.5182204 0.044533666 -5.1551285 18
-3.7688782 0.057393879 -9.4018936 18
-4.5972934 0.066273727 -7.5000668 18
-5.6500292 0.084628455 -7.4842558 19
-3.0682406 0.11041206 -7.7732124 19
-5.267704 0.087649375 -8.947607 19
-5.4153533 0.087611593 -8.9758148 19
-5.0622768 0.094227627 -9.3700333 19
-5.4433165 0.092952795 -9.3589916 19
-1.8352201 0.12818515 -8.6603184 19
-1.9367385 0.12776393 -9.0193634 19
-3.1173127 0.11036734 -7.5309005 19
-7.5455022 0.10646138 -8.9867496 19
-5.3464031 0.087245926 -8.9381714 19
-7.5182323 0.12550421 -5.1551304 19
-3.7688885 0.10610868 -9.4018908 19
-4.5972953 0.090985879 -7.5000648 19
-5.6501117 0.099480085 -7.4839287 20
-3.0688982 0.16585195 -7.773304 20
-5.2664461 0.10734397 -8.9518595 20
-5.4151134 0.10719071 -8.9779024 20
-5.4433293 0.12100448 -9.3588276 20
-5.0622582 0.12424911 -9.3700953 20
-1.8340297 0.21186236 -8.6604939 20
-1.9391277 0.21065792 -9.0187626 20
-3.0639274 0.16748178 -7.5547724 20
-7.5453253 0.16302428 -9.3605919 20
-5.3459735 0.10622756 -8.9402819 20
-7.5173893 0.20647052 -5.1563845 20
-3.7677312 0.15490741 -9.4027472 20
-4.5977306 0.1156945 -7.5003605 20
-7.1933813 0.15238273 -9.3628454 20
-5.6501145 0.11435157 -7.4839272 21
-3.068907 0.22139266 -7.7733026 21
-5.2639327 0.12753266 -8.9603472 21
-5.4141541 0.12726626 -8.986187 21
-5.0828047 0.15388402 -9.3695135 21
-5.4433327 0.14910468 -9.3588257 21
-1.8340476 0.29565999 -8.6604919 21
-1.939137 0.29372382 -9.0187616 21
-3.0639362 0.22402754 -7.5547709 21
-7.5453377 0.21727926 -9.3605881 21
-5.3448234 0.12555046 -8.9459133 21
-7.5174046 0.28759179 -5.1563807 21
-3.7677426 0.20376581 -9.4027443 21
-4.5977325 0.14045151 -7.5003586 21
-7.193388 0.20002918 -9.3628397 21
-5.6501174 0.1292628 -7.4839258 22
-3.0689151 0.27708167 -7.7733016 22
-5.0828085 0.18386889 -9.3695116 22
-1.9262726 0.37809971 -9.022006 22
-1.8187938 0.38094631 -8.6627388 22
-3.0639448 0.28072423 -7.5547695 22
-7.5453501 0.27167907 -9.3605852 22
-3.7677536 0.25275442 -9.4027395 22
-7.5174208 0.36892956 -5.1563768 22
-4.5977345 0.16527474 -7.5003562 22
-7.1933947 0.24780262 -9.362834 22
-5.6501207 0.14422916 -7.4839244 23
-3.0689237 0.33297631 -7.7733002 23
-1.9262829 0.46199659 -9.0220051 23
-1.8188126 0.46562797 -8.6627369 23
-3.0639534 0.33763024 -7.5547686 23
-7.5453625 0.32627976 -9.3605824 23
-7.5174365 0.45056775 -5.156373 23
-3.7677643 0.30192369 -9.4027367 23
-4.5977359 0.19018973 -7.5003538 23
-7.1934018 0.29575223 -9.3628273 23
-5.6501236 0.15926619 -7.483923 24
-3.0689325 0.38913479 -7.7732992 24
-1.8035607 0.55267715 -8.6649837 24
-1.913419 0.54798245 -9.0252504 24
-3.063962 0.39480492 -7.5547676 24
-7.5453749 0.38113821 -9.3605795 24
-3.7677748 0.35132486 -9.4027328 24
-7.5174522 0.53259128 -5.1563683 24
-4.5977378 0.21522248 -7.5003519 24
-7.1934085 0.34392789 -9.3628225 24
-5.6501265 0.17438978 -7.4839211 25
-3.0696266 0.44551218 -7.7733955 25
-1.8024251 0.63877738 -8.6651516 25
-1.9157779 0.63270098 -9.0246572 25
-3.0645375 0.45222101 -7.5548978 25
-7.5432734 0.43594268 -9.359314 25
-3.7666402 0.40122414 -9.403573 25
-7.5174685 0.61508685 -5.1563654 25
-4.5981646 0.24032184 -7.5006413 25
-7.1918917 0.39209864 -9.3617182 25
-5.6502008 0.18966827 -7.4836278 26
-3.0696383 0.50236094 -7.7733946 26
-1.8024311 0.72531474 -8.6651506 26
-1.915801 0.71830374 -9.0246525 26
-3.0645509 0.51010126 -7.5548973 26
-7.5432968 0.49143693 -9.3593159 26
-3.766638 0.45128223 -9.4035788 26
-7.5167923 0.69793022 -5.1573744 26
-4.5981727 0.26565665 -7.5006437 26
-7.1919107 0.44083947 -9.361721 26
-5.6502838 0.20508757 -7.4832983 27
-3.0702786 0.55953056 -7.7734838 27
-1.9050932 0.8067562 -9.0273542 27
-1.7795763 0.81708026 -8.6685181 27
-3.0650747 0.56833196 -7.5550151 27
-7.5410695 0.54685175 -9.357976 27
-7.5168138 0.78161079 -5.1573639 27
-4.5985055 0.29111239 -7.5008688 27
-3.8189666 0.49343255 -9.4029875 27
-7.1903234 0.48957372 -9.3605652 27
-5.6502867 0.2205846 -7.4832988 28
-3.070286 0.61732078 -7.7734818 28
-1.905108 0.8940593 -9.0273523 28
-1.7795806 0.90561676 -8.6685181 28
-3.0650828 0.62717366 -7.5550137 28
-7.5410886 0.60321742 -9.357976 28
-7.5160956 0.86574799 -5.1584358 28
-4.5985122 0.31686389 -7.5008702 28
-3.8189678 0.54334158 -9.4029903 28
-7.1903391 0.53908753 -9.3605661 28
-5.6502891 0.2362361 -7.4832993 29
-3.0708849 0.67554164 -7.7735648 29
-1.8945947 0.98488295 -9.0300045 29
-1.8315651 0.98425221 -8.7149715 29
-3.0655608 0.68648422 -7.5551214 29
-7.5388064 0.65949219 -9.3566027 29
-7.5161104 0.95098221 -5.1584339 29
-4.5988684 0.34276864 -7.5011106 29
-3.8180187 0.59404045 -9.403717 29
-7.188714 0.58860189 -9.3593826 29
-5.650373 0.2521522 -7.4829669 30
-3.0708869 0.73454052 -7.7735624 30
-1.8942044 1.0744032 -9.0301037 30
-1.8311062 1.0737262 -8.7150459 30
-3.0655632 0.74655956 -7.5551181 30
-7.5388227 0.71698433 -9.3566017 30
-7.5152941 1.0367628 -5.1596508 30
-4.5988736 0.36905429 -7.501111 30
-3.818023 0.64503253 -9.403718 30
-7.1887279 0.63911319 -9.3593817 30
-5.6216788 -0.026660182 -7.4933534 12
-5.6216779 -0.010474436 -7.4933534 13
-5.6216769 0.0056228787 -7.4933534 14
-5.621676 0.021648683 -7.4933529 15
-5.4800944 -0.017273501 -9.3542557 15
-5.1107574 -0.021265559 -9.3649273 15
-4.4660044 -0.011132747 -7.4917021 15
-5.6216741 0.037619635 -7.4933534 16
-5.2552204 0.029729214 -8.971365 16
-5.1107607 0.0074642673 -9.3649254 16
-5.4800949 0.010283895 -9.3542528 16
-5.3358016 0.032036666 -8.9410172 16
-4.4660029 0.014560174 -7.4917011 16
-5.6216731 0.053552132 -7.4933534 17
-3.0608923 0.0017678365 -7.7527504 17
-5.2573385 0.049301606 -8.9617968 17
-5.4317555 0.049483482 -8.9754009 17
-5.1107907 0.03612826 -9.3648167 17
-5.4800892 0.037781335 -9.3540421 17
-7.1917973 0.0055963546 -9.424037 17
-7.4533424 0.0042937696 -9.0383387 17
-5.3366089 0.050523356 -8.9348965 17
-3.7075775 0.0097097084 -9.3915329 17
-4.4660821 0.040194288 -7.4917574 17
-5.6217813 0.069459915 -7.4930744 18
-3.0608916 0.055311874 -7.7527494 18
-5.2584047 0.068364643 -8.9569817 18
-5.4318247 0.068424977 -8.9708395 18
-5.1107912 0.064746365 -9.3648167 18
-5.4800901 0.065229245 -9.3540401 18
-7.1917934 0.056489877 -9.4240408 18
-7.4533358 0.056163725 -9.0383396 18
-3.0689859 0.054941379 -7.5070276 18
-5.3369942 0.068679266 -8.9319773 18
-3.707576 0.057543922 -9.3915329 18
-4.4660826 0.065787472 -7.4917579 18
-7.5364246 0.044558953 -5.1878958 18
-5.6217799 0.085370906 -7.4930754 19
-3.0608916 0.10883553 -7.7527485 19
-5.2584987 0.087261923 -8.9565592 19
-5.4318314 0.087212637 -8.9704323 19
-5.1107922 0.093353622 -9.3648167 19
-5.4800906 0.09266676 -9.3540382 19
-1.7664182 0.12712601 -8.5964575 19
-3.0689917 0.10942562 -7.5070286 19
-7.4533291 0.10801396 -9.0383425 19
-7.0216331 0.10537238 -9.4204578 19
-5.3370328 0.086733162 -8.9316902 19
-3.7075746 0.10536006 -9.3915329 19
-4.466083 0.091370858 -7.4917588 19
-7.5364184 0.12739909 -5.1878977 19
-5.621779 0.10129196 -7.4930758 20
-3.0608904 0.16239312 -7.752748 20
-5.2576389 0.10631353 -8.9604464 20
-5.4317765 0.10614375 -8.9741096 20
-5.1107931 0.12197907 -9.3648167 20
-5.4800911 0.12012172 -9.3540373 20
-1.766413 0.20990673 -8.5964565 20
