# .PCD v0.7 - Point Cloud Data file format
VERSION 0.7
FIELDS x y z intensity
SIZE 4 4 4 4
TYPE F F F F
COUNT 1 1 1 1
WIDTH 1275
HEIGHT 1
VIEWPOINT 0 0 0 1 0 0 0
POINTS 1275
DATA ascii
2.138597 0.26505095 -5.6697569 20.5
2.1384497 0.27210122 -5.8570299 20.5
-0.93275702 0.53714514 -4.3879175 29
2.1367326 0.67054611 -5.6718135 25
2.136565 0.64492047 -5.8545389 24.5
2.1341903 1.0390363 -5.6642551 29
2.1343665 1.0265378 -5.8516302 28.5
-1.5042479 -0.047452956 -3.7075942 15
-1.1194417 0.00979577 -3.9018421 16.5
-0.26622188 -0.047463492 -4.1998343 15
0.040290058 -0.047445022 -4.1522741 15
0.70682812 -0.047616556 -4.6279254 16
2.1404369 0.024661709 -5.2430782 17.75
-1.0441685 0.26776063 -3.9199114 24
2.1387329 0.30308372 -5.2785864 21.125
-1.045002 0.47836804 -3.9214678 30
2.136863 0.6811232 -5.2553177 25.692308
2.1347332 0.98464894 -5.3139162 29.125
-1.2108399 -0.04734356 -3.3096485 13.5
-1.034276 -0.047312468 -3.3591821 13
-0.17214051 -0.047397368 -3.7567229 13.75
0.1627636 -0.047418833 -3.9226339 14.5
0.53509188 -0.047402821 -3.9413252 15
0.97241366 -0.047580451 -4.474329 16
1.2550486 -0.047532111 -4.2429738 16
2.1404982 0.022943638 -4.7605639 17.666666
2.140496 0.046760172 -4.9241915 18
2.139035 0.2706911 -4.7596264 21
2.1389065 0.27715105 -4.9226856 21
2.1370468 0.66665459 -4.7493038 26.272728
2.1369948 0.66706401 -4.9277716 26
2.1354122 0.92147523 -4.7801948 29.5
2.1351418 0.95476294 -4.9706907 29.5
-0.93506676 0.0067218766 -2.8539991 13.7
-0.86892104 -0.0056799054 -2.977562 12.565217
-0.26764032 -0.047268279 -3.2089672 9.3999996
-0.053552717 -0.047282644 -3.4214973 12.2
0.31957924 -0.047360629 -3.5622883 13.75
0.78793395 -0.047373891 -3.735122 15
1.4553 -0.047489926 -4.0211449 16
2.1404235 0.026453432 -4.3891878 17.666666
-0.93760538 0.16597103 -2.8508716 24.5
-0.93675065 0.17417568 -2.9787021 24.5
2.138922 0.29063952 -4.3639479 21.5
2.136919 0.69169819 -4.3767004 27.214285
2.1354446 0.89886749 -4.4117007 30
-0.91690129 0.0019550174 -2.5317833 12.705882
-0.49323899 -0.045611501 -2.6534176 19.41115
-0.27048934 -0.04555463 -2.7362227 20.074205
0.1026485 -0.047264308 -2.9771838 9.0769234
0.44651496 -0.047299974 -3.1467626 12.666667
0.79871702 -0.04737094 -3.2846828 14.25
1.1129113 -0.047419243 -3.2972753 15
1.6623716 -0.047582053 -3.7190516 16
2.1037817 0.02153777 -3.8057604 17.5
2.1402512 0.018176578 -4.0810242 17.5
-0.93921131 0.16111332 -2.5231693 24.5
2.1028984 0.26694319 -3.7837319 21.5
2.138864 0.27730024 -4.019269 21.5
2.1011341 0.64194757 -3.788286 27.5
2.1369808 0.671767 -4.0181627 27.5
-0.93666041 0.017765366 -1.9538755 15.5
-0.84802854 -0.012316942 -2.1789455 12.153846
-0.38315719 -0.045494623 -2.4568181 15.132814
-0.19597554 -0.045551486 -2.5449047 14.914416
0.22022575 -0.04727263 -2.7088923 9
0.58805567 -0.047326796 -2.8289227 12.8
1.0246818 -0.047425039 -2.9747756 14.5
1.8272364 -0.047608048 -3.3205929 16
2.0768113 0.0303078 -3.4641144 17.6
-0.9375031 0.20605665 -1.9491279 24.76923
-0.93873346 0.18950155 -2.1393137 24.884615
2.074846 0.29510957 -3.4921906 22.136364
2.0776281 0.6453712 -3.4971545 28
-1.2867095 -0.047065437 -1.3138292 15
-0.95227629 -0.0073079243 -1.7609496 15
-0.60179156 -0.047244206 -1.8719656 11.5
-0.27489173 -0.04721801 -2.0003929 9.75
0.097750783 -0.047220275 -2.1542647 10.2
0.38164347 -0.047244959 -2.3595977 11.5
0.8484118 -0.047289826 -2.449389 14
1.2486832 -0.047342002 -2.6237454 15
2.0467923 0.015023772 -2.9491158 17.25
2.0860028 0.026055522 -3.1446781 17.5
-0.93676448 0.20878026 -1.8708321 24.5
2.0904245 0.27809072 -2.9547353 22
2.0848012 0.28009284 -3.1537001 22
2.0893121 0.62035507 -2.954649 28
2.0835564 0.62576967 -3.1535022 28
-1.7703454 0.027517427 -0.63994312 17.5
-1.6827132 -0.046964899 -0.762043 16
-1.1302569 -0.047043271 -1.217586 15
-0.83695048 -0.047088318 -1.2871356 14.5
-0.44805354 -0.047149412 -1.4587855 13.75
-0.070350826 -0.047170304 -1.6189468 13.166667
0.25649852 -0.047174744 -1.7722147 13.25
0.57187819 0.010807134 -2.0188727 15.8125
0.79894602 0.022833221 -2.1916544 16.5
1.2161072 -0.047265194 -2.3146355 15
1.914192 -0.047302134 -2.370069 16
2.0429583 0.0020833388 -2.6365771 17
-1.7701546 0.27556723 -0.64023042 22
0.57903636 0.23577392 -2.0180745 24.578947
0.78789055 0.24718283 -2.195997 24.5
2.0994554 0.27721754 -2.6245646 22
-1.7697732 0.6131587 -0.64079046 28
2.0984838 0.62317669 -2.6270607 28.09091
-1.7670428 0.038144931 -0.40717411 17.75
-1.3814671 -0.046924531 -0.58639312 16
-0.62725049 -0.046998031 -1.0454761 15
-0.16652137 -0.046986379 -1.0336599 15
0.1692301 -0.046997942 -1.1153553 15
0.45564938 -0.04702244 -1.2475997 15
0.80014443 -0.047079511 -1.5202929 15
1.8621216 -0.047233716 -2.0935497 16
2.1099167 0.031658947 -2.2393255 17.6
-1.7672544 0.28874511 -0.44208503 22
2.1093378 0.28090617 -2.2417991 22
-1.7664158 0.64183533 -0.42050576 27.82353
2.1087043 0.62781852 -2.241955 28
-1.7586269 0.01383147 0.1665771 17.5
-1.7619669 0.050929833 -0.058294535 18
-0.82418782 -0.046874844 -0.3932116 16
-0.52486891 -0.0468596 -0.34690714 16
2.1183438 0.034221839 -1.8873303 17.666666
-1.7585949 0.29392499 0.13383174 21.5
-1.7615399 0.28236029 -0.059090614 21.5
2.1185408 0.28869671 -1.8641114 22
-1.7576845 0.65157998 0.14833617 26.5
-1.7608278 0.68658143 -0.060420036 27.5
2.1181664 0.6487183 -1.8642843 28
-1.7571313 0.90664774 0.13906693 30
-1.7542379 0.047114603 0.45747662 18
-0.24606669 -0.046854213 -0.34581113 16
0.046229661 -0.046857692 -0.3858211 16
0.47292316 -0.046876088 -0.50269461 16
0.79770756 -0.046906509 -0.6614635 16
1.0938107 -0.046949677 -0.86957383 16
-1.753665 0.27632067 0.45619702 21
-1.7528749 0.68139768 0.44984508 26.25
-1.7519405 0.94436008 0.46609116 29.5
-1.7452652 0.042643391 1.042917 18
-1.7491142 0.0033118725 0.79329562 17.5
-1.7445226 0.26375535 1.0409462 20.5
-1.74788 0.2963444 0.82577777 21
-1.74369 0.66563219 1.0387256 25
-1.7470275 0.6784007 0.82364273 25.5
-1.7425303 1.031679 1.0356483 29
-1.7460294 1.0054402 0.8211534 29.25
-1.7428195 0.041417722 1.2007668 18
-1.4012697 -0.046297491 1.1703765 17
-1.7392411 0.27869123 1.373122 20.5
-1.7383598 0.65160608 1.3790612 24.363636
-1.7366439 1.0692914 1.3967574 28.555555
-1.7341657 0.037066668 1.7550247 18
-0.9314307 -0.046263352 1.2708278 17
-0.65019941 -0.046251141 1.3014777 17
2.1592097 0.015850957 0.12112784 17.666666
2.1533833 0.0067446977 -0.19234014 17.5
-1.7314354 0.30084068 1.8606665 20.5
2.1592143 0.29592216 0.094892025 21
2.1541147 0.28424662 -0.17390132 21
-1.7308438 0.70189023 1.8423827 24.285715
2.1580796 0.70819265 -0.00026631355 26
2.1546955 0.68692088 -0.17339349 26
-1.7289953 1.0796301 1.8690045 27.714285
2.1591506 0.97059399 0.028764963 29
2.1551781 0.97697997 -0.17296481 29.5
-1.7281973 1.3308829 1.8500607 30
-0.69025099 0.03815347 1.8282516 18
9.0479851e-05 -0.046245009 1.2950513 17
0.30886292 -0.046253197 1.2543015 17
0.77666211 -0.046281017 1.1412611 17
1.2292969 -0.046324804 0.9768877 17
1.4846675 -0.046359085 0.85344577 17
1.7786279 -0.046407953 0.68159127 17
2.1133614 0.012831792 0.43572497 17.666666
-1.7259625 0.25998583 2.2079995 20
2.1656742 0.28527743 0.44171524 20.700001
-1.7251796 0.65864903 2.2052147 23.5
2.1659155 0.67192072 0.42163014 25
-1.7235982 1.0633204 2.1996291 27
2.1671162 1.0321977 0.43812609 28.846153
-1.7210404 1.4015719 2.2826293 29.666666
-0.30550659 0.038320012 1.8210642 18
0.046714664 0.038226727 1.8141944 18
2.1702363 0.040259734 0.73087811 18
-1.7193979 0.27435309 2.6148312 20
2.1746047 0.18706417 0.9472425 19.5
2.1719508 0.28180745 0.78678536 20.5
-1.7189103 0.67449117 2.5909822 23.285715
2.1745896 0.67936933 0.89348817 24.5
-1.7170944 1.0755978 2.605984 26.5
-0.64534557 1.0733188 2.1435812 27.5
2.1789386 1.0640851 1.0652497 28
2.1757736 1.0851978 0.89507818 28.5
-1.7147424 1.4115437 2.6736076 29
-0.64512658 1.356306 2.140043 30
-1.7131091 0.026407234 3.0871451 18
2.1803617 0.036293816 1.3063991 18
-1.7118345 0.29092962 3.0817831 20
2.1802182 0.29827136 1.2479367 20.5
-1.7109799 0.68931228 3.0781729 23
2.1809716 0.69332337 1.249028 24.25
-1.7096074 1.0924712 3.0723875 26
2.1826763 1.0720506 1.2773874 27.714285
-1.7079226 1.504099 3.0652969 29
2.1831303 1.320666 1.2522483 30
-1.7059805 0.30378771 3.44227 20
2.1872211 0.25846612 1.6492951 20
-1.7050538 0.72589964 3.4380925 23
2.1879458 0.6542514 1.6504557 23.5
-1.7038052 1.0810671 3.4324782 25.5
2.1894579 1.0575311 1.6529429 27
-1.7024622 1.4424795 3.4264414 28
2.1903024 1.3530629 1.654321 29.5
-1.7009807 1.736277 3.4197934 30
-1.3446028 0.019150242 4.0457792 18
-1.5616806 0.27130806 3.9812567 19.666666
-1.5301826 0.64167821 4.0103045 22.09091
-1.5437727 1.088112 3.994262 25
-1.5433187 1.4786817 3.9919808 27.5
-1.5429449 1.7976511 3.9900725 29.5
-1.2464406 0.39854878 4.0431471 20.5
-1.1245878 0.70176369 4.0406837 22.5
-0.49787617 0.69683605 4.0295181 22.5
-1.1164205 1.0854765 4.0397072 25
-0.50584531 1.0777243 4.0286503 25
-1.1001933 1.4749918 4.0386858 27.5
-0.52180886 1.4647274 4.0280333 27.5
-1.2460446 1.8789935 4.0401373 30
-1.0879083 1.7929442 4.0376616 29.5
-0.5217824 1.7807641 4.0270748 29.5
1.2795378 0.021464612 3.6321619 18
0.48553801 0.17043121 4.0119429 19
0.53393853 0.39714888 4.0104284 20.5
-0.12305593 0.69657934 4.0225449 22.5
0.29250455 0.69836485 4.014595 22.5
0.5338701 0.70052481 4.0098553 22.5
-0.12309027 1.0772092 4.0214186 25
0.29239178 1.0800661 4.0133448 25
0.53370452 1.0835369 4.0085344 25
-0.12312078 1.4638128 4.0203876 27.5
0.2922883 1.4677432 4.0121889 27.5
0.53355122 1.4725375 4.0073061 27.5
-0.12315369 1.7796113 4.0193176 29.5
0.29218054 1.7844051 4.0110044 29.5
0.53339267 1.7902722 4.0060549 29.5
0.77760983 0.019299287 4.0073299 18
0.80703139 0.29249561 4.0053473 19.799999
1.1605316 0.24855913 3.9984381 19.5
1.4928818 0.27648258 3.9915798 19.666666
0.84610605 0.65865618 4.0036077 22.200001
1.1477376 0.63262784 3.9974558 22
1.5266368 0.6397652 3.9895484 22
0.8262521 1.0896143 4.0025854 25
1.1474115 1.0982404 3.9959352 25
1.5176082 1.1109282 3.9881017 25
0.82603097 1.4809417 4.0012693 27.5
1.147107 1.4928761 3.9945214 27.5
1.5129038 1.5102305 3.9866717 27.5
0.8061825 1.8158787 4.0002193 29.6
1.146798 1.8151915 3.9931009 29.5
1.4996128 1.8356333 3.9854314 29.5
1.8902156 0.017170139 3.9846828 18
2.5418766 0.015282881 3.9707739 18
1.8373032 0.25289202 3.9843619 19.5
2.1209614 0.25517106 3.9782965 19.5
2.4854336 0.25843447 3.9703982 19.5
2.0495405 0.65221548 3.978358 22
2.4847915 0.66457403 3.9688404 22
2.0490694 1.0531137 3.9769981 24.5
2.4841945 1.0740569 3.967386 24.5
1.6795406 1.4386572 3.9830506 27
2.0438879 1.460183 3.9752715 27
2.4558563 1.4600669 3.9663327 26.833334
1.6790769 1.8475713 3.9814742 29.5
2.0477412 1.8761678 3.9732172 29.5
2.4825056 1.9146721 3.96332 29.5
3.1211708 0.013248194 3.9580834 18
2.8269408 0.26188856 3.9628789 19.5
3.2719955 0.26684833 3.9529393 19.5
2.8261819 0.67571402 3.9612405 22
3.2710721 0.69171321 3.951195 22
2.8254759 1.0929369 3.9597108 24.5
3.2702141 1.1200541 3.9495704 24.5
2.6512661 1.6724936 3.9603684 28
2.8248017 1.4312397 3.9582603 26.5
3.2693913 1.4673586 3.9480212 26.5
2.8817613 1.8903648 3.9542997 29.125
3.2683036 1.8202236 3.9459903 28.5
3.2973385 2.0927854 3.9432914 30
0.43599319 -0.047702968 -6.5009928 17.162001
-2.0371766 -0.047286324 -4.1333165 16.011499
1.8975456 -0.047704197 -5.8884468 17.150499
-0.95313811 -0.047224388 -3.6712329 14.0025
0.34903717 -0.047363482 -4.054945 15.155
1.1122291 -0.047538117 -4.3787565 16.148001
-0.73124123 -0.047268704 -3.1007264 10.007375
-0.40319341 -0.047262192 -3.1829813 9.5993567
-0.15737031 -0.047293134 -3.2120647 10.1595
0.76756549 -0.047372788 -3.7709098 15.146
1.478722 -0.047518432 -4.0028906 16.1415
-0.89851725 -0.047347218 -2.67435 9.0284996
-0.133883 -0.047200032 -3.0680401 8.1560001
0.054678857 -0.047264934 -3.0345969 9.3467999
0.55524474 -0.047300473 -3.0676386 13.1365
0.93825853 -0.047375455 -3.5832806 15.1415
1.6919615 -0.047496848 -3.6716561 16.136499
-0.79245824 -0.047293626 -2.0859704 10.485143
0.29767418 -0.047327474 -2.7052932 10.1275
0.52669954 -0.047263332 -2.9363284 12.633249
-0.56664598 -0.047428675 -1.7934015 12.0695
0.057348073 -0.047339335 -2.0894961 9.7623339
0.53033739 -0.047323406 -2.3742001 12.365499
0.84325624 -0.047352031 -2.5163422 13.870625
-0.33780336 -0.047378018 -1.3530014 14.0775
-0.13246091 -0.047430292 -1.7696599 12.0845
0.3487283 -0.047387928 -1.8042743 13.098
0.50230521 -0.047367439 -1.9117316 13.436501
1.2041776 -0.04736127 -2.1200528 15.114
1.2597599 -0.047366962 -2.3672972 15.1185
-0.33845681 -0.047292799 -0.98454785 15.0775
-0.038691163 -0.04738389 -1.3890206 14.0845
0.5020327 -0.047356181 -1.4405326 14.5955
0.71872663 -0.04733368 -1.3771459 15.098
0.019240379 -0.047294334 -0.33316731 16.082001
1.2836884 -0.047345929 -0.97502697 16.1
-0.34259307 -0.046966925 1.3476031 17.077499
-0.73196876 0.24093819 1.9164774 20.075001
-0.74894702 0.46144786 2.1097658 22.075001
-0.18204558 0.24040256 1.9141104 20.078499
0.044378519 0.2407451 1.9131362 20.08
-0.74890804 0.67665046 2.1093934 24.075003
3.1364827 -0.027649991 -3.2324648 14
4.05831 -0.0071919113 -3.4380417 15
4.3979363 -0.006575644 -3.2607102 15
4.2533779 -0.00030343235 -3.2572665 15
3.1338549 -0.0050599799 -1.5830028 15
3.1365151 -0.0039820969 -3.2324119 15
4.0581756 0.017417323 -3.4376063 16
4.3969789 0.017920256 -3.2594569 16
4.2529135 0.022286993 -3.2564893 16
3.1338537 0.018771235 -1.5830009 16
3.1365142 0.019598883 -3.2324071 16
4.0580349 0.041947644 -3.4371495 17
4.3960485 0.04228501 -3.2582374 17
4.2524562 0.04478205 -3.2557237 17
3.1338997 0.042547427 -1.5830665 17
3.1365318 0.043123893 -3.2323749 17
4.0580325 0.066418462 -3.4371498 18
4.3960485 0.066534251 -3.2582395 18
3.3354816 0.04354322 -6.1891766 18
4.2524548 0.067198396 -3.255724 18
3.1338971 0.066285878 -1.5830634 18
5.4261212 0.050671365 -0.047299862 18
3.1365294 0.066614151 -3.2323713 18
3.3354678 0.1295526 -6.1891804 19
4.396049 0.090774566 -3.2582417 19
3.7854142 0.15606111 -8.0748577 19
4.9926376 0.15715437 3.2932653 19
4.8758278 0.16769651 4.089746 19
4.2524538 0.089606389 -3.2557244 19
3.1339197 0.090014637 -1.5830963 19
5.4261141 0.11632676 -0.047286272 19
3.1365266 0.090095416 -3.2323678 19
4.0578909 0.11534014 -3.4366994 20
3.3355472 0.21558511 -6.1883178 20
4.3950839 0.11497193 -3.2569768 20
4.6046424 0.28655559 -8.075613 20
3.7853894 0.28406394 -8.0739822 20
4.9909897 0.2889525 3.2858272 20
4.8759561 0.31692979 4.0906358 20
4.2519832 0.11199503 -3.2549369 20
3.1339154 0.11375808 -1.583091 20
5.4261212 0.18202493 -0.047251463 20
3.1365538 0.11358964 -3.2323227 20
4.0578871 0.1398471 -3.4366951 21
3.3355348 0.30177179 -6.1883073 21
4.3950806 0.13923191 -3.2569737 21
4.6046233 0.41623613 -8.0755978 21
3.7853706 0.41229022 -8.073967 21
4.9892516 0.42059901 3.2779784 21
4.8759341 0.46639711 4.0906615 21
4.2519803 0.13443366 -3.2549341 21
3.1339114 0.13754076 -1.583086 21
5.4261103 0.24783096 -0.047243357 21
3.1365499 0.13712345 -3.232321 21
4.0577435 0.16437998 -3.4362302 22
3.3356183 0.38811508 -6.1874046 22
4.3941979 0.16343772 -3.2558174 22
4.6044664 0.54618728 -8.0746698 22
3.7853453 0.54078406 -8.07304 22
4.9855833 0.55149436 3.2612891 22
4.8759127 0.61626345 4.0906873 22
4.1274915 0.15744449 -3.3227024 22
4.2515063 0.15685675 -3.2541404 22
3.1339374 0.16138276 -1.5831232 22
5.4260988 0.31381255 -0.04723525 22
3.1365714 0.16071655 -3.2322836 22
4.0577388 0.18903175 -3.436223 23
3.3356071 0.47482923 -6.1873813 23
4.3941913 0.18781886 -3.2558103 23
4.6044445 0.67667121 -8.0746346 23
3.7853265 0.66980469 -8.0730057 23
4.1274867 0.18017125 -3.3226964 23
4.2515011 0.17941707 -3.2541342 23
3.1339321 0.18531607 -1.5831168 23
5.4261131 0.38004228 -0.04719162 23
3.1365664 0.18439957 -3.2322834 23
4.0576205 0.21374968 -3.4358406 24
3.335686 0.56184459 -6.1865196 24
4.3934507 0.21216029 -3.2548401 24
4.60429 0.80765748 -8.0737247 24
3.7853012 0.79932451 -8.0721159 24
4.1272335 0.2029224 -3.3220911 24
4.2510304 0.20196766 -3.2533464 24
3.1339636 0.2093544 -1.5831621 24
5.4260988 0.44658029 -0.047186375 24
3.1366389 0.2081776 -3.2321749 24
4.0576167 0.23865148 -3.4358368 25
3.3356748 0.64944851 -6.1864948 25
4.3934431 0.23676899 -3.2548318 25
4.6042676 0.93948919 -8.0736876 25
3.7852821 0.92967832 -8.0720787 25
4.1272292 0.22587281 -3.3220863 25
4.2510252 0.22474363 -3.25334 25
3.1339617 0.23353711 -1.5831597 25
5.4261208 0.51351011 -0.047131062 25
3.1366367 0.23210579 -3.2321703 25
4.0576129 0.26372248 -3.4358335 26
3.3872511 0.74278927 -6.2215643 26
4.393436 0.26154464 -3.2548239 26
4.1272249 0.24897903 -3.3220811 26
4.25102 0.24767417 -3.2533336 26
3.1339593 0.257884 -1.5831571 26
5.4261146 0.58088875 -0.047115564 26
3.1366346 0.25619644 -3.2321661 26
4.0576091 0.28899005 -3.4358294 27
3.387243 0.83236039 -6.2215018 27
4.3934288 0.28651431 -3.2548161 27
4.1272206 0.27226639 -3.3220761 27
4.2510147 0.27078441 -3.2533274 27
3.1339746 0.28241578 -1.5831792 27
5.4261084 0.6487962 -0.04709959 27
3.1366324 0.28047594 -3.2321615 27
4.0574617 0.31437311 -3.4353507 28
4.3927393 0.31145808 -3.2539134 28
4.1269608 0.29561403 -3.3214555 28
4.2505627 0.29390782 -3.2525713 28
3.1339698 0.30717203 -1.5831734 28
5.4260941 0.7173053 -0.047094584 28
3.1366277 0.30497244 -3.2321606 28
4.057457 0.34010747 -3.4353447 29
4.3927341 0.33687472 -3.2539079 29
4.1269565 0.31932694 -3.3214505 29
4.2505584 0.31743553 -3.2525663 29
3.1339653 0.33217511 -1.5831673 29
5.4260807 0.78649777 -0.047087908 29
3.1366229 0.32971314 -3.2321594 29
4.0574527 0.36612594 -3.4353387 30
4.3927288 0.36257213 -3.2539024 30
4.1269522 0.34330168 -3.3214455 30
4.2505536 0.34122312 -3.2525616 30
3.1339605 0.35745463 -1.5831614 30
5.4260683 0.85645461 -0.04708004 30
3.1366184 0.35472733 -3.2321582 30
4.6370778 0.31565747 4.0899019 20
4.400116 0.31456384 4.089458 20
3.3235812 0.31368437 4.0877366 20
3.0412064 0.31454876 4.0872207 20
4.9968681 0.76912391 4.0918798 23
4.6371274 0.6881476 4.0907254 22.5
4.4001384 0.68542439 4.090281 22.5
3.3234668 0.68348551 4.0887375 22.5
3.0410511 0.68575609 4.0882235 22.5
5.3705382 1.0756783 4.0229321 25
5.0213313 1.0745243 4.0926161 25
4.6372237 1.0649796 4.0918937 25
4.4001946 1.0606072 4.0914454 25
3.323354 1.0575575 4.0897055 25
3.0408998 1.0612494 4.0891857 25
5.3705645 1.4625695 4.0233407 27.5
5.0214128 1.4610701 4.0933876 27.5
4.6372643 1.4478598 4.0926647 27.5
4.4002099 1.4418125 4.0922151 27.5
3.323236 1.5150323 4.0905738 28
3.0596514 1.4889121 4.0900831 27.799999
5.3593979 1.7976749 4.0377016 29.6
5.0214415 1.7769744 4.0938196 29.5
4.6372709 1.7607691 4.0930982 29.5
4.4002028 1.7533531 4.0926509 29.5
3.3231885 1.8266966 4.0906529 30
3.0092068 1.7816162 4.0900674 29.666666
5.4264317 0.80092442 3.601264 23.5
5.4263864 1.0885681 3.6013012 25.5
5.426321 1.4545176 3.6013203 28
5.4262567 1.7529739 3.601295 30
5.4264874 0.024407271 3.2839842 18
5.3397098 0.29226393 3.2893095 20
5.1129398 0.28890148 3.255578 20
5.3572717 0.66951811 3.2893381 22.799999
5.0906715 0.61925888 3.2527995 22.5
5.4263463 1.1084697 3.2842245 26
5.4262571 1.5288489 3.2841997 29
5.4263964 0.27835575 2.8651991 20
5.4263473 0.65599942 2.8652821 23
5.4262938 1.0722067 2.8466458 26.285715
5.426219 1.4631346 2.8916011 29.200001
5.4263487 0.26548615 2.4938431 20
5.4262981 0.67866033 2.4939404 23.5
5.4262466 1.0991175 2.4940381 27
5.4261808 1.4070395 2.494029 29.5
5.4263201 0.034359753 2.0690231 18
5.426302 0.28490847 2.1564593 20.285715
5.4262643 0.66844261 2.185688 23.714285
5.4262104 1.0689309 2.156652 27.285715
5.4261565 1.3565444 2.2051935 29.666666
5.4262424 0.28729758 1.6668739 20.5
3.1347661 0.27915362 1.7874827 20.5
5.4262071 0.68860036 1.6560326 24.5
3.1347232 0.66748673 1.7874517 24.5
5.4261551 1.0761424 1.6921926 28.200001
3.1346626 1.0657109 1.7875361 28.5
5.4261279 1.3150187 1.8804417 30
5.3280087 -0.017540261 1.1899734 17.333334
5.4262028 0.27045554 1.2831545 20.5
3.1346836 0.26074168 1.3973284 20.5
5.4261732 0.66632247 1.2622375 24.799999
3.1346445 0.65887773 1.3972757 25
5.4261208 1.0451988 1.2983806 28.714285
3.1345892 1.0221655 1.3973503 29
5.4261875 0.043654032 0.89595008 18
5.4261656 0.29596612 0.8960216 21
3.1345928 0.2777181 0.93368101 21
5.4261389 0.69980168 0.88009977 25.777779
3.1345601 0.66947985 0.93361211 26
5.426096 0.98663193 0.90560794 29
3.1345158 0.95156884 0.9336772 29.5
5.4261284 0.020929147 0.51226926 17.666666
3.1345236 0.048994198 0.55881429 18
5.426137 0.27520537 0.49710464 21
3.1345186 0.29068467 0.55870628 21.5
5.426116 0.67973244 0.49340677 26.25
3.1344898 0.67693669 0.55863595 27
5.4260759 0.9416889 0.5087657 29.5
3.134454 0.89410162 0.55869293 30
5.4261036 0.027420755 0.07888341 17.666666
3.1344502 0.051819947 0.22294259 18
5.4261141 0.28964445 0.10188985 21.5
3.1344478 0.28197914 0.20668697 21.76923
5.4261017 0.67503989 0.11475277 27
3.134429 0.64571732 0.22941208 27.5
5.4260654 0.90803057 0.18448615 30
5.4260941 0.032388616 -0.31095457 17.666666
4.7273407 -0.047528602 -0.35880017 16
4.545969 -0.047552757 -0.28341889 16
3.1343362 0.039763972 -0.27166247 17.666666
5.4261122 0.28263307 -0.30471396 21.76923
3.1343551 0.27643105 -0.22791982 22.266666
5.4261026 0.64363921 -0.28650141 27.5
3.1343422 0.60266304 -0.22181702 28.4
5.4260912 0.028360039 -0.72059619 17.5
5.1367707 -0.047462836 -0.60733557 16
3.1342487 0.037033603 -0.61120284 17.5
5.4261265 0.2865499 -0.70845282 22.266666
3.1342645 0.28696966 -0.62054181 23.263159
5.4261189 0.61430007 -0.68705297 28.09091
3.134268 0.53700399 -0.58635163 28.714285
5.4261107 0.0083480924 -1.082432 17
4.7562432 -0.047381796 -1.1730791 15
4.434876 -0.047477558 -0.97369957 15
4.1456885 -0.047505848 -1.0627842 14.5
3.1341021 0.028036829 -1.0386569 17
5.4261622 0.27518606 -1.1084051 22.5
3.1341541 0.27984136 -1.0295138 24.25
5.4261584 0.58339709 -1.090706 28.666666
3.1341779 0.49544176 -0.93957162 29.666666
5.4261732 0.015688565 -1.4880869 17
5.1300235 -0.047230944 -1.6032817 15
4.7822337 -0.047298618 -1.5403197 14.333333
4.3955832 -0.047371536 -1.4889716 13.6
4.0879569 -0.047404326 -1.5687454 12.5
3.133935 0.012251213 -1.4327973 16
5.4262276 0.27717721 -1.4977329 23
3.1340194 0.24379709 -1.4179026 24.576923
5.4262309 0.5449546 -1.49629 29
5.4262753 0.020932466 -1.8973879 17
5.2718754 -0.047143586 -1.9209807 15
4.7920218 -0.047216296 -1.9241025 13.666667
4.3524561 -0.047293924 -1.8911034 11.6
4.0065751 -0.047340073 -1.9225382 8.6999998
3.4347856 -0.04741431 -1.9530122 9
3.156117 -0.00010019541 -1.8346798 14.352942
5.4263325 0.28119668 -1.8954434 23.5
3.1338081 0.20326647 -1.8246661 24.807692
5.4263268 0.51768863 -1.8585401 29.200001
5.4160824 0.013163287 -2.3016217 16.714285
5.0972967 -0.047100618 -2.2670696 14.333333
4.7186375 -0.047155604 -2.279043 12.833333
4.2998261 -0.047240563 -2.2392488 9
3.865701 -0.045618534 -2.3152132 19.175867
3.626914 -0.045593627 -2.3245976 19.763765
3.1753213 -0.0055128708 -2.2400301 12.24
5.4264746 0.27263969 -2.2883556 23.5
3.1334617 0.17129228 -2.2192936 24.719999
5.4264793 0.50871611 -2.2883174 29.5
5.4265823 0.0227657 -2.6788733 17
5.1318188 -0.047008999 -2.7188761 14.5
4.6946025 -0.047083065 -2.6767035 12.8
4.2910438 -0.047176972 -2.6216195 9.0769234
3.841332 -0.045478903 -2.5488949 15.014948
3.6302741 -0.045539245 -2.5353127 14.914416
3.1740606 -0.005593814 -2.5498405 12.230769
5.4266429 0.27451125 -2.6747971 23.5
3.1367249 0.16920629 -2.5583465 24.719999
5.4266472 0.51276481 -2.6747696 29.5
5.4267826 0.019162647 -3.0976729 17
5.1448045 -0.046919756 -3.1990738 15
4.7149897 -0.047026664 -2.971328 13.5
4.3307228 -0.01411555 -3.1284611 13.8
3.9213173 -0.047156535 -3.0094295 9.75
3.5293937 -0.047212541 -3.0167904 10.083333
3.1637716 0.0041733384 -2.9429212 14.375
5.426837 0.27684718 -3.089433 23.25
4.3822756 0.23146954 -3.2605479 24.714285
3.1366234 0.20187217 -2.9668236 24.888889
5.4268508 0.52955812 -3.1043172 29.200001
5.4269724 0.01359991 -3.4892471 17
5.0126247 -0.046905942 -3.3946447 15
4.5788188 0.00096710771 -3.3640163 15.833333
4.1989584 0.010543413 -3.2876377 15.5
4.0164318 -0.00091738254 -3.4481645 15.285714
3.4869051 -0.047139935 -3.4800944 13.5
3.1566153 0.0082078204 -3.3587956 15.727273
5.4270239 0.28506491 -3.4761014 23
4.5074806 0.11935683 -3.3205073 20
4.2680044 0.21939173 -3.2807755 24.5
4.0699306 0.2254208 -3.4190891 24.5
3.136606 0.23660442 -3.364862 24.5
5.4270415 0.55178213 -3.4964163 28.714285
5.4205399 0.0057087988 -3.9150183 17
3.8628728 -0.046991013 -3.9969294 15
3.4926658 -0.047055915 -3.9768214 15
3.1412597 0.018439334 -3.7745085 16.714285
5.4271965 0.28373575 -3.859668 22.5
3.1366513 0.27554905 -3.7583961 24.25
5.4272227 0.59094208 -3.8835912 28.4
3.1366777 0.48820692 -3.8833103 29.5
5.4273443 0.035072528 -4.2963729 17.666666
5.2367291 -0.046989083 -4.1454458 16
3.1366639 0.025515255 -4.1659899 17.200001
5.4273615 0.28115651 -4.2553477 22
3.1367192 0.28119135 -4.1470509 23.263159
5.4273872 0.63281602 -4.2534623 28.09091
3.1367302 0.53376102 -4.1667223 29
4.2263432 -0.031092405 -4.6803122 16.333334
3.8262172 -0.047026768 -4.6828046 16
3.3689828 -0.047061838 -4.6520176 16
3.1367555 0.031322058 -4.5606375 17.5
3.1368041 0.27397537 -4.5771003 22.25
3.1368361 0.59010679 -4.5902638 28.222221
3.1368592 0.033715531 -4.9721923 17.666666
3.1368985 0.28024837 -4.9935369 21.76923
3.1369448 0.65024668 -5.0072598 27.727272
3.1369686 0.049854606 -5.386652 18
3.1369812 0.27442732 -5.3764014 21.272728
3.1370571 0.67656237 -5.3856936 27
3.1370125 0.92337728 -5.4957399 30
3.1370697 0.04687807 -5.7510118 18
3.1370692 0.2779772 -5.750803 21
3.1371818 0.66825557 -5.7498207 26
3.1370821 0.94938534 -5.7501159 29.5
4.199059 -0.047386803 -6.3483276 17
3.7160702 -0.047449484 -6.3748641 17
3.3571706 0.013089467 -6.2581367 17.666666
3.1480165 0.016222201 -6.0956488 17.666666
3.3156245 0.28368923 -6.2038403 20.777779
3.1516743 0.27955726 -6.1106296 20.777779
3.3067858 0.61930203 -6.1998887 24.625
3.1554685 0.66336364 -6.1246147 25.222221
3.3338861 1.0115621 -6.2039618 29
3.1536369 0.99624497 -6.1166315 29
4.6048079 0.027696837 -8.0764866 18
4.6048131 0.35142535 -8.0756044 20.5
4.6322908 0.67734063 -8.0743971 23
4.6044474 0.93958151 -8.0736856 25
4.1928091 0.028027121 -8.0756655 18
3.7041392 0.028094694 -8.0746918 18
4.4392467 0.253456 -8.0757198 19.75
4.090775 0.2846092 -8.0748768 20
3.7853994 0.28415975 -8.0742693 20
4.4286218 0.67433339 -8.0740681 23
4.0906267 0.67122263 -8.0733252 23
3.7853324 0.67003196 -8.0727205 23
4.3975549 0.93538177 -8.0732822 25
4.0905514 0.93145484 -8.0726795 25
3.7852902 0.92976576 -8.0720787 25
5.4290328 0.32529277 -8.9810667 20
5.4289737 0.63271928 -8.9809742 22
5.4291964 1.0985889 -8.9820518 25
5.429069 1.4934776 -8.9817295 27.5
5.4289246 1.8161334 -8.9813099 29.5
3.1986811 0.017456915 -9.3195763 18
5.2551279 0.33603424 -9.3220119 20
4.9971848 0.25481343 -9.3220453 19.5
3.5466418 0.25181368 -9.3196974 19.5
3.2733521 0.25211307 -9.3192625 19.5
5.2549448 0.65666276 -9.3213463 22
4.9969349 0.65241903 -9.3209381 22
3.5466151 0.64325744 -9.3185921 22
3.2733669 0.64432293 -9.3181572 22
5.254612 1.0604919 -9.3200426 24.5
4.9966507 1.0533247 -9.3196392 24.5
3.5465925 1.0379552 -9.3173332 24.5
3.2733917 1.0397937 -9.3169041 24.5
5.2693224 1.4717189 -9.3197517 27
4.8439331 1.456146 -9.3190508 27
4.4407797 1.4458944 -9.3184099 27
4.0422397 1.4402313 -9.3177719 27
3.6456506 1.4390637 -9.3171396 27
3.2733538 1.4419545 -9.3165531 27
5.2543163 1.8903399 -9.3191414 29.5
4.843792 1.8708349 -9.3184929 29.5
4.4406681 1.8575211 -9.3178511 29.5
4.0421581 1.8501744 -9.3172112 29.5
3.6455984 1.8486745 -9.316576 29.5
3.2733295 1.852452 -9.3159866 29.5
4.9194393 0.29082289 3.3517871 20.004499
4.912077 0.55487055 3.3157959 22.004499
4.252346 -0.047781609 1.493252 17.002501
4.8728943 -0.047503896 -0.4396981 16.0135
4.1991601 -0.047556736 -0.18880892 16.004499
3.4812222 -0.047581077 -0.158957 16.175501
5.3208456 -0.047446735 -0.7702601 16.0205
4.752872 -0.0473895 -1.1855161 15.01825
4.4221759 -0.047471508 -0.9786849 15.01125
3.5270591 -0.047514409 -1.0261962 14.67425
5.0209389 -0.047303312 -1.4537396 15.025
4.5966477 -0.04734081 -1.5338972 14.0205
4.3544683 -0.047406346 -1.3544934 14.0135
4.014535 -0.047433712 -1.4323579 13.00575
3.6666377 -0.047462225 -1.5094719 12.6765
3.1837566 -0.047506124 -1.5944476 13.162
4.6106601 -0.047262825 -1.9227523 13.0285
4.3351793 -0.047311313 -1.8569925 11.735785
3.9389989 -0.047354355 -1.8558555 9.6083002
3.6072001 -0.047392659 -1.8260794 9.8088188
3.2392163 -0.047459722 -1.7957084 11.9095
5.2079258 -0.047137752 -2.1787405 14.705501
4.740221 -0.047173612 -2.2950349 13.03975
4.2887311 -0.047259107 -2.2579753 9.1776428
4.12781 -0.047298469 -2.0925393 8.0229998
3.2925303 -0.047355212 -2.1308265 8.9507008
5.3429937 -0.047037832 -2.6021216 15.04675
4.7398987 -0.047117285 -2.5826426 13.048
4.2619581 -0.047188699 -2.6986279 9.3071871
4.0775423 -0.047181584 -2.8264992 8.0684996
3.2347236 -0.047283001 -2.5965555 8.6249371
5.2403717 -0.046967551 -3.026392 15.0545
4.7787147 -0.047012001 -3.0950091 14.06
4.2830577 -0.047075063 -3.0903523 12.0693
3.9368124 -0.047154911 -2.9887695 9.2219296
3.5399485 -0.047180355 -3.0460982 10.014501
3.2231064 -0.04723037 -2.9761317 11.277583
4.2070355 -0.047037698 -3.3296301 13.075
3.8265643 -0.047087803 -3.3174214 12.336125
3.3419075 -0.047140174 -3.3603292 13.1005
3.217726 -0.047116987 -3.5580587 14.10125
4.1183996 -0.046917327 -4.0004525 15.082
3.477845 -0.046993196 -4.0231924 15.0935
4.3082933 0.055374824 -4.7907419 18.082001
3.5612113 -0.04696501 -4.7196312 16.091
3.2053752 -0.046982795 -4.6623878 16.095501
4.3082891 0.10994317 -4.7907429 19.082001
0.54393357 -0.02814056 -1.7480586 11
0.66473764 -0.025847614 -1.5764611 12
0.53477651 -0.0171073 -1.8250353 12
0.60524726 -0.018166751 -1.629498 12
0.56976461 -0.014558703 -1.679544 12
0.54325378 -0.013777807 -1.7478023 12
0.53477687 -0.0024309605 -1.8250358 13
0.56976438 -0.00028584152 -1.6795441 13
0.5432539 0.0003708303 -1.7478025 13
-0.94603169 -0.017377034 -1.7905163 14
0.66567588 0.0060996115 -1.576529 14
0.53446072 0.0122004 -1.8248731 14
0.60599726 0.01136791 -1.6296184 14
0.57012707 0.013872139 -1.679635 14
0.54329324 0.014438078 -1.7478175 14
0.66567302 0.022026483 -1.5765287 15
-0.94603086 0.0039204955 -1.7905158 15
0.53445798 0.026724003 -1.824872 15
0.6059947 0.026084103 -1.6296179 15
0.57012469 0.028012689 -1.6796346 15
0.54329073 0.028448146 -1.7478168 15
0.66701752 0.037826497 -1.5766262 16
-0.94826716 0.025021583 -1.7910675 16
-0.93962103 -0.0077687874 -2.8179655 16
0.53416431 0.041215271 -1.8247209 16
0.60672432 0.040710181 -1.6297361 16
0.57048184 0.042084917 -1.6797242 16
0.54334062 0.042407162 -1.7478371 16
0.66701758 0.053690806 -1.5766261 17
-0.93962139 0.027274318 -2.8179634 17
-0.94827163 0.046246726 -1.7910683 17
-1.7836534 0.020855986 -1.7644304 17
0.53416377 0.055646613 -1.824721 17
0.60672396 0.055357166 -1.6297361 17
0.57048154 0.056151263 -1.6797242 17
0.54334033 0.056336667 -1.7478372 17
-0.94010788 0.062261384 -2.8186398 18
0.66837227 0.06952168 -1.5767243 18
2.2321038 0.043892559 1.3611077 18
-0.95051169 0.067422926 -1.791621 18
-1.7837505 0.060502149 -1.7644409 18
0.53387451 0.070060588 -1.8245721 18
0.6074602 0.069977522 -1.6298542 18
0.57084394 0.070194893 -1.6798151 18
-1.7166876 0.049745485 0.94557178 18
0.54366219 0.070243895 -1.7479589 18
2.125916 0.044112694 -4.5738902 18
-0.94010413 0.097260825 -2.8186321 19
0.66837484 0.085388586 -1.5767244 19
2.2321172 0.12791497 1.3611244 19
-0.95051932 0.088662669 -1.7916225 19
-1.7837455 0.10013615 -1.7644401 19
0.53387547 0.084459081 -1.8245729 19
0.60746187 0.084615424 -1.6298544 19
0.57084525 0.084244795 -1.6798155 19
-1.7166786 0.11812641 0.94555771 19
0.54366344 0.084156521 -1.7479596 19
2.1259234 0.12802553 -4.5739064 19
0.54875243 0.10093514 -1.9125956 20
-0.94010043 0.13228206 -2.8186245 20
0.669707 0.10131463 -1.5768211 20
-1.422016 0.28840697 4.0627718 20
0.3134557 0.2808398 4.0080185 20
2.2332635 0.21205981 1.3626202 20
-0.95052683 0.1099162 -1.7916241 20
-1.7837406 0.13979501 -1.7644393 20
0.5336079 0.098855734 -1.8244352 20
0.60817879 0.099289313 -1.6299694 20
0.57135034 0.098322764 -1.6799423 20
-1.7166696 0.1865499 0.94554293 20
2.1247549 0.21191829 -4.5722723 20
0.54396749 0.098089963 -1.7480745 20
0.54875129 0.11664132 -1.9125954 21
-0.94061947 0.16741376 -2.8193464 21
0.66970474 0.11724795 -1.5768209 21
-1.4219429 0.41971946 4.0624704 21
0.3134557 0.40749645 4.0080228 21
2.2332621 0.2963168 1.3626176 21
-0.95268452 0.13133614 -1.7921565 21
-1.783865 0.17952675 -1.7644529 21
0.53360647 0.11328037 -1.8244349 21
0.60817683 0.11397706 -1.6299691 21
0.57134885 0.11241655 -1.6799419 21
-1.7158272 0.25499648 0.94427478 21
2.1247482 0.29597768 -4.5722694 21
0.54396594 0.11204176 -1.7480743 21
-0.66081834 0.38035518 2.0856256 22
0.54874998 0.13238943 -1.9125952 22
-0.94062167 0.2026068 -2.8193474 22
0.66970253 0.13322376 -1.5768205 22
2.2332606 0.38079858 1.3626143 22
-0.95268184 0.15273149 -1.7921555 22
-1.7838672 0.2193601 -1.7644529 22
-1.5972865 0.55537885 4.0675249 22
0.53360522 0.12774348 -1.8244345 22
0.6081751 0.12870401 -1.6299689 22
0.57134712 0.1265479 -1.6799417 22
-1.7158297 0.32368189 0.94427741 22
2.1247416 0.3802613 -4.5722651 22
0.54396456 0.12603076 -1.7480739 22
-0.66076595 0.46499139 2.0853152 23
0.54789323 0.14808886 -1.9120376 23
-0.94111252 0.23801747 -2.8200293 23
0.67106372 0.14940152 -1.5769193 23
2.2344284 0.46579313 1.3641368 23
-1.7839651 0.25935066 -1.7644635 23
-0.95491993 0.17444688 -1.7927076 23
-1.5972016 0.68861294 4.067215 23
0.53362793 0.14226286 -1.8244468 23
0.60891336 0.14356369 -1.6300873 23
0.57201922 0.1408041 -1.6801102 23
-1.7149608 0.39245659 0.9429692 23
2.1236141 0.46465409 -4.5706878 23
0.54428583 0.14010748 -1.7481954 23
-0.66076636 0.55005288 2.0853148 24
0.54789203 0.16394641 -1.9120374 24
-0.94111407 0.27352628 -2.8200293 24
0.67106259 0.16554327 -1.5769191 24
2.2344291 0.55103111 1.3641371 24
-1.7839663 0.29952198 -1.7644633 24
-0.95492136 0.19607553 -1.7927077 24
-1.5972021 0.82250226 4.0672135 24
0.53362691 0.15684855 -1.8244467 24
0.60891229 0.15843192 -1.6300871 24
0.57201838 0.1550705 -1.6801101 24
-1.7149618 0.46168506 0.94296944 24
2.1236081 0.5496043 -4.5706868 24
0.54428488 0.15422234 -1.7481953 24
-0.6607154 0.63555777 2.0850115 25
0.67241275 0.18198165 -1.5770169 25
-0.94155151 0.3093518 -2.8206367 25
2.2355826 0.63704449 1.3656427 25
-1.784032 0.33993423 -1.7644705 25
-0.93424833 0.21514148 -1.8012156 25
-1.5971118 0.95711029 4.0668807 25
0.54707372 0.17974854 -1.911505 25
0.60964984 0.17349821 -1.6302054 25
0.53366405 0.17152461 -1.8244661 25
2.1329749 0.63549972 -4.5617523 25
0.57269096 0.16952345 -1.6802788 25
-1.714105 0.53107905 0.94167936 25
-0.67336905 0.72093421 2.0829706 26
0.67257816 0.19841129 -1.5745651 26
-0.93721372 0.3455162 -2.8236871 26
2.2253551 0.72294492 1.3735701 26
-1.7833591 0.38055098 -1.7704182 26
-0.93344051 0.23662323 -1.8042719 26
-1.6165835 1.0914911 4.0616798 26
0.54836488 0.1958918 -1.9094836 26
0.60999453 0.18863034 -1.6279709 26
0.53466111 0.18638611 -1.8224925 26
0.57320368 0.18405199 -1.6781719 26
-1.7227908 0.60055739 0.93599021 26
2.1329737 0.7214824 -4.561748 26
0.67466551 0.21532844 -1.5747061 27
-0.67329091 0.80763912 2.0825071 27
-0.93772572 0.38194376 -2.8243937 27
2.2263467 0.81030065 1.3748962 27
-1.7835068 0.42157692 -1.7704268 27
-0.93357819 0.25830686 -1.8043036 27
-1.6164391 1.2280095 4.0611601 27
0.54746783 0.21184234 -1.9089018 27
0.61072093 0.20396647 -1.628082 27
0.53466529 0.20127358 -1.8224926 27
-1.7220529 0.67090839 0.93489468 27
0.57386625 0.19876222 -1.678333 27
2.1318107 0.8077473 -4.5601225 27
0.54313791 0.19746816 -1.7552249 27
0.67467022 0.23203084 -1.5747032 28
-0.93772948 0.41854215 -2.8243866 28
2.2263427 0.89814627 1.3749131 28
-1.7835107 0.46294272 -1.7704185 28
-0.93358028 0.28015897 -1.8042995 28
-1.6164397 1.3658358 4.0611572 28
-0.76371646 1.3237618 4.037879 28
0.54746383 0.22812106 -1.9088972 28
-1.0982239 1.3371544 4.0472431 28
0.61072087 0.2193104 -1.6280792 28
0.53466362 0.2162925 -1.8224897 28
-1.7220581 0.7421189 0.93490922 28
0.57386619 0.21348394 -1.6783305 28
2.1317997 0.89512664 -4.5601053 28
0.54313642 0.21203385 -1.7552222 28
0.67694724 0.24945609 -1.5748572 29
-0.93773341 0.45550549 -2.8243794 29
2.2274725 0.98732448 1.3764213 29
-1.7835143 0.50472087 -1.7704102 29
-0.93358225 0.30222896 -1.8042951 29
-1.6164292 1.5050244 4.0611157 29
-0.76367521 1.4583327 4.0375209 29
0.54662138 0.24431828 -1.9083507 29
-1.0981828 1.4732006 4.0470085 29
0.61142457 0.2349813 -1.6281867 29
0.53486127 0.23269375 -1.8332276 29
-1.7220628 0.81403941 0.93492305 29
0.56969136 0.22786272 -1.6867791 29
2.1306701 0.98290813 -4.5585251 29
0.54317021 0.22675397 -1.755233 29
0.67694646 0.26656526 -1.5748539 30
-0.93822867 0.49310434 -2.8250628 30
2.2274683 1.0770714 1.3764387 30
-1.7836241 0.54698938 -1.7704142 30
-0.93369913 0.32457471 -1.8043211 30
-1.6164366 1.6457657 4.0611377 30
-0.76368225 1.594475 4.0375414 30
0.54661894 0.26091737 -1.9083471 30
-1.0981899 1.6108078 4.0470295 30
0.61142296 0.25066632 -1.6281836 30
0.53485918 0.24815096 -1.8332244 30
-1.721222 0.88634753 0.93367493 30
0.56968957 0.24284698 -1.6867762 30
2.1306593 1.0720878 -4.5585074 30
0.54316831 0.24162827 -1.7552302 30
-3.6581531 0.29346547 -9.3610249 19.5
-3.6579602 0.68214017 -9.3605661 21.5
-3.6578135 1.0732611 -9.3602104 23.5
-3.644321 1.4691193 -9.3659735 25.5
-3.6309946 1.8708333 -9.3720007 27.5
-3.630904 2.2794139 -9.3716307 29.5
-0.95673072 0.27536988 -9.3834295 19.5
1.0334857 0.27625307 -9.3916883 19.5
1.2944169 0.2773 -9.3921671 19.5
1.73613 0.27954 -9.3927135 19.5
2.1273136 0.2819832 -9.39293 19.5
2.4976511 0.28470966 -9.392909 19.5
2.943064 0.288486 -9.3926125 19.5
3.2379937 0.29126313 -9.3922749 19.5
-0.95681262 0.63165534 -9.3839703 21.5
1.0335531 0.63390428 -9.3923216 21.5
1.2945135 0.63679117 -9.3928499 21.5
1.7362829 0.64297837 -9.3934774 21.5
2.1275241 0.64973491 -9.3937654 21.5
2.4979224 0.65728104 -9.3938122 21.5
2.9434173 0.66773909 -9.3935976 21.5
3.2384062 0.67543292 -9.3933144 21.5
-0.95693398 1.0806922 -9.3848047 24
0.29129809 0.98594069 -9.391716 23.5
0.51105595 1.0555003 -9.3922091 23.875
0.91820699 1.0833315 -9.393014 24
1.2844462 1.0901207 -9.3936357 24
1.7368031 1.0090168 -9.3958654 23.5
2.1282208 1.0201428 -9.3963642 23.5
2.498805 1.0325675 -9.3966112 23.5
2.9443543 1.0497169 -9.3961363 23.5
3.2392874 1.0623091 -9.3954792 23.5
-0.93016601 1.5372618 -9.3880692 26.5
0.48864567 1.5325379 -9.3916283 26.5
0.91700357 1.5400927 -9.3918047 26.5
1.3279634 1.4958677 -9.3914766 26.200001
1.7339902 1.4728729 -9.3909111 26
2.1008642 1.4503268 -9.3899765 25.799999
2.525969 1.4133905 -9.3885145 25.5
2.9071229 1.433758 -9.3873053 25.5
3.2670207 1.4551611 -9.3859835 25.5
-0.93031788 1.9084626 -9.3889666 28.5
0.51143157 1.9216099 -9.3928127 28.6
0.91712004 1.9120312 -9.393033 28.5
1.2931925 1.9248763 -9.3930292 28.5
1.7343644 1.9447358 -9.3927155 28.5
2.1255717 1.9090259 -9.3920135 28.200001
2.4830577 1.8150055 -9.3906822 27.6
2.9079309 1.8247422 -9.3895035 27.5
3.2679863 1.8523308 -9.3883095 27.5
-0.93038321 2.1915712 -9.3892107 30
0.48867774 2.1847279 -9.3930674 30
0.91714799 2.1957049 -9.3934717 30
1.2932554 2.2105465 -9.3935328 30
1.7344756 2.2334888 -9.3932981 30
2.1259661 2.2591729 -9.3928003 30
2.4835141 2.1679251 -9.3921585 29.4
2.9085221 2.2232084 -9.3911228 29.5
3.2687073 2.257113 -9.3900528 29.5
-0.95552969 0.25332212 -8.5074072 19.5
-0.95917475 0.65234572 -8.534791 22
-0.96217334 1.0570608 -8.5572872 24.5
-0.94021869 1.4712324 -8.5758705 27
-0.94333756 1.8965539 -8.5996256 29.5
-2.9498811 0.35638136 -7.5507455 20.25
-0.9545204 0.30712861 -7.8048639 20
-2.9518414 0.69259602 -7.5005941 22.5
-0.95737165 0.66650188 -7.8241262 22.5
-2.9475174 1.0726185 -7.5088668 25
-0.95282114 1.0323571 -7.8429356 25
-2.9358683 1.5016785 -7.4973941 27.799999
-0.94075811 1.4814695 -7.8605962 28
-2.9385524 1.8105265 -7.5610948 29.666666
-0.94393504 1.7911319 -7.8824263 30
-2.9477022 0.020280808 -7.3839884 18
-2.947206 0.27958453 -7.241128 19.799999
-0.95293832 0.28607583 -7.2244101 20
-2.9493341 0.72649062 -7.0620208 23
-0.9558866 0.67862219 -7.2425032 23
-2.9440832 1.0477417 -7.1138449 25.200001
-0.94552267 1.0795666 -7.2608581 26
-2.9343605 1.4557556 -7.1034317 28
-0.94190544 1.4925821 -7.2798362 29
-2.9371734 1.755731 -7.1086988 30
-2.9442489 0.29287446 -6.7409735 20
-0.95162207 0.26856565 -6.7405128 20
-2.9467185 0.69501919 -6.7148323 23
-0.95492995 0.68932325 -6.7591143 23.5
-2.9373157 1.1047616 -6.7255554 26
-0.93954158 1.1203576 -6.7760844 27
-2.9337285 1.4921393 -6.7152991 28.799999
-0.94186753 1.43762 -6.7892551 29.5
-2.9358108 1.6881613 -6.8240294 30
-2.9417367 0.027204655 -6.4544525 18
-2.9418283 0.28155738 -6.3760691 20
-0.95081675 0.30889675 -6.3324108 20.5
-2.944325 0.66462153 -6.3801808 23
-0.95414054 0.69814372 -6.3496552 24
-2.9358382 1.0543168 -6.3908811 26
-0.9396888 1.0980268 -6.3630304 27.5
-2.932507 1.4535376 -6.3976707 29
-0.94242609 1.3926343 -6.377358 30
2.116436 0.030691497 -6.4024396 18
-0.94983375 0.29232609 -5.9806414 20.5
2.1157331 0.26711994 -6.3090115 20
-0.94935215 0.70644951 -5.9974055 24.5
2.1174779 0.681912 -6.3020086 23.5
-0.93981445 1.0786583 -6.0087318 28
2.1268818 1.1034864 -6.2901616 27
-0.94206649 1.29842 -6.0196633 30
2.1245139 1.4108069 -6.2849755 29.5
-0.94897497 0.27799004 -5.6754231 20.5
2.1188385 0.30151758 -5.7350245 20.5
2.1176462 0.30995938 -5.9470358 20.5
-0.94852674 0.6646148 -5.6900663 24.5
2.1168783 0.62179965 -5.7312388 23.5
2.1213059 0.67499918 -5.9291496 23.799999
-0.94017506 1.0632651 -5.7025619 28.5
2.1279638 1.0641043 -5.8550601 27.333334
2.1258049 1.3518817 -5.9470925 29.666666
-1.806504 -0.047442339 -5.0999422 17
-0.94716138 0.042914569 -5.2868829 18
2.1215048 0.037818313 -5.4573369 18
-0.9480831 0.28292349 -5.2776017 20.777779
2.1201913 0.29124585 -5.4910698 20.5
-0.94523895 0.67797136 -5.3166313 25.222221
2.1225047 0.66125989 -5.4510379 24.166666
2.1302497 0.81812364 -5.5778728 25.5
-0.94039792 1.0210774 -5.3146644 29
2.1284592 1.0927792 -5.45965 28.285715
2.1271954 1.3024389 -5.5721855 30
-2.0572386 -0.047438294 -4.9636478 17
-0.94604313 0.046370327 -4.8645229 18
2.0440297 0.011493802 -5.0120602 17.666666
-0.94707215 0.27936193 -4.8682237 21
2.1226718 0.27234209 -5.0325403 20.5
-0.94293749 0.67495501 -4.8797927 26
2.1268618 0.67261034 -5.029819 24.777779
-0.9402684 0.9611246 -4.8878088 29.5
2.1296067 1.0558397 -5.0558887 28.714285
-0.94503784 0.04942397 -4.4881587 18
2.1252623 -0.0010492727 -4.7088294 17.5
-0.94604069 0.27570766 -4.481226 21.272728
2.1247034 0.27927417 -4.6063299 20.777779
-0.94125098 0.68153769 -4.4965086 27
2.1298797 0.68496901 -4.6971202 25.375
-0.94052696 0.9139927 -4.5444808 30
2.1306248 1.0112025 -4.6964293 29
-1.0502917 0.053649377 -3.9173536 18
-0.95724189 0.033974979 -4.0274558 17.666666
2.127281 0.019708116 -4.2738295 17.666666
-1.0506027 0.28649479 -3.9180498 22
-0.95002472 0.28020033 -4.0678434 21.76923
2.1261077 0.29734141 -4.2773128 21.181818
-1.0431409 0.64373165 -3.9228749 28
-0.9436177 0.63926136 -4.0944762 27.5
2.1292126 0.66544545 -4.2672749 25.818182
2.131465 0.98097706 -4.2862067 29.6
-1.059411 -0.047377586 -3.6046724 16
2.1290596 0.024967056 -3.8461151 17.666666
2.1280868 0.28060618 -3.846838 21.25
2.1316414 0.67939365 -3.8451729 26.727272
2.1325684 0.92727017 -3.8572631 30
1.2276558 -0.047321737 -3.4547424 16
2.1303229 0.028721515 -3.4885318 17.666666
2.129555 0.2798897 -3.4554186 21.5
2.1330769 0.67877954 -3.4616673 27.461538
2.1331007 0.87841356 -3.60114 30
-0.93985605 0.015992425 -2.8684568 16.714285
-0.71675932 -0.04734429 -3.0093973 15
-0.46241367 -0.047309294 -2.9119358 14.5
0.88633764 -0.047309302 -2.8586874 15
1.679059 -0.047287337 -3.0532794 16
2.1311135 0.021453775 -3.2155375 17.5
-0.93973738 0.28668541 -2.8592205 24.25
2.1303861 0.26851234 -3.2024865 21.5
-0.93820018 0.49799907 -2.9068446 29.666666
2.1333466 0.6492061 -3.2197571 27.5
-0.93674624 0.012935214 -2.4853337 16.222221
-0.71270144 -0.047329001 -2.5198717 13.75
-0.44106036 -0.047267236 -2.5010262 13
0.55251557 -0.047162384 -2.5620735 13.75
0.91576511 -0.04720746 -2.5993438 14.5
1.1879888 -0.04704126 -2.5791564 15
-0.93843669 0.25809598 -2.4963882 24.52
-0.93495733 0.01327366 -2.0854065 15.727273
-0.63722521 -0.047241122 -2.0998218 11.6
-0.30664861 -0.047267906 -2.0781341 9
0.28642339 -0.047253489 -2.0633817 9.5
0.52127188 -0.043156557 -2.1537659 12
0.90763563 -0.047095969 -2.3395848 14
-0.93632495 0.22654337 -2.1011693 24.653847
0.59710103 0.22161615 -2.0022726 26.5
-1.7521412 0.011714324 -1.6213281 16.714285
-1.4255441 0.0018142164 -1.7567821 16
-1.0072002 -4.196167e-05 -1.7666621 14.928572
-0.59994125 -0.04729785 -1.7228631 9
-0.15899384 -0.045616671 -1.6594669 19.41115
0.078237377 -0.045519151 -1.6535536 20.000132
0.56464678 0.0073415935 -1.7689874 13.5
0.78005463 0.018751938 -1.6560363 15.333333
-1.7741308 0.27831477 -1.6358202 23.5
-1.4583738 0.26921478 -1.7866732 24.291666
-1.0531737 0.22385189 -1.8157836 24.559999
0.59359449 0.16678533 -1.7790172 24.25
0.79254669 0.13434312 -1.6672243 21.5
2.1238799 0.42566299 -1.6934674 25.5
-1.774693 0.5216248 -1.6400169 29.5
-1.5627019 0.48898119 -1.7891968 30
2.1235929 0.57787442 -1.6975387 28.5
-1.7540611 0.010695741 -1.2594998 16.714285
-1.3629837 -0.047460608 -1.2660531 14.333333
-0.97027582 -0.047233656 -1.3523289 12.75
-0.58915311 -0.047291294 -1.3247499 9.2857141
-0.12797579 -0.045506515 -1.4360605 15.132814
0.076709069 -0.04553815 -1.4475946 14.928702
0.52493805 -0.047316909 -1.4223038 9.25
0.90509635 -0.047380507 -1.4836763 12.666667
1.1950929 -0.047183491 -1.5067184 14
1.5710244 -0.047152169 -1.599773 15
2.1317005 0.021963518 -1.5064255 17.285715
-1.7744579 0.28171653 -1.2493088 23.5
2.1324494 0.26543701 -1.4894823 22.227272
-1.7750648 0.5289129 -1.2534657 29.5
2.1346762 0.58261317 -1.4206662 28.5
-1.7655749 0.017112169 -0.84519923 17
-1.4753124 -0.047479771 -0.86423802 15
-1.0035154 -0.0473781 -0.90694457 13.75
-0.55565137 -0.047259562 -0.96451473 11.6
-0.20784391 -0.04729639 -0.98785013 9.666667
0.23531599 -0.047324114 -0.98799956 10.2
0.59933424 -0.047354966 -1.0317527 12
0.99891996 -0.047235817 -1.0318558 13.8
1.4913186 -0.047160603 -1.1212118 15
2.1491344 0.0057624876 -1.0693326 17
-1.7653166 0.27285182 -0.83759642 23
2.1510901 0.28720546 -1.0250287 22.5
-1.7668817 0.53426605 -0.84700048 29
2.1495852 0.61048877 -1.0274467 28.666666
-1.7554353 0.011097737 -0.43160558 17
-1.2280009 -0.047452375 -0.49309731 15
-0.97240531 -0.047419466 -0.50549603 14.5
-0.57103527 -0.047345638 -0.53730536 13.75
-0.14491841 -0.047309533 -0.51283264 13.285714
0.26379246 -0.047294952 -0.49368262 13.6
0.59264857 -0.047277614 -0.62541455 13.666667
0.9944793 -0.047206983 -0.62032527 14.5
1.3171389 -0.047177978 -0.73549193 15
2.1395946 0.0034526885 -0.71095753 17
-1.7558192 0.26725778 -0.45321012 22.5
2.1667259 0.27363384 -0.61735314 22
-1.7579687 0.55917948 -0.45564902 28.636364
2.1632731 0.59595853 -0.63872433 27.818182
-1.7205201 0.0045296326 -0.035019398 17
-0.86289293 -0.047411151 -0.20326221 15
-0.50873178 -0.047371484 -0.049158335 15
-0.086617999 -0.047324985 0.015128851 15
0.28586197 -0.047284715 -0.018822432 15
0.69301325 -0.047241673 -0.16512585 15
0.93259263 -0.047216848 -0.31584764 15
1.844252 -0.047313713 -0.29837728 16
2.1785274 0.024571855 -0.26218665 17.5
-1.7448316 0.27658033 -0.059319258 22.266666
2.1811228 0.28992626 -0.21657073 22
-1.7478667 0.60325801 -0.045790911 28.4
2.1779683 0.64160132 -0.21401083 27.833334
-1.7338662 0.024358563 0.36103153 17.5
-1.2798134 -0.047181018 0.33299506 16
-1.0161841 -0.047177233 0.48414576 16
1.1094477 -0.047242709 0.38509989 16
1.4331003 -0.047269456 0.14638102 16
2.1928046 0.030499209 0.1551739 17.666666
-1.7335567 0.28481555 0.33004951 22
2.1953623 0.27821171 0.2015208 21.5
-1.7367675 0.62765455 0.36374998 27.727272
2.1916919 0.67361498 0.19740617 27.5
-1.7214534 0.028430264 0.79174435 17.666666
-0.75543994 -0.047176771 0.58546197 16
-0.56507933 -0.047178067 0.63835466 16
-0.11339222 -0.047186203 0.69315016 16
0.33571821 -0.047200568 0.66419327 16
0.68769622 -0.047216885 0.57508767 16
0.93370861 -0.047230929 0.47779524 16
2.206969 0.013778899 0.59025443 17.5
-1.7215384 0.27856451 0.75013816 21.5
2.2086158 0.26833302 0.6027528 21.1
-1.7260559 0.67505872 0.74239314 27.5
