# .PCD v0.7 - Point Cloud Data file format
VERSION 0.7
FIELDS x y z intensity
SIZE 4 4 4 4
TYPE F F F F
COUNT 1 1 1 1
WIDTH 1156
HEIGHT 1
VIEWPOINT 0 0 0 1 0 0 0
POINTS 1156
DATA ascii
0.18228205 1.8445827 -9.3727531 27.166666
0.55575585 1.8640741 -9.382062 26.920002
0.99061525 1.8559597 -9.382267 27.720001
1.3730417 1.8892115 -9.37885 27.027779
1.7385975 1.8977242 -9.3783493 27
2.1550107 1.8682255 -9.3742924 26.441668
2.5534651 1.795037 -9.3795481 27.728573
2.936893 1.8100641 -9.3845577 28.200001
3.2816331 1.8509793 -9.3622446 28.416666
3.7271271 1.8521228 -9.3535118 28.240742
4.130168 1.8527685 -9.3561468 27.376215
4.5548797 1.8448534 -9.320672 27.297787
5.0062842 1.8214812 -9.3256836 27.617914
5.274869 1.8030446 -9.3189344 29.75
6.0088739 1.8564081 -9.2324753 25.5
-3.630904 2.2794139 -9.3716307 29.5
-3.361335 2.2522032 -9.3873053 26.166666
-2.9677804 2.3046992 -9.3619452 27.5
-2.750381 2.2896605 -9.3735342 28.5
-0.86575353 2.2557814 -9.3838902 28.5
-0.62828052 2.2595279 -9.3718948 27.766668
-0.20488183 2.2537289 -9.3697586 28
0.12722515 2.2787375 -9.3668556 27.75
0.52490407 2.2272003 -9.3814983 27.75
0.94867343 2.2264271 -9.3814783 28.166666
1.325263 2.2537615 -9.3781643 28.1
1.699262 2.2530751 -9.3776016 28
2.1655948 2.2544041 -9.3734655 27.642857
2.4942763 2.2188945 -9.3676386 27.975
2.9298723 2.1812329 -9.38064 29.5
3.2871022 2.229074 -9.3635798 29.5
3.7427607 2.2321441 -9.3571844 29.083334
4.1363478 2.2447698 -9.3464823 28.085072
4.5590882 2.2437427 -9.3233862 27.931501
5.0469818 2.2442167 -9.332778 26.735834
5.3604207 2.3105404 -9.3735361 28.5865
6.0088544 2.2399635 -9.232542 27
-0.43339765 2.4044549 -9.4025526 27.155001
-7.221334 -0.022938786 -8.9022417 15.833333
-6.9332008 -0.023136115 -8.8983841 16.136862
-6.6680017 -0.047009174 -8.9195089 16.053833
-6.2069244 -0.047053412 -9.0130968 14.786861
-5.8579998 -0.047220197 -8.9441938 14.111568
-5.2857261 -0.017285356 -8.9514561 15.04638
-4.9914408 -0.047077928 -8.9777985 15.191093
-4.6526833 -0.047243677 -8.9032755 11.885897
-4.2291942 -0.047214206 -9.0175247 14.3125
-3.8365495 -0.047419392 -9.0226984 13.182056
-3.4054832 -0.047236256 -8.9781971 13.400214
-3.0459914 -0.047369905 -8.9324217 12.566789
-2.7018726 -0.047305718 -8.9397669 13.492983
-2.2069423 -0.037151404 -8.9336071 15.288967
-1.9944867 -0.009805195 -8.9730864 16.107
-0.90027785 -0.018381514 -9.0081158 18
-0.58699065 -0.047318131 -9.0778093 17.006834
-0.033675432 -0.046833672 -9.1842575 17
0.32599115 -0.0063529089 -8.9418144 16.75
0.6252408 -0.047397695 -8.8322201 17
0.81993216 -0.047167316 -9.0014505 16.356833
1.3962808 -0.047366638 -8.8556261 15.347333
1.8656029 -0.047105234 -8.9159403 15.366848
2.1853902 -0.047502596 -8.8320084 15.011499
2.427325 -0.047005437 -8.8610172 14.5
3.004117 -0.047001243 -8.9941607 15.6795
3.328788 -0.047419265 -8.9305687 16.002251
5.1776552 -0.018500127 -9.1710911 17.333334
-7.6541839 0.15931956 -8.9753799 19.887501
-7.5001812 0.13323788 -9.0001822 19.183336
-6.9745879 0.046567187 -8.9090128 17.899784
-5.3215404 0.092978075 -8.9697199 19.017422
-5.1479907 0.086344726 -9.0371809 18.672611
-2.0123105 0.026154153 -8.942647 17.438292
-1.9433914 0.22380222 -8.9346533 21.870689
-0.95685583 0.2058436 -8.9957218 19.729166
0.38637105 0.20096651 -8.8513508 20
3.7169058 0.20382996 -8.9762077 20.277597
5.4253831 0.1938386 -8.9204712 19.791269
-7.7017727 0.55251819 -8.9551249 25.177084
-7.5336814 0.65069842 -9.0326109 26.403015
-1.9055452 0.58253533 -8.9523754 25.395462
-0.99233729 0.62664264 -8.9737854 25.696217
0.37362456 0.43615735 -8.9017649 23
0.44527483 0.5783062 -8.8097315 25
3.721875 0.58858347 -8.9567947 25.659245
5.4255786 0.64065838 -8.908082 25.401375
-7.7790732 1.0060699 -8.9909124 25.166666
-7.5319347 1.0074172 -9.0687418 28.819048
-1.8680779 0.95967877 -8.9481449 27.763834
-0.93707997 1.0306064 -9.0113058 27.395977
-0.7624805 1.0150528 -8.8822212 28.5
3.6859684 0.87849677 -8.935339 27.125
5.427494 1.0009377 -8.9359932 27.657141
-7.7732902 1.4676232 -9.0305643 28.5
-7.5485759 1.3467696 -9.0413074 30
-1.6565552 1.2590693 -8.8403502 30.077499
-0.94303441 1.416755 -9.0157585 28.355999
-0.75681067 1.2728519 -8.8704958 30
5.4293351 1.4420887 -8.966424 28.722221
-7.7442722 1.7446238 -8.9342232 30
-0.89462543 1.8879902 -9.0481606 25.75
5.4289246 1.8161334 -8.9813099 29.5
-0.89463592 2.2661653 -9.0483055 27.25
-7.407373 -0.038984925 -8.6779156 15.704201
-7.0190077 -0.047135882 -8.5852547 15.520708
-6.5862126 -0.047174476 -8.6273565 14.724158
-6.1889849 -0.047210552 -8.5827408 12.724383
-5.8084331 -0.047327861 -8.5925407 12.622685
-5.427547 -0.0457054 -8.6101904 12.950713
-5.0652313 -0.047218025 -8.5527687 11.719692
-4.5724039 -0.046791449 -8.5674715 15.356303
-4.2525988 -0.047124259 -8.5706186 13.57885
-3.8472588 -0.047283772 -8.6667814 12.362057
-3.3747759 -0.047124106 -8.6456451 14.361019
-2.9449718 -0.047317404 -8.5111694 11.05048
-2.61976 -0.047370758 -8.6800528 11.660199
-2.1960506 -0.045676716 -8.5988283 15.16229
-0.61146641 -0.046649054 -8.4843788 17
-0.27274975 -0.046951391 -8.5234146 16.51475
0.33555514 -0.0059854351 -8.5374804 17.125
0.51547128 -0.046911456 -8.7457771 16.5375
0.88623714 -0.047352359 -8.7001562 15.333333
1.3779484 -0.047190893 -8.521019 14.901517
1.774753 -0.047233477 -8.5912275 14.486527
2.251256 -0.047085989 -8.4951353 15.021333
2.5705225 -0.047300708 -8.5566139 14.616035
3.0205567 -0.047310885 -8.6348906 15.099929
3.5121584 -0.047267392 -8.6076155 14.925834
3.6659648 -0.047527984 -8.736866 16.091
-7.7154598 0.21496001 -8.5937691 20.4
-7.5259261 0.15564679 -8.5862608 19.673883
-1.8099569 0.20242932 -8.6255598 21.359461
-1.4649863 0.22040322 -8.5832157 21.294651
-0.98744869 0.1904525 -8.5566549 19.843634
-0.78189641 0.13267934 -8.6767673 19.1
-0.16199845 0.15317142 -8.4277525 19.214285
0.26068184 0.19488916 -8.5431347 20.359919
3.7073829 0.16096634 -8.6533937 19.671997
5.4262166 0.22044457 -8.6281853 19.944445
-7.6925688 0.58514166 -8.5008926 26.375
-7.5289931 0.62862641 -8.5985689 26.87113
-1.7908267 0.56222188 -8.6430416 25.615358
-1.4714515 0.57513958 -8.610076 25.966337
-1.012777 0.63577634 -8.5930891 25.700615
-0.77708238 0.6961354 -8.7310085 26.083332
-0.24077941 0.56719548 -8.4880371 23.858665
0.26975575 0.52378231 -8.5274086 25.331976
0.41622266 0.56004697 -8.6500702 27.200001
3.6983204 0.6444754 -8.5508242 25.858212
5.4273453 0.6650027 -8.5836868 25.245642
-7.7815771 1.0983264 -8.5382423 26.5
-7.5229974 0.99180746 -8.6096239 29.023809
-1.7752218 0.93883014 -8.6658859 27.914474
-1.4711438 0.92579347 -8.6412086 28.479839
-0.9789992 1.0185219 -8.5905228 28.215097
-0.76798248 1.1042331 -8.7251291 28.5
3.692636 0.91478634 -8.56707 27.25
5.4280272 1.0238349 -8.5748911 28.25
-7.7876539 1.4474545 -8.5449867 29.15
-7.5441465 1.3271201 -8.5462313 30
-1.6369642 1.3328017 -8.6229105 29.210669
-1.0394645 1.3875519 -8.6508045 29.107794
5.4241614 1.3506078 -8.592062 29.885
-7.7329059 1.6761273 -8.6638241 30
-0.94333756 1.8965539 -8.5996256 29.5
6.0036592 2.3235834 -8.4236631 28
-7.3890629 -0.03607 -8.1474733 15.32225
-7.0055938 -0.047267362 -8.1616611 14.860834
-6.6137838 -0.047225509 -8.1482582 12.979152
-6.2280011 -0.047356099 -8.1392126 12.772619
-5.8251934 -0.046709191 -8.2288618 16.073906
-5.4038668 -0.046955995 -8.1766071 13.646817
-4.988781 -0.047272705 -8.161129 13.172414
-4.5380192 -0.047020622 -8.2503681 14.544034
-4.155652 -0.046861582 -8.1158714 12.021704
-3.8710015 -0.047219977 -8.2233591 12.46954
-3.4359314 -0.046746623 -8.2111254 13.424191
-2.9613512 -0.046938486 -8.1262627 14.569075
-2.5778477 -0.047116466 -8.1845646 14.080119
-2.2350843 -0.045961402 -8.2193727 12.533667
-1.7694523 -0.040912233 -8.216897 15.109775
-1.3686745 -0.047385111 -8.2147665 16.026751
-1.1643379 -0.0047568977 -8.3519878 15.916667
-0.43155417 -0.047346272 -8.0830364 16.5
-0.22502597 -0.03838212 -8.2466297 16.703701
0.23142226 -0.024147922 -8.1847324 17
0.58880728 -0.047242224 -8.324811 15.9182
1.0895005 -0.047253143 -8.2049398 14.849307
1.4019711 -0.047222905 -8.1405668 14.075792
1.7613236 -0.047226314 -8.1114607 14.044937
2.2233768 -0.047248062 -8.1711731 13.137373
2.6505468 -0.047321871 -8.2167311 13.787175
2.9847498 -0.047218543 -8.2026691 13.752017
3.3553846 -0.039893031 -8.1513977 13.837571
3.7621109 -0.033132304 -8.1201658 15.164
4.6550994 -0.022083929 -8.0846939 16.5068
5.1444864 -0.047351371 -8.1339922 16.660498
5.4654021 -0.0010373443 -8.2401342 17.5
-7.6996026 0.2699208 -8.2157679 21.450449
-7.5329137 0.15982854 -8.1832838 19.813845
-0.99998587 0.17809655 -8.2022715 19.790737
-0.06646315 0.20965593 -8.3553143 20.269871
0.11440796 0.1947718 -8.3470688 19.884245
3.7620227 0.18448815 -8.1118851 20.784513
4.2326407 0.17282878 -8.0864697 19.42367
4.6155639 0.20039657 -8.0814333 20.753719
5.4383183 0.17993194 -8.206852 19.710226
5.9507456 0.32692325 -8.1615973 19.5
-7.7545772 0.64806294 -8.1864033 23.25
-7.529942 0.62908703 -8.1720085 26.995699
-0.98870867 0.62277138 -8.1969872 25.559763
-0.073454455 0.52975333 -8.3478794 24.025
0.12777065 0.54912436 -8.3311071 24.773365
3.7569172 0.59172577 -8.1063061 25.768517
4.2064691 0.64322579 -8.0926275 24.858829
4.6271243 0.58571577 -8.078352 25.767347
5.4395857 0.65261692 -8.1783838 25.993782
5.9507685 0.66344875 -8.1618519 21
-7.7634573 1.071901 -8.1720409 26.799999
-7.5355325 0.98641616 -8.2107964 29.042856
-0.95258343 1.0517155 -8.2260447 27.112385
3.7989767 0.9001624 -8.114542 26.071428
4.2049713 0.91591918 -8.0903473 25.124001
4.5848689 0.89167809 -8.0790358 26.545454
5.4358988 0.99999672 -8.1484661 28.968254
5.9643798 1.0078632 -8.2291927 22.5
-7.7839737 1.3740696 -8.1305656 29.566666
-7.5434055 1.3213594 -8.0936995 30
-0.94752944 1.4306908 -8.1857147 27.85
5.4353333 1.3672518 -8.1534672 29.5
5.9830461 1.4785031 -8.3215446 24.5
-0.88161695 1.8794305 -8.1574459 27.125
5.9895024 1.9514791 -8.3536158 26.5
-0.87294203 2.2703991 -8.152524 28.5
-7.3347025 -0.035698228 -7.8441072 15.213107
-6.9749498 -0.047201805 -7.8165336 14.193379
-6.570653 -0.047233213 -7.8769364 13.333079
-6.0963359 -0.047107242 -7.86202 13.825921
-5.7807326 -0.047097292 -7.7728853 13.72887
-5.4652166 -0.046876669 -7.7900133 12.790411
-5.0099802 -0.047236923 -7.7868214 12.46682
-4.6214581 -0.044462085 -7.803844 12.226464
-4.2245045 -0.047171846 -7.8252554 12.517879
-3.7650666 -0.047250193 -7.8464041 11.892234
-3.3871224 -0.039637692 -7.8063512 11.344426
-2.9716051 -0.0244535 -7.7840075 10.582183
-2.5392094 -0.04524827 -7.7164669 13.016871
-2.1822817 -0.047033496 -7.852984 14.437483
-1.8802993 -0.047257777 -7.8196402 12.95441
-1.4105457 -0.045521934 -7.7601843 14.927982
-1.0438281 -0.011567459 -7.7324262 16.866667
-0.55559444 -0.0467695 -7.751194 16.69825
-0.14047587 -0.046823658 -7.8358808 17
0.22611792 -0.047132809 -7.7882433 15.913751
0.64676595 -0.047147539 -7.8616691 15.634166
1.0320046 -0.047332212 -7.7755098 14.2227
1.4103608 -0.047244288 -7.7727246 12.512641
1.8767922 -0.047220252 -7.7646728 12.532862
2.1001692 -0.047250468 -7.8425269 12.078076
2.6572576 -0.047235619 -7.8254652 11.886693
3.0767837 -0.04730412 -7.7893252 13.313758
3.5278513 -0.047276847 -7.8045549 12.645667
3.8202386 -0.047363035 -7.7128692 13.54328
4.2541361 -0.047361784 -7.7954841 14.168025
4.5641084 -0.047467079 -7.7545171 14.375
5.0407867 -0.047307894 -7.7356329 16
-7.7258964 0.2159912 -7.7842474 19.625
-7.5252357 0.17382698 -7.823668 20.801134
-2.9826226 0.14418758 -7.7297206 21.151716
-0.98514074 0.16930549 -7.7896886 19.722363
5.4306641 0.17738454 -7.8420229 19.803175
-7.7354031 0.67391568 -7.7886014 23.875
-7.526649 0.51879972 -7.8214903 28.501963
-3.0193591 0.59070551 -7.7199736 27.07826
-0.96381932 0.63413167 -7.7905436 25.413603
5.4309454 0.62122601 -7.7984643 25.756083
-7.7432756 1.0399426 -7.8084588 27.146429
-7.5295744 0.99847871 -7.9045548 28.892857
-2.9566684 0.92634737 -7.7170839 28.571428
-0.95855451 0.99477994 -7.7917476 28.14221
5.4299545 1.0115912 -7.7886806 28.035715
-7.7444816 1.3247197 -7.7262917 29.75
-2.8439164 1.4516013 -7.6137018 24
-0.95782155 1.4159237 -7.8028259 28.666666
5.4298515 1.4325442 -7.6797619 28.25
5.8142614 1.5291451 -7.857255 24.5
-2.8438869 1.8244494 -7.6136942 25.5
-0.91099286 1.8398528 -7.8908305 28
5.4250913 1.9093204 -7.605792 28.5
5.8184566 1.894426 -7.8747845 26
-2.8438573 2.2009401 -7.6136885 27
-0.87802184 2.2549191 -7.8992224 27.5
5.425087 2.1927068 -7.6057334 30
5.8208761 2.2642553 -7.8849163 27.5
-7.3801279 -0.038176619 -7.3625541 15.4602
-7.0036979 -0.047208387 -7.4247003 13.297195
-6.6233582 -0.046788424 -7.4270811 15.261998
-6.2159104 -0.04701969 -7.4161263 13.445722
-5.7393389 -0.031007158 -7.4559665 12.73181
-5.3701372 -0.023787815 -7.5226293 12.82381
-5.0392385 -0.0046688146 -7.5648994 14.684723
-4.6557188 -0.014383486 -7.547637 15.266
-4.2140503 -0.034195427 -7.5593886 13.580222
-3.8072827 -0.027247801 -7.52876 13.51825
-3.3293598 -0.0027818605 -7.4869208 16
-2.9925673 -0.01851928 -7.5046425 13.355123
-2.6081984 -0.046982188 -7.4056668 12.748149
-2.1984682 -0.046981417 -7.4521031 14.641358
-1.7832828 -0.047213081 -7.3812761 11.879625
-1.4407765 -0.047250409 -7.3668528 14.59681
-0.97720641 -0.010994163 -7.3763695 16.625
-0.51461619 -0.046868116 -7.4871454 16.5
-0.18860757 -0.047357298 -7.3508077 16.5
0.135948 -0.047177106 -7.4370408 15.360667
0.56107855 -0.04732741 -7.4234524 13.916667
1.0194139 -0.047148552 -7.3845286 13.721708
1.4138753 -0.046958495 -7.3801956 12.538239
1.8249872 -0.046784934 -7.3727636 15.026729
2.3237388 -0.046983246 -7.3088803 13.482953
2.6173749 -0.046742417 -7.4043803 15.012673
2.9147301 -0.047350857 -7.3905096 13.44203
3.4328828 -0.046762034 -7.3721514 15.298739
3.8676732 -0.047348045 -7.4548965 12.128134
4.1764989 -0.047365267 -7.4008851 14.21175
4.7199335 -0.047359794 -7.4317193 15.567166
5.0160933 -0.047476284 -7.3012109 15.4037
5.2361307 -0.046913005 -7.4251251 17
-7.7228045 0.19541872 -7.4192128 19.666666
-7.5267911 0.15027949 -7.4113522 19.890835
-5.646595 0.15332749 -7.4541125 21.707333
-5.3795562 0.14062554 -7.4943175 21.491087
-5.012485 0.16361183 -7.4997568 21.50415
-4.6227994 0.18248561 -7.5027008 22.150833
-4.2395358 0.14884089 -7.4989085 20.67621
-3.8035278 0.17058642 -7.5014195 21.846497
-3.3672564 0.17415342 -7.499084 21.564468
-3.0077918 0.17272608 -7.4633679 21.009375
-0.95634437 0.17937584 -7.4013996 19.668852
5.4318647 0.16919737 -7.4203086 19.794712
5.9001517 0.30453163 -7.2671981 19.5
-7.7544565 0.68575901 -7.3168812 25
-7.5325775 0.59142017 -7.4129567 27.499624
-5.6624632 0.51303464 -7.3982635 28.208162
-5.3431573 0.59169281 -7.5086832 28.25
-5.0485406 0.55739772 -7.504365 28.85
-4.7106466 0.48167586 -7.5049973 29.450001
-4.2930427 0.49524549 -7.5028405 29.833334
-3.8343105 0.562392 -7.5119152 28.804764
-3.3535213 0.53008527 -7.5045853 28.962484
-3.0230553 0.59184074 -7.4976616 27.713032
-0.95657146 0.6543262 -7.3743277 25.456026
5.4323916 0.63227332 -7.4160962 26.795704
5.9062047 0.71591073 -7.2952132 21.5
-7.718977 1.0766386 -7.2972655 28.4
-7.5389113 0.972305 -7.458168 29.200001
-5.652266 0.90377092 -7.4147539 30
-2.942054 0.94757658 -7.4173121 28.75
-0.93918931 1.0083442 -7.389637 27.616667
5.4326429 1.0102453 -7.4122963 28.948572
5.9175715 1.1350495 -7.3476853 23.5
-7.6729107 1.3258342 -7.251811 30
-7.5419626 1.3289697 -7.5903406 30
-2.9358683 1.5016785 -7.4973941 27.799999
-0.9058364 1.4465299 -7.3514838 26.75
5.934411 1.5673698 -7.4253478 25.5
-2.9385524 1.8105265 -7.5610948 29.666666
-0.89663655 1.8710375 -7.3593397 27.375
5.4826317 1.855794 -7.2347012 29.582001
5.9343777 1.8886549 -7.4253192 27
-0.89315468 2.2654436 -7.3959327 28.5
5.9468427 2.2283773 -7.4828124 28.5
-7.3633189 -0.047311295 -7.0552936 14.412333
-7.0440869 -0.047214162 -6.9525051 12.192939
-6.6673532 -0.047302589 -7.0007463 11.740692
-6.23738 -0.047240015 -7.0021238 11.920303
-5.9022527 -0.041282982 -7.0091782 13.027205
-2.864202 -0.025011236 -6.9758248 14.040201
-2.6457651 -0.041051347 -7.0212388 11.908184
-2.3098724 -0.0473161 -7.0590048 12.710597
-1.7945373 -0.047344901 -7.0177975 12.955491
-1.4443878 -0.047372304 -7.0179086 15.254408
-1.1287776 -0.024293404 -7.0356483 15.873667
-0.5483095 -0.040324438 -7.044806 16.370132
-0.17636633 -0.047417801 -6.9767013 15.724499
0.17479345 -0.047233451 -6.9873705 15.139392
0.54874074 -0.047285799 -7.0260816 13.878768
0.99915856 -0.04725074 -6.9913173 12.737352
1.4157283 -0.04730054 -6.9859176 11.833008
1.802842 -0.047022093 -6.9866695 13.097957
2.229975 -0.047243558 -6.9375277 10.806766
2.5783968 -0.047162525 -7.0593004 13.505724
3.0064189 -0.047300581 -7.0149107 11.671549
3.4418452 -0.047088072 -7.0323129 14.020398
3.8543606 -0.047298878 -7.0231357 11.391241
4.2007318 -0.047449023 -6.9896955 13.140274
4.6631851 -0.047492262 -7.0957727 13.75
4.9819293 -0.047521312 -7.0108542 14.686417
5.2683864 -0.047465853 -6.970367 15.0545
-7.7040653 0.21872975 -7.1059804 19.888887
-7.5250583 0.15564688 -7.0177522 20.002844
-5.6513133 0.15306625 -7.0023952 20.594618
-2.8893204 0.1630068 -6.9637303 21.661058
-0.99740112 0.17947114 -7.0068755 20.241491
5.4250231 0.16413426 -6.9847283 19.647549
5.7734194 0.32186413 -7.0957851 19.5
-7.7007933 0.66870254 -7.1100917 24.642857
-7.5323291 0.58767635 -6.9800239 27.607069
-5.6678557 0.52854294 -6.979538 28.307144
-2.8912792 0.65125716 -7.0047903 25.676453
-0.98427957 0.60769928 -6.987298 26.799725
5.4275689 0.63725388 -6.9843936 26.44359
5.7783189 0.76224822 -7.1150455 21.5
-7.7484727 1.0336986 -7.0794268 29.25
-7.5412951 1.0337584 -7.1026812 28.541666
-5.8259349 0.9560954 -7.0803208 29.200001
-2.9024858 1.0624876 -7.0501676 25.924999
-0.94211411 0.9954949 -7.0148883 28.090078
5.4282775 0.98687798 -6.9969192 28.522728
5.7832437 1.0958562 -7.1343975 23
-7.5404015 1.3444729 -7.1972609 30
-2.9150169 1.429585 -7.0007863 27.166666
-0.89668018 1.4126412 -7.0312753 28
5.4251013 1.4411771 -7.0723209 26.5
5.7832661 1.4306936 -7.1345234 24.5
-2.9216042 1.7623917 -6.967339 28.5
-0.86157125 1.8832484 -7.053966 28.166666
5.4250946 1.8763436 -7.0722389 29
5.7870913 1.8848776 -7.1495762 26.5
-2.8918548 2.223666 -6.9692421 27
-0.87266618 2.1944137 -7.0054321 29.5
5.7914634 2.2323954 -7.1667614 28
-7.3006649 -0.04721874 -6.6102147 14.333751
-7.111618 -0.047360942 -6.607161 12.715032
-6.6100726 -0.046840161 -6.5994687 14.212611
-6.2264948 -0.047410287 -6.6266418 13.783316
-5.8655052 -0.044206984 -6.6515741 12.426811
-2.8506436 -0.027028657 -6.5622892 14.428917
-2.6203303 -0.047262982 -6.55092 13.993333
-2.1531506 -0.046437852 -6.576314 15.79496
-1.7515068 -0.047198433 -6.6501031 13.16701
-1.3562173 -0.047323849 -6.5425143 13.949678
-1.1205287 -0.024827834 -6.7686205 15.08025
-0.54925674 -0.047052231 -6.622818 16.437178
-0.16107878 -0.047450222 -6.6530237 16.25
0.2663857 -0.047330968 -6.6076608 15.159991
0.6108461 -0.047367446 -6.5119944 14.564741
1.0012236 -0.047242373 -6.6447878 14.40298
1.3858162 -0.046542443 -6.5616183 15.536017
1.8481413 -0.047263943 -6.6413889 11.244055
2.2350874 -0.038541257 -6.539669 13.855782
2.6001432 -0.038808532 -6.6249728 13.440432
2.9915831 -0.043151625 -6.6060772 12.285403
3.3889167 -0.037460111 -6.5980911 11.275258
3.8378851 -0.047001339 -6.5832095 15.113671
4.3350897 -0.047403548 -6.5710959 12.095627
4.6603951 -0.04746775 -6.6046681 14.165285
5.0611944 -0.047439769 -6.6002936 14.649028
5.3597288 -0.024706632 -6.5503483 17.320499
5.7471843 -0.0014370978 -6.4698143 18
-7.6661444 0.14534232 -6.6581173 19.171474
-7.5212708 0.15329859 -6.5685668 20.253025
-5.6530681 0.15954982 -6.6490064 20.906391
-2.8898013 0.18405727 -6.6120496 21.253222
-0.97328407 0.16961068 -6.6073842 19.785551
2.1344213 0.16845283 -6.4554281 21.035168
2.5214803 0.1308528 -6.4316993 20.197308
2.9906416 0.0033382624 -6.4065943 15.366667
5.4255056 0.1727549 -6.602406 19.790194
5.7635555 0.22756831 -6.5393229 19.25
-7.6659431 0.66996354 -6.6317024 25.166666
-7.5310616 0.59493148 -6.5735397 28.118183
-5.681016 0.54742903 -6.6484494 28.632034
-2.8919322 0.62228137 -6.5883031 25.880953
-0.95549065 0.63962942 -6.6281528 26.053766
2.1204429 0.49126983 -6.4546394 29.135101
5.4250498 0.61301029 -6.6495485 26.481564
5.739718 0.68766594 -6.5772996 21.833334
-7.6877985 1.0133598 -6.7419763 29
-7.5453396 0.9598856 -6.7219586 29.5
-5.800889 0.91526353 -6.6653495 30
-2.9002013 1.0417454 -6.5930772 26.388889
-0.92925113 1.0197051 -6.6482573 27.476925
5.4273844 0.9697547 -6.6462178 28.671429
5.7460847 1.079357 -6.6028886 24
-2.9142654 1.4374552 -6.5606618 27.711111
-0.90751851 1.4264584 -6.6783438 27.6
5.4251041 1.4378723 -6.6048193 27
5.7539725 1.505312 -6.6350293 26.333334
-2.8913193 1.8262801 -6.5625467 25.666666
-0.88839459 1.8009335 -6.7434607 27
5.425097 1.8474942 -6.6047454 29.5
5.7573433 1.8498994 -6.6486354 28.166666
-2.8909283 2.2695265 -6.5128803 27.5
-0.88719428 2.2155619 -6.7391686 29
5.8344493 2.2312734 -6.6275072 29
-7.4232287 -0.04726981 -6.1129165 13.900874
-7.0166612 -0.047314193 -6.1896853 10.595856
-6.6011004 -0.046749547 -6.2324858 15.362803
-6.2801061 -0.047318842 -6.2238226 11.965437
-5.9371834 -0.047325991 -6.2579107 11.431639
-2.8315938 -0.0017895773 -6.1127949 14.4375
-2.6060021 -0.041620228 -6.1755338 11.883801
-2.2787769 -0.047328137 -6.1787219 13.833551
-1.8064001 -0.047276512 -6.148706 13.855989
-1.4869361 -0.04730941 -6.2109375 13.039703
-1.1207061 -0.025880437 -6.2207785 14.278869
-0.65398169 -0.047220465 -6.2330256 16.015999
-0.2079739 -0.047116216 -6.2078848 15.597148
0.23441322 -0.047208197 -6.2119212 14.597191
0.68228614 -0.047209613 -6.1797528 13.435377
0.99092358 -0.047143895 -6.1759291 12.878662
1.4000101 -0.047326896 -6.2144089 14.48539
1.8274188 -0.044712652 -6.2174988 12.699208
2.1443045 -0.012022438 -6.3755131 14
3.0550847 -0.019187134 -6.2804499 15.03475
3.4181709 -0.027193407 -6.2257333 11.47548
3.7670135 -0.047210097 -6.2793875 14.611966
4.274117 -0.047424477 -6.2606797 12.525929
4.6490178 -0.047533724 -6.174026 14.194444
5.0567436 -0.047407985 -6.2578564 15.117833
-7.6572165 0.19457917 -6.24647 19.916666
-7.518517 0.13249902 -6.1758785 19.889542
-5.6489205 0.1624117 -6.3097272 21.108313
-2.8883438 0.19429426 -6.2281799 20.747585
-0.98556048 0.17814031 -6.2155299 20.091619
2.1464884 0.17971119 -6.3114066 21.724827
2.6163087 0.15905358 -6.3851395 21.367056
3.1014934 0.18975264 -6.2228999 21.572481
3.3733392 0.14973663 -6.2949934 21.16334
3.6704068 0.28252637 -6.2235413 19.5
5.4315653 0.1780602 -6.198854 19.928946
-7.6858482 0.67091388 -6.2156696 27
-7.5278263 0.57950884 -6.2462425 28.157511
-5.6537395 0.52045113 -6.2407393 29.21627
-2.8984573 0.59321815 -6.2072897 25.566668
-0.96936756 0.61971694 -6.2312312 26.319714
2.1314995 0.57024151 -6.2129331 26.603176
3.1043563 0.5606941 -6.2281075 27.426798
3.3496139 0.5725016 -6.2336898 26.673
3.670383 0.65207273 -6.2234616 21.5
5.453702 0.63688046 -6.1784058 26.245455
-7.6513038 0.97045463 -6.2456722 29.4
-7.5468931 0.98416966 -6.2701149 29.1
-2.9097822 1.0014335 -6.2101436 27.785715
-0.94289726 1.0104109 -6.2273369 27.480392
2.1366391 0.97778141 -6.1671867 27.9
3.1508307 0.99073827 -6.1648445 27.875
3.3512719 0.99277383 -6.1919413 27.214285
3.6703541 1.0687706 -6.2234521 23.75
5.4669085 1.0264709 -6.1924095 27.920834
-2.9247103 1.3590276 -6.3028975 29.5
-0.91415101 1.3577318 -6.2653556 28.166666
2.1356723 1.3688854 -6.1355195 28.666666
3.1495583 1.4302883 -6.1778741 29
3.337383 1.4495474 -6.1625452 29
3.67032 1.490477 -6.2232351 26
5.5097952 1.4891689 -6.0259771 28.5
5.6044173 1.4733347 -6.3748722 28.25
-0.88430041 1.8651944 -6.2819614 28.25
2.1496136 1.8359646 -6.0668936 28.5
3.1727562 1.7797567 -6.1832137 30
3.3041484 1.79239 -6.243639 30
3.6702983 1.8734112 -6.2231779 28
5.4251013 1.7751482 -6.007659 30
5.7329779 1.8149514 -6.2092109 29.25
-0.89565641 2.2404916 -6.2531738 29.666666
2.1494763 2.1078465 -6.0661659 30
3.6702807 2.2165008 -6.2230544 29.75
5.8697395 2.1897864 -6.0780053 30
-7.363502 -0.039047185 -5.7861614 14.17525
-7.0443869 -0.047286607 -5.8435826 12.690693
-6.602015 -0.04672097 -5.8146191 14.825862
-6.2663941 -0.04698322 -5.8459849 13.46033
-5.8975196 -0.047318336 -5.8227468 12.611452
-2.8490264 -0.025212513 -5.8261189 15.419852
-2.6096206 -0.043836795 -5.7522073 13.334074
-2.1875288 -0.046635181 -5.8271823 14.78378
-1.833465 -0.047330093 -5.8940182 11.590037
-1.4658791 -0.047337353 -5.7531762 12.803963
-1.1201425 -0.0071144998 -5.6932387 14.6875
-0.64429981 -0.047202453 -5.8759241 15.828699
-0.16800633 -0.047120325 -5.7815447 15.249684
0.22349034 -0.047300264 -5.7728148 14.026156
0.63247818 -0.047304597 -5.8265424 12.725486
1.0349861 -0.047061015 -5.856123 14.290131
1.4941659 -0.047193423 -5.844553 12.828794
1.8257223 -0.047331072 -5.8482285 12.630068
2.0880301 -0.047152855 -5.9124112 13.1525
3.1975479 -0.04738459 -5.6620722 16.095501
3.4638636 -0.047319423 -5.8188486 12.584394
3.92851 -0.047420532 -5.8407226 12.675344
4.259438 -0.047398187 -5.8099165 12.651209
4.6627264 -0.047381975 -5.7933989 13.9602
4.9903979 -0.047418907 -5.7341714 14.846778
5.2818718 -0.047261775 -5.8455887 15.034833
-7.618454 0.18896858 -5.8251266 19.965279
-7.5198469 0.17682926 -5.8504052 20.677532
-5.6485128 0.12500581 -5.8656521 19.888502
-2.8772666 0.18573414 -5.7991891 21.609911
-0.98558021 0.17019197 -5.7901063 19.907469
2.1231914 0.17341179 -5.7937145 20.099655
3.1399641 0.14327842 -5.8154545 19.679688
3.4379122 0.27768651 -5.6557407 19.5
5.43293 0.18381658 -5.8056741 20.079166
5.7729917 0.28136355 -5.9009008 19.5
-7.6187143 0.62071729 -5.8141193 25.861111
-7.5193992 0.55250555 -5.8348112 27.745789
-5.6574078 0.55325586 -5.8547668 29.095238
-2.8790076 0.50647694 -5.7702465 28.346203
-0.97904134 0.61290938 -5.8004155 26.622377
2.1194572 0.61509073 -5.8009582 25.512501
3.1322231 0.61481237 -5.7699523 26.722221
3.5642073 0.60801953 -5.9701309 21.5
5.4262075 0.60669065 -5.7972288 26.595354
5.7775087 0.64994061 -5.9181366 21.5
-7.6075482 0.90058404 -5.7648797 29
-7.5247149 0.89383233 -5.8439951 30
-2.9153566 1.0389404 -5.6381998 28.90909
-0.95669746 0.99207109 -5.7960224 27.854815
2.1328866 1.0514851 -5.8187089 27.208334
3.1321719 1.0249834 -5.7243824 29
3.5699606 0.98242855 -5.8640971 23.75
5.4276996 0.92522919 -5.8678455 29.625
5.7864485 1.0691791 -5.9532838 23.75
-0.92114228 1.4278768 -5.8319907 27.4
2.1302791 1.4404858 -5.9244747 28.083332
3.5723748 1.4475257 -5.819191 26.5
5.5008674 1.3675506 -5.6227169 29.6
5.7917733 1.4944528 -5.9744925 26
-0.8990379 1.8965859 -5.7859302 28.5
2.1347816 1.8984782 -5.9020329 28.5
3.5758026 1.7815082 -5.7558651 28.5
5.7374573 1.8725539 -5.9650888 27.5
-0.89713961 2.224793 -5.834805 29.75
2.1345906 2.1798503 -5.9006085 30
3.5791903 2.0284727 -5.6934004 30
5.741447 2.2855988 -5.9791145 29.5
-7.4138536 -0.041731063 -5.4906583 14.099521
-7.0191398 -0.047272298 -5.4217658 12.28618
-6.6773486 -0.046761096 -5.4573684 15.386693
-6.1986632 -0.047112036 -5.3882098 13.636891
-5.8486071 -0.041181609 -5.3975754 12.54069
-2.8249454 -0.0032953247 -5.2929759 14.235294
-2.6426649 -0.035287503 -5.3292317 12.564086
-2.2052145 -0.04692784 -5.4307375 13.449858
-1.8060086 -0.047454197 -5.3736525 12.515414
-1.3769456 -0.047456264 -5.3905873 13.536828
-1.0538621 -0.032038789 -5.4086146 15.898277
-0.51160491 -0.047381569 -5.3588161 16.001251
-0.2724905 -0.04720819 -5.4324889 14.807767
0.18544553 -0.047190789 -5.3779607 14.47578
0.59868908 -0.047226198 -5.3962364 12.31771
0.99959242 -0.047117341 -5.4294276 13.690495
1.3831476 -0.046937473 -5.4640198 13.919344
1.7612368 -0.047312103 -5.391717 12.585258
2.0504637 -0.041002765 -5.5068679 14.105688
3.1485841 -0.015857609 -5.3687587 14.24789
3.3903861 -0.047234107 -5.3987603 12.253275
3.8047042 -0.046255298 -5.4205694 16.309744
4.2378535 -0.040488407 -5.3542976 12.551884
4.5916691 -0.034836344 -5.3070078 14.05938
5.0719771 -0.047273908 -5.3356671 15.69025
5.2678647 -0.047553666 -5.4947515 17.150499
-7.6140509 0.17319414 -5.237226 20.361904
-7.5175896 0.16131923 -5.4400182 20.190693
-5.6392221 0.17933112 -5.3925362 21.360781
-2.875818 0.18703347 -5.4412012 21.875072
-2.7869949 0.0045171157 -5.3562446 17
-0.98935688 0.18084988 -5.4146657 20.479736
-0.77866888 0.0085003451 -5.3517041 16.666666
2.1243188 0.17581369 -5.4300513 21.029213
3.1344333 0.17890698 -5.4243355 22.414114
3.2918572 0.26280218 -5.5314012 20
4.2925701 0.074084692 -5.2095909 18.429815
4.4628978 0.078914352 -5.2136517 18.519625
5.437068 0.17863302 -5.3939147 19.908522
5.7472887 0.26853675 -5.3825474 19.5
-7.621119 0.53890091 -5.2452741 27.638096
-7.5173206 0.61271644 -5.4099655 27.616722
-5.643023 0.5027793 -5.3572893 28.823811
-2.8718455 0.5476889 -5.3670931 28.707792
-0.9811132 0.59264588 -5.4233804 26.803774
2.1140459 0.57404923 -5.3946567 27.177263
3.1370351 0.64096117 -5.4597321 26.074074
3.3658237 0.64883947 -5.5319324 22.5
5.4357533 0.63339514 -5.3993015 26.481604
5.7521672 0.65500396 -5.4003029 21.75
-7.5229406 0.93054336 -5.3917694 29.666668
-2.9146311 0.94628 -5.3265767 28.5
-0.97921741 1.0098172 -5.4274364 27.72028
2.134994 1.0192338 -5.4552755 26.382141
3.1352873 0.98631126 -5.4608707 28
3.3672452 1.0251985 -5.4674187 25.25
5.4418302 1.0553203 -5.4529862 27.988312
5.7784176 1.0591749 -5.4295897 24.166666
-0.94848824 1.4315854 -5.3951173 28.208334
2.1361849 1.4228112 -5.4987335 27.833334
3.1335554 1.4453219 -5.4261327 29
3.3908331 1.3676606 -5.407814 27
5.425108 1.5022731 -5.4939222 29
5.7647095 1.4517233 -5.4468832 26.25
-0.89986849 1.8641945 -5.3602085 28.833334
2.1416607 1.8761698 -5.4748707 29
3.4348643 1.8467414 -5.3069606 28.5
5.7729955 1.9115323 -5.4775133 28.75
-0.89887756 2.1683912 -5.4195929 30
2.136066 2.1506879 -5.4348774 30
3.4340632 2.0957699 -5.2148218 30
5.7216339 2.2612967 -5.4879761 30
-7.4309354 -0.036215167 -4.9418764 13.971572
-6.9759746 -0.047273058 -5.011467 11.656666
-6.6337829 -0.047252174 -5.053225 13.258703
-6.2281961 -0.047275305 -5.0395088 11.020932
-5.8888798 -0.047284357 -5.0602946 13.607148
-2.6488664 -0.043356434 -4.9704604 12.993451
-2.1971123 -0.047159817 -4.9536686 14.360401
-1.8205863 -0.047155742 -4.9863276 12.256783
-1.5272331 -0.047298193 -5.0375409 11.030356
-1.1265 -0.033134315 -5.0386963 14.042056
-0.61383307 -0.040483527 -5.0143905 15.761133
-0.25428325 -0.047392264 -5.0124865 14.889814
0.12999707 -0.04731125 -4.9619308 13.419395
0.5541926 -0.047271471 -4.9969769 11.578619
0.94264477 -0.046943657 -5.0379877 14.127437
1.3984481 -0.047229912 -4.9686446 13.133451
1.7865701 -0.047221154 -4.9926686 12.752417
2.0641863 -0.029556414 -5.0112853 13.856732
3.4480541 -0.047312658 -4.9715648 11.860805
3.8774297 -0.047229324 -4.9679937 11.654126
4.1955605 -0.031563643 -5.0520449 12.697815
4.7155676 -0.047254346 -5.0062504 14.28725
5.0814466 -0.047223769 -5.1834974 14.333333
5.3067641 -0.047244072 -5.003993 15.533
-7.5235295 0.17586708 -5.0861216 20.663319
-5.6431684 0.13576539 -5.0664163 19.993282
-2.8698483 0.14631915 -5.013216 20.255934
-0.98781377 0.17119724 -4.9985838 20.128246
1.9729363 0.10114121 -5.0207253 18.822222
2.1302946 0.16512676 -5.0223274 20.147793
3.1382699 0.14803424 -5.0166311 19.884703
3.3959782 0.31033 -5.1052623 20.25
4.296948 0.076855607 -5.0743899 18.439516
5.4350753 0.16954811 -5.0085421 19.757698
5.7641802 0.32011694 -4.8623571 20
-7.5241175 0.55803329 -5.0907888 27.307041
-5.6240215 0.57959843 -5.0210838 28.547617
-2.8600879 0.59164226 -5.0309095 27.833334
-0.9774164 0.61426032 -4.9832478 26.620649
1.98735 0.60936248 -4.9549737 28.222221
2.1408732 0.63906562 -5.0422463 25.200907
3.1353352 0.58454305 -5.0140285 27.436028
3.4000773 0.68129838 -5.0556521 23.25
5.4374704 0.63631362 -5.0136423 25.783808
5.7723169 0.70125687 -4.8918238 22.5
-7.5054631 0.95607638 -5.0609813 29.23889
-5.6115789 0.87542659 -4.9473228 30
-2.9148355 0.99378675 -5.1756468 29.333334
-0.97475702 1.0152456 -4.9245968 27.83082
2.1403363 1.0402744 -5.0559692 26.94286
3.1309946 1.0450189 -5.0049715 28
3.4036798 1.0532963 -5.0147886 26.25
5.4464736 1.0234078 -4.9900937 28.071426
5.7385287 1.074224 -4.9741058 24.5
-0.94252336 1.4379513 -4.8737187 28.24
2.1458604 1.4276229 -5.0838141 28
3.1335592 1.3704461 -4.8671274 29.5
3.4064252 1.4140332 -4.9818115 29
5.472435 1.4035941 -5.0508542 29.388887
5.743268 1.4960978 -4.9906683 27
-0.90175456 1.8475376 -4.8532324 29.433334
2.1420479 1.8331852 -5.1168847 29.5
3.5304246 1.8171452 -4.8998828 30
5.7659583 1.8363233 -5.004324 29.166666
-0.88476622 2.1390679 -5.0427799 30
5.7019939 2.1455777 -5.0421753 30
-7.3521976 -0.040023148 -4.5725017 15.489792
-7.070179 -0.047347043 -4.620996 13.406654
-6.6323404 -0.046876382 -4.5905247 13.611555
-6.2217908 -0.046963148 -4.5849695 13.902838
-5.8123074 -0.035673589 -4.6279383 13.668119
-2.8309512 -0.00077746063 -4.5584183 15.583333
-2.6132545 -0.042587902 -4.5303745 12.416422
-2.3164589 -0.046974417 -4.5746202 10.969679
-1.8438128 -0.046897501 -4.5965004 15.4524
-1.4045475 -0.045365598 -4.5894198 12.69899
-1.0737085 -0.037468228 -4.4980803 14.526944
-0.59326726 -0.04719501 -4.6681075 14.4328
-0.14890949 -0.047291771 -4.5860691 14.164014
0.27738976 -0.047308963 -4.5979648 11.957134
0.62844807 -0.04734128 -4.6275659 12.235797
1.0237955 -0.046605479 -4.6058998 15.018794
1.4033272 -0.047332991 -4.5711012 11.131566
1.758993 -0.047271155 -4.6249094 13.103187
2.0805328 -0.016156239 -4.6237931 15.45572
3.1526916 -0.017191529 -4.5642776 13.929405
3.3989396 -0.047233615 -4.6324587 13.644608
3.8266907 -0.04657973 -4.536612 15.33831
4.2607088 -0.030236574 -4.655056 13.091339
4.6205516 -0.036214575 -4.6744981 13.75875
5.044939 -0.047210205 -4.5570307 15.080167
-7.5169778 0.16458966 -4.5963326 19.977139
-5.6420126 0.16851756 -4.5564604 21.33259
-2.8835745 0.17373267 -4.5415125 21.378447
-0.99014962 0.16153738 -4.6054316 19.839394
1.9623914 0.15919857 -4.6268978 19.75
2.136173 0.20767759 -4.5950437 20.485737
3.134165 0.17116843 -4.5965576 21.760616
3.3696537 0.15996324 -4.5807939 19.125
4.2915778 0.081094049 -4.7799516 18.6735
4.4629798 0.078327455 -4.7621703 18.5
5.4273386 0.16648681 -4.5551162 19.634085
5.7087903 0.28513142 -4.6183805 19.75
-7.5169058 0.62146097 -4.5920563 27.202312
-5.6307487 0.54394615 -4.5443659 28.470133
-2.873811 0.57774705 -4.5953207 27.983629
-0.97130769 0.63051844 -4.58214 26.435339
1.9610078 0.63351589 -4.6463327 27.5
2.1382432 0.63471544 -4.6055036 24.877468
3.1334641 0.62757522 -4.5779228 26.859127
3.2698963 0.66671807 -4.655746 24.5
5.4308028 0.60663766 -4.5360613 26.085714
5.7137623 0.65687639 -4.6177902 22.15
-7.4891243 0.98522931 -4.5654573 29.255207
-5.6035728 0.93296909 -4.4622703 29.75
-2.8807707 0.92457843 -4.5369287 29.722221
-0.98087823 1.0302606 -4.5881042 27.924349
2.1379085 1.0042112 -4.5874691 27.538462
3.1314397 1.0217091 -4.5537481 28.75
3.2738755 1.0574915 -4.6277246 28.5
5.4361053 0.97181964 -4.5345459 29.029463
5.7174635 1.060228 -4.5621481 24.75
-0.9692117 1.4001694 -4.5186663 29
2.1446161 1.4535681 -4.5850692 28.583334
3.1335626 1.3096497 -4.4084239 30
5.5525408 1.3007643 -4.6970959 30
5.722477 1.4549272 -4.5788484 27.25
-0.89508688 1.797981 -4.4490132 29.75
2.1365309 1.8144981 -4.5841308 29.5
5.7296987 1.829089 -4.6027718 29.5
2.1256943 2.1615257 -4.5446873 30
-7.3723788 -0.027514419 -4.2276711 15.587138
-6.9614177 -0.047234863 -4.2160316 12.61024
-6.6347756 -0.0471051 -4.2240229 15.10767
-6.2031422 -0.046979118 -4.2388272 13.578472
-5.7948422 -0.026751103 -4.1963019 12.757956
-4.2943544 -0.0064307749 -4.025888 16
-2.8704927 -0.016487539 -4.0622935 15.111112
-2.5661623 -0.04729411 -4.1657672 13.321918
-2.2027915 -0.047128558 -4.2364674 14.169286
-1.7813264 -0.047063977 -4.259304 14.488421
-1.4275621 -0.047223888 -4.2322321 13.959222
-1.1519104 -0.047328193 -4.0536842 14.372833
-0.59735239 -0.047271762 -4.1778293 14.493395
-0.18961225 -0.047276549 -4.2331762 12.383115
0.21679899 -0.047136839 -4.1600313 14.536865
0.60499901 -0.04712772 -4.2623219 11.823664
1.0261048 -0.047107287 -4.2782664 13.384498
1.436669 -0.04735902 -4.213973 13.283184
1.8368237 -0.044362504 -4.186173 14.287375
2.0795438 -0.047109589 -4.0568638 14.13875
3.1556885 -0.0046511516 -4.259737 13.62
3.3968379 -0.047261208 -4.1752286 12.305267
3.7902651 -0.046150524 -4.2302499 16.450642
4.176002 -0.047138758 -4.1582651 11.363869
4.5845575 -0.047135521 -4.1906643 14.180033
5.1221366 -0.047265254 -4.1830125 15.666666
5.2367291 -0.046989083 -4.1454458 16
-7.5136442 0.18294312 -4.1829319 20.683874
-5.6409922 0.18276572 -4.2406969 21.508324
-5.3656058 0.14647056 -4.0104241 21.431894
-4.9779592 0.14832033 -4.0191231 20.676666
-4.5874057 0.1803035 -4.0246086 21.360205
-4.2942424 0.17832291 -4.0287852 21.309525
-3.8602617 0.21553366 -4.0271401 21.940983
-3.4875817 0.18210998 -4.017725 21.675844
-2.9029632 0.16516118 -4.0715017 21.968081
-0.99295813 0.17477305 -4.1803966 19.799147
1.9253294 0.16347468 -4.1877298 19.625
2.1415048 0.19633524 -4.2046952 20.453159
3.1370742 0.17571288 -4.2410655 21.899624
3.2520273 0.16173372 -4.2028236 19.388889
5.4346189 0.19621216 -4.1755037 20.046219
5.6851768 0.14644116 -4.15096 18.875
-7.5124726 0.5729357 -4.1868057 27.383886
-5.6379018 0.54883593 -4.2120824 28.84568
-5.5984912 0.66747755 -4.1307974 26
-4.6918488 0.49094361 -4.0341792 29.5
-4.3168478 0.47468147 -4.0343142 29.200001
-3.8148799 0.54484248 -4.0373468 28.924999
-3.4839723 0.59303027 -4.0430698 29.166666
-2.9936512 0.59433287 -4.1252937 27.721796
-1.0015175 0.62267596 -4.1653309 25.343309
1.9240248 0.68477809 -4.2143068 27
2.1416192 0.60387903 -4.2189808 25.727264
3.1336391 0.61596167 -4.1991224 27.156818
3.3691301 0.67871839 -4.3197827 24
5.4312105 0.6155436 -4.1416531 26.429865
5.6933713 0.67143083 -4.1768951 22.5
-7.4852905 1.0233808 -4.1268129 28.571428
-5.5974941 0.94922084 -4.1266289 29.5
-1.0118703 1.0276473 -4.1796718 27.70055
1.9094596 0.94710678 -4.063736 30
2.1419835 1.0660275 -4.2393322 25.860001
3.131789 0.98043525 -4.189043 29.25
3.3742595 1.0684755 -4.3229175 27.5
5.441072 1.0056763 -4.1735697 28.785715
5.6600332 1.0424045 -4.2542334 24.5
-7.4842563 1.3396014 -4.1355247 29.75
-1.0006517 1.3702397 -4.1638155 29.25
2.1432881 1.460077 -4.2349267 28.055555
3.4886899 1.5140662 -4.2912951 29
5.4261131 1.3016206 -4.1499219 30
5.6633348 1.4480466 -4.2637615 27
-0.91408509 1.7968012 -4.1554904 29.833334
2.1378388 1.7928082 -4.2358003 29
5.7102995 1.7781992 -4.230412 29.75
2.1341949 2.1925697 -4.2714853 29.75
-7.336906 -0.032659233 -3.7078793 14.700168
-6.9686785 -0.047222905 -3.840795 13.147575
-6.625432 -0.047107983 -3.8123152 13.198518
-6.1551757 -0.047048882 -3.8092492 13.509388
-5.6873446 -0.033949953 -3.8993888 12.836711
-5.4207587 -0.047311194 -3.7757092 12.740216
-5.0079298 -0.047332391 -3.6891315 12.687302
-4.606482 -0.039038423 -3.8002343 13.335929
-4.1812825 -0.047263425 -3.7346265 11.509587
-3.8216827 -0.047100782 -3.7415397 13.065347
-3.376884 -0.041275021 -3.7600441 13.196517
-3.015053 -0.042497616 -3.7890165 13.05835
-2.56517 -0.047400486 -3.7344482 13.15178
-2.1879714 -0.047202706 -3.7999549 12.932243
-1.7903736 -0.047362551 -3.7797663 13.445198
-1.4043585 -0.04730425 -3.8310025 13.884796
-0.98840964 -0.035478942 -3.771374 15.195031
-0.58726567 -0.047371667 -3.7610064 14.690389
-0.21058325 -0.047268078 -3.8192229 14.377116
0.24115665 -0.046499532 -3.8404927 15.535644
0.60627252 -0.047253605 -3.8120339 13.015799
0.94336045 -0.047312174 -3.7535477 12.44362
1.3619508 -0.047269464 -3.8368375 12.664292
1.7111082 -0.047411248 -3.7254634 14.888291
2.0673618 -0.047461681 -3.6520619 15.116
3.3689189 -0.047172587 -3.8125939 14.401924
3.8595831 -0.04712791 -3.8266642 13.939893
4.1349497 -0.023584872 -3.746439 11.185532
4.6596012 -0.047121421 -3.7965808 14.916667
5.0825701 -0.047259979 -3.6252427 17
5.2324986 -0.047019407 -3.8466225 15
-7.5022893 0.1775782 -3.8144956 19.941849
-5.6305394 0.15353489 -3.9864118 22.376925
-5.487812 0.16315228 -3.9957936 20.845438
-4.9785872 0.16241126 -3.9949417 20.566906
-4.6305113 0.17624216 -3.9930432 21.466038
-4.1513734 0.12709373 -3.9968593 20.168966
-3.7846768 0.091454469 -3.9955528 19.237898
-3.3267024 0.17833482 -3.9955099 21.486609
-2.913378 0.18092948 -3.9965596 22.549427
-0.99621761 0.1943197 -3.9353902 21.461607
1.8761044 0.16995004 -3.6036568 19.5
2.1439919 0.18731391 -3.8134851 19.898647
3.1377013 0.14156249 -3.8180313 19.866713
3.3412156 0.15749057 -3.8687911 19.25
4.162375 0.15921198 -3.7307818 21.802164
4.4685946 0.2215834 -3.7890377 21.1625
5.4327722 0.19409128 -3.77862 20.133862
5.634975 0.31342825 -3.764416 20
-7.4962811 0.63750309 -3.7866976 25.957874
-5.4520864 0.55856484 -3.9960487 28.427273
-4.8849969 0.5645476 -3.9963269 28.75
-4.5852408 0.4859772 -3.9968135 29.166666
-4.0640888 0.51339036 -3.9996049 29.200001
-3.2869997 0.44384193 -3.9955721 29
-3.0004337 0.51628613 -3.9953856 29.333332
-0.97699296 0.56269503 -3.9441657 26.711538
1.8752949 0.6720683 -3.6321273 25.5
2.142452 0.63817465 -3.8204732 25.189562
3.1335058 0.58086461 -3.8169715 28.037878
3.3478971 0.66275096 -3.8561435 24.5
4.1290398 0.55192101 -3.7245748 26.700245
4.4797611 0.58587432 -3.782609 26.711111
5.4312048 0.62630355 -3.761764 26.720236
5.65873 0.67058665 -3.7223434 22.666666
-7.4773393 1.0408516 -3.7655582 27.78125
-5.4811625 0.90732491 -3.9946728 30
-0.94983155 0.97618741 -3.94417 27.5
1.8745199 0.96759909 -3.6597307 29
2.1456974 1.0314986 -3.7877562 26.333334
3.1335709 1.0291585 -3.6998355 29
3.3528013 1.0162257 -3.861944 27.85
5.4411392 0.986718 -3.8131466 29.166664
5.6701312 1.064974 -3.8435142 25.333334
-7.4757953 1.3998446 -3.8134792 28.875
-0.97355723 1.4317344 -3.9185143 28.59091
2.1501582 1.4539868 -3.8050575 27.857143
3.4572682 1.4479249 -3.7524657 29.5
5.6741104 1.4704562 -3.8460836 28.1
-7.4722238 1.8808606 -3.7186406 28.5
-1.0170434 1.7607677 -3.9163353 29.5
2.14906 1.8249373 -3.8069105 28.775
5.6465435 1.7847593 -3.7956316 29.75
-7.471283 2.1595771 -3.7186556 30
2.1483161 2.1863632 -3.7949505 29.75
-7.3372002 -0.033451106 -3.4643524 15.427564
-7.0070448 -0.047242135 -3.4565296 13.981776
-6.6155925 -0.047125187 -3.3370886 15.137181
-6.1229539 -0.046765532 -3.4733379 14.731552
-5.7732635 -0.047121357 -3.4142654 14.200336
-5.4559727 -0.047045145 -3.3527129 14.359684
-5.029726 -0.047240533 -3.369663 11.159239
-4.5838108 -0.046821393 -3.3234344 14.664225
-4.0786681 -0.047208946 -3.3951712 11.873368
-3.8728495 -0.047007617 -3.3749506 13.00011
-3.437027 -0.047057014 -3.4072518 15.001307
-3.0044794 -0.047231987 -3.3724878 12.871666
-2.5886242 -0.046769541 -3.3695652 15.370413
-2.2448635 -0.04721785 -3.3555603 14.207857
-1.8834099 -0.047257841 -3.453995 13.588409
-1.3614877 -0.047245443 -3.3808625 14.932363
-1.0741969 -0.047253527 -3.4417198 14.76025
-0.56543136 -0.047324587 -3.3494883 14.98175
-0.17824687 -0.047317594 -3.3718607 11.471025
0.2292214 -0.047313891 -3.475903 13.450734
0.63641661 -0.04726347 -3.3728678 13.790268
1.0080227 -0.047307875 -3.4206586 14.171718
1.3991847 -0.047250956 -3.3791552 15.604686
1.7516987 -0.047253281 -3.4053502 15.398179
2.0455158 -0.024308965 -3.2861226 15.75
3.1433632 -0.014101763 -3.3768363 14.030769
3.3152471 -0.047203235 -3.4613736 12.018473
3.7814143 -0.041632142 -3.4223616 15.636034
4.123559 -0.016317507 -3.3770237 10.484851
4.7179661 -0.046862315 -3.4252429 16.00675
4.9822373 -0.046890929 -3.4437091 15.694
5.3999262 -0.0030913576 -3.5607736 17.5
-7.4951282 0.16823331 -3.3991439 19.830357
-1.2856365 0.26168603 -3.2490845 20
2.1393027 0.1816624 -3.3952961 20.070402
3.1359186 0.17395884 -3.4106562 22.120796
3.303668 0.21055987 -3.4013536 19.734848
3.9667139 0.0071011558 -3.4882846 17
4.1513829 0.15075013 -3.3750682 21.310957
4.5233788 0.17563896 -3.3011968 20.018219
5.4377975 0.1962807 -3.4164431 20.216452
5.6524754 0.28476587 -3.4075949 20
-7.4953766 0.64390928 -3.3808599 25.869976
-1.2851785 0.6212427 -3.2497087 23.125
2.1495385 0.58642644 -3.4121604 26.645126
3.1330719 0.63537377 -3.3794236 27.369444
3.3323367 0.65837187 -3.3552263 24.40909
4.1938939 0.5734517 -3.351295 26.407564
4.5220461 0.60862952 -3.2910962 26.057142
5.4349909 0.64005238 -3.4137039 26.539772
5.6468282 0.6834271 -3.2169738 23.25
-7.4857635 1.0200911 -3.3747821 28.154764
-1.2885412 1.0276284 -3.2541828 26.6
2.1450024 1.0101511 -3.4452794 26.59524
3.1340766 0.92256814 -3.3977661 29.6
3.3325016 0.97912592 -3.4105954 28.5
5.4426775 1.0172919 -3.4160314 29.02
5.6597958 1.0763621 -3.3553867 26.15
-7.4746962 1.3930073 -3.4212604 28.875
-1.274563 1.3742733 -3.2488925 29.5
2.1477976 1.4097944 -3.4676654 28.5
3.4302769 1.3360842 -3.3099427 29.5
5.6657209 1.4619005 -3.3832679 29
-7.4622426 1.8838373 -3.2980609 28.5
2.1579802 1.8467863 -3.4080565 28
5.6285744 1.7165706 -3.3704329 30
-7.4611869 2.1629853 -3.2981369 30
2.1584282 2.1848004 -3.4080148 29.75
-7.4285688 -0.047348287 -3.1926594 14.643499
-7.0306444 -0.047325745 -2.9864006 13.951667
-6.6480451 -0.047264181 -3.0319705 12.048517
-6.1741147 -0.047360368 -2.999321 11.050885
-5.7562194 -0.04708248 -3.0158615 13.811408
-5.4111724 -0.046901781 -3.0191927 15.096797
-5.1149588 -0.047379304 -2.973274 13.139017
-4.6296601 -0.046763793 -3.0386348 15.476696
-4.1180272 -0.047195118 -2.9798253 12.280814
-3.6962121 -0.046854492 -3.0068915 14.35886
-3.3441186 -0.046845756 -2.9813132 16.446913
-2.9562559 -0.047307044 -2.9660723 11.720127
-2.5665481 -0.046673644 -2.9537003 14.157982
-2.2605121 -0.04651349 -3.0259933 15.30173
-1.8581953 -0.047193903 -3.0429878 13.793271
-1.5496145 -0.047197886 -3.0185449 13.002542
-0.96456188 -0.01853399 -3.0184357 15.24839
-0.55419034 -0.047337044 -3.0580359 13.295567
-0.15238807 -0.047341328 -3.0296626 14.717886
0.21752265 -0.047391247 -2.9887695 12.717407
0.52666569 -0.047299877 -2.9872367 13.670136
0.97641671 -0.047396343 -3.039906 14.011934
1.3640261 -0.047389768 -2.9323878 14.787875
1.7707558 -0.047341865 -3.0636978 15.6552
2.0699296 -0.047488399 -2.842133 16.109501
3.3949814 -0.047191653 -2.9354522 11.881753
3.9280188 -0.047163524 -2.950721 10.888125
4.2054873 -0.044134948 -2.964118 12.106014
4.7019863 -0.047089841 -2.9584444 13.805195
5.1448045 -0.046919756 -3.1990738 15
5.2306113 -0.047051188 -2.9972579 15.351501
-7.4959159 0.17313653 -2.9762306 20.007555
-1.2115577 0.26875016 -2.9595599 20
-0.97352409 0.19916916 -2.9717689 21.044422
1.8307935 0.15956315 -3.0664477 19.25
2.138072 0.17229675 -3.0169916 19.583851
3.1375566 0.14856356 -2.9507108 19.974438
3.2732446 0.20039625 -2.9595814 20.018314
5.4319086 0.19843544 -3.0151753 20.282034
5.6602087 0.28117347 -3.0101216 20.25
-7.5006003 0.60479063 -2.9660935 26.253708
-1.2109798 0.66445565 -2.9824514 23.333334
-0.98782814 0.5778572 -2.9748681 26.172754
1.8305138 0.61413175 -3.0855894 24
2.1445651 0.64168698 -3.029068 25.621246
3.1334257 0.60471648 -2.9812117 27.821644
3.3123066 0.68333733 -3.0143743 26.125
5.4300442 0.62321419 -3.0067184 26.869999
5.6595459 0.6805473 -2.858376 24
-7.4817419 1.026075 -2.9338117 27.687302
-1.2275535 1.0461804 -2.8296065 26.285715
-0.97930413 0.9992305 -2.9974103 27.731142
1.829864 1.0462801 -3.13236 28.5
2.1468439 1.0458339 -3.031431 27.15432
3.134145 0.93779427 -2.9645352 29.833332
3.3717287 1.0857282 -3.05023 27.25
5.4380913 0.9501884 -2.9700422 29.361109
5.67347 1.0784314 -2.9894269 27.383333
-7.4710121 1.4052031 -2.9661672 28.939999
-1.2144363 1.3191557 -3.0215881 28.75
-0.96122462 1.3798307 -3.0110605 29.3125
2.1494381 1.3962103 -3.0444584 28.583334
3.3738484 1.3777461 -3.008831 29.75
5.4237299 1.3471048 -3.0082197 30
5.6902094 1.3891485 -3.174396 29.666666
-7.4511943 1.8926936 -2.8465762 28.5
-0.92390823 1.8028269 -2.9392853 30
2.1700561 1.8678828 -3.0687611 27.944445
-7.4500146 2.1731782 -2.8467312 30
2.1700814 2.2048738 -3.0892475 29.666666
-7.3824601 -0.017730294 -2.6407294 16.025415
-7.016067 -0.047187544 -2.6316371 16.112875
-6.5844922 -0.031178581 -2.6333516 14.802073
-6.1208725 -0.024338266 -2.5354712 14.82869
-5.7875519 -0.047380257 -2.6113384 12.750931
-5.4188743 -0.047275025 -2.5928524 14.169335
-4.9865298 -0.047274195 -2.610549 12.602768
-4.6154914 -0.047271241 -2.5937531 12.71094
-4.1709738 -0.047243889 -2.5635681 12.970826
-3.7886543 -0.047243424 -2.5544116 11.539838
-3.3993149 -0.047194544 -2.5832224 14.096813
-2.9686332 -0.047163837 -2.6240277 13.411608
-2.5711734 -0.047161799 -2.6060672 14.468905
-2.1508067 -0.047165461 -2.6287191 14.260318
-1.8057112 -0.047212977 -2.6911993 14.46798
-1.4363884 -0.047238301 -2.6196241 15.81
-0.89851725 -0.047347218 -2.67435 9.0284996
