# .PCD v0.7 - Point Cloud Data file format
VERSION 0.7
FIELDS x y z intensity
SIZE 4 4 4 4
TYPE F F F F
COUNT 1 1 1 1
WIDTH 1139
HEIGHT 1
VIEWPOINT 0 0 0 1 0 0 0
POINTS 1139
DATA ascii
-1.028796 -0.017451497 -8.5455523 17.123829
-0.57624429 -0.044851426 -8.5725288 17
-0.22288516 -0.041246101 -8.489397 16.732082
0.26230535 -0.017805088 -8.5577707 17.176693
0.57657051 -0.047296826 -8.6327782 16.472301
0.95475101 -0.047321763 -8.5926819 15.544514
1.3925211 -0.047294401 -8.5754375 15.052854
1.7652954 -0.047324795 -8.5685911 14.60543
2.1853204 -0.047270805 -8.5802956 14.79149
2.5898497 -0.047315624 -8.5840645 14.458285
2.9993968 -0.047301084 -8.5946932 15.096297
3.396462 -0.047332969 -8.6028891 14.956928
3.6785195 -0.040146019 -8.5931158 15.770736
5.094583 -0.047276173 -8.5502615 16.931225
5.2684116 -0.047403168 -8.4856663 16.026125
-7.6871071 0.21091123 -8.6061716 20.231312
-7.5194054 0.16801177 -8.616045 19.776739
-2.0708668 0.051472109 -8.6772814 17.329229
-1.8076475 0.1652527 -8.6042528 20.03809
-1.4650291 0.18830723 -8.5684061 20.187042
-0.98390138 0.19824778 -8.5898657 19.72905
-0.77945054 0.17556983 -8.6528273 19.449074
-0.14045098 0.18403433 -8.4395428 19.421143
0.25066772 0.18719958 -8.5188646 19.754429
0.4149887 0.14226359 -8.7116718 19.055555
3.3753226 0.18311857 -8.6033983 19.09643
3.7178295 0.16944735 -8.6346331 19.720713
5.432694 0.17180179 -8.5875015 19.512049
5.9324627 0.33408988 -8.5308456 19.5
6.0372968 0.34295502 -8.5731812 19.5
-7.7049069 0.61007428 -8.5944719 25.13871
-7.5240879 0.63048106 -8.6111784 26.743103
-2.1444867 0.68325323 -8.5923824 24
-1.7779003 0.61264014 -8.6477633 25.642452
-1.4787018 0.62082708 -8.6187057 25.402966
-0.98703033 0.65246743 -8.5974627 24.94841
-0.77592516 0.67499161 -8.6492529 25.039637
-0.19417846 0.56229615 -8.4730272 22.951641
0.28726283 0.56107676 -8.5144749 24.830513
0.41687426 0.56036454 -8.6743698 25.833963
3.3707094 0.67236626 -8.6309605 22.331249
3.7150986 0.63818955 -8.6266479 25.081472
5.4360852 0.64413905 -8.5920076 24.791365
5.942512 0.67313141 -8.4646082 21
6.0441298 0.70211411 -8.6066561 21
-7.7354608 1.0779718 -8.6056976 26.524437
-7.5343723 1.0183948 -8.6198206 28.604231
-2.19047 0.94085401 -8.6156034 26.166666
-1.7672691 0.99683964 -8.6638317 27.379026
-1.498615 1.0088739 -8.6314707 27.411894
-0.9643712 1.0403607 -8.5996733 27.025213
-0.77484846 1.0291446 -8.6385899 28.381578
3.3718424 0.92351097 -8.5900717 24
3.6980617 0.9138723 -8.5947723 26.5
5.4221368 1.044398 -8.5927467 27.827059
5.9334097 1.0224054 -8.4755564 22.5
6.0534019 1.0664978 -8.6518698 22.5
-7.7397871 1.4293352 -8.6016588 29.263159
-7.5440755 1.3809674 -8.6153727 29.576923
-1.6769928 1.3227171 -8.6212873 29.398535
-1.5540452 1.3535072 -8.5872316 29.25625
-0.96376932 1.422873 -8.612114 27.805079
-0.76193637 1.3182772 -8.6301012 30
5.4178143 1.376527 -8.6023216 29.535088
5.9202995 1.4937462 -8.5429163 24.5
6.0370793 1.5131575 -8.5296516 24.5
-7.7281389 1.6812418 -8.7131262 30
-7.4771671 1.6916538 -8.7007446 30
-0.90577942 1.8694006 -8.6216421 27.340425
5.3750644 1.7773166 -8.5862503 28.902874
5.9144869 1.8946265 -8.5353622 26.125
6.0431237 1.8764975 -8.5591507 26
-0.89947748 2.2509758 -8.629694 28.407894
5.4772916 2.2610526 -8.5114965 28.598
5.9226742 2.2657561 -8.5775318 27.625
6.034039 2.272388 -8.5341187 27.666666
-7.3374958 -0.044711687 -8.1937838 15.348737
-6.9861088 -0.04729769 -8.1850414 14.583721
-6.5777345 -0.047276519 -8.192626 13.193148
-6.1916285 -0.047250643 -8.1954632 12.86563
-5.7936525 -0.047013149 -8.1913357 14.143336
-5.3955483 -0.046895199 -8.1824169 14.461351
-4.9987745 -0.046911623 -8.1741877 14.23402
-4.5973983 -0.047043588 -8.1891518 13.548465
-4.1982436 -0.047052287 -8.1875916 13.44974
-3.8198457 -0.04710291 -8.2126017 13.098509
-3.3878543 -0.046985701 -8.2236204 13.23133
-3.0084879 -0.046971496 -8.1684217 13.817142
-2.5857303 -0.047104526 -8.1928549 13.961795
-2.2107892 -0.046921629 -8.1771879 12.934953
-1.7836411 -0.041988473 -8.201623 14.808946
-1.4414877 -0.041615363 -8.2109509 15.316931
-1.0672826 -0.019079318 -8.2102146 16.903038
-0.52964705 -0.044241965 -8.1572132 16.585209
-0.18714516 -0.041059963 -8.2214251 16.57122
0.20088172 -0.027666282 -8.2388544 16.892134
0.62398291 -0.047234423 -8.1900835 15.513863
1.0070912 -0.04722352 -8.1765471 15.070529
1.3780652 -0.047289569 -8.1797771 14.447238
1.7945637 -0.047302663 -8.1681871 13.958218
2.2117698 -0.047300372 -8.1718664 12.876555
2.6011982 -0.047334258 -8.1634541 13.15941
2.9989638 -0.047323853 -8.1842556 14.058037
3.3876336 -0.046864893 -8.1886587 14.129641
3.7333441 -0.027884314 -8.1165266 15.811925
4.2361188 -0.018723868 -8.0644398 16.99577
4.6522784 -0.016756464 -8.0682812 16.955589
5.070118 -0.045781061 -8.1633244 16.42934
5.3293033 -0.030851433 -8.2281227 16.878687
5.676908 -0.0097241513 -8.2287922 18
-7.6794171 0.21118167 -8.216218 20.229862
-7.5267868 0.16087219 -8.2015753 19.728067
-1.6989992 0.16230698 -8.3829327 19.25
-1.2729913 0.28212237 -8.2511568 20.5
-0.97941631 0.18524647 -8.1994019 19.601063
-0.79458463 0.1916801 -8.3184671 19.579254
-0.054321393 0.21920024 -8.3589478 19.59803
0.10011213 0.19611025 -8.360014 19.702267
3.4816656 0.15994433 -8.2305336 19
3.8202634 0.17187901 -8.1406736 19.596767
4.2220612 0.17956525 -8.0926323 19.593304
4.5655031 0.1792406 -8.0870581 19.964754
5.4332495 0.17677276 -8.1977987 19.607618
5.8136969 0.33033857 -8.2590809 19.5
-7.6925817 0.63564986 -8.1996927 24.952856
-7.529264 0.63581532 -8.1920824 26.632404
-1.2722864 0.67823428 -8.2744493 24.5
-0.97120422 0.65075737 -8.1991539 24.966928
-0.79422826 0.66914576 -8.3038111 24.585714
-0.06634713 0.58704466 -8.3465958 22.916334
0.1266254 0.581617 -8.348175 24.469667
3.4930229 0.69146776 -8.3857288 22.5
3.8279223 0.64973032 -8.1360159 24.251951
4.2166638 0.65091509 -8.0977402 24.137135
4.5654235 0.63051462 -8.087822 26.103861
5.433948 0.65213084 -8.1988754 25.488186
5.7809758 0.70342195 -8.2385063 21.142857
-7.7151856 1.056353 -8.2000103 27.004999
-7.5373635 1.0151573 -8.2085648 28.658113
-1.2716357 1.0866972 -8.2905083 28.5
-0.95810223 1.0420672 -8.1941643 26.976522
-0.79084587 1.0681828 -8.3040829 28.035715
3.8239734 0.92391121 -8.1412249 25.011295
4.2092299 0.92042404 -8.1015844 25.087395
4.5451164 0.91166788 -8.0905743 27.156437
5.4227395 1.0259663 -8.1948128 28.05278
5.7948227 1.0621145 -8.2137346 22.714285
-7.7241611 1.3715657 -8.2034302 29.596296
-7.5386877 1.3604482 -8.2055111 29.665714
-0.95374382 1.440118 -8.2016773 27.803492
-0.79041779 1.3203071 -8.2877302 30
5.4053421 1.3818177 -8.2026377 28.63728
5.8183861 1.4697839 -8.2107611 24.5
-0.90254682 1.8892546 -8.1790028 27.896826
5.3934007 1.8652927 -8.2136974 26.424334
5.8378677 1.8995123 -8.1901312 26.375
-0.89131689 2.2529151 -8.1815472 28.470776
5.3927331 2.2599628 -8.2091455 28.146555
5.8183775 2.2785053 -8.1777258 28
-7.3241453 -0.039128795 -7.8023362 14.68022
-6.9863057 -0.047269743 -7.7790532 13.596056
-6.6092567 -0.047262602 -7.8081574 13.11169
-6.1718082 -0.046942309 -7.7671905 13.811714
-5.7916555 -0.047028232 -7.8005009 13.855556
-5.4151144 -0.047250908 -7.8033848 12.486506
-5.0191989 -0.047274519 -7.7953615 12.539565
-4.5969996 -0.04513862 -7.7928886 12.160005
-4.1995096 -0.047280345 -7.8245535 12.463118
-3.78231 -0.046703335 -7.8470917 11.894836
-3.4026065 -0.044332754 -7.8267083 11.967874
-2.9846287 -0.03506941 -7.8172956 13.130653
-2.6102111 -0.045366824 -7.7898993 13.98647
-2.1882007 -0.047164671 -7.7890596 13.187771
-1.823843 -0.047268704 -7.8012142 13.509611
-1.4376323 -0.044152539 -7.7934117 14.690073
-1.0201678 -0.01869587 -7.7402873 17.003475
-0.56158 -0.046414677 -7.7735882 16.647066
-0.20348585 -0.047355484 -7.7928953 16.602457
0.20777774 -0.047281329 -7.7957397 15.8899
0.61110365 -0.047326878 -7.7944298 15.362569
1.0251087 -0.047277853 -7.7918015 14.375003
1.4138056 -0.047275104 -7.7723684 13.193492
1.7982676 -0.047295719 -7.785501 12.830146
2.2039382 -0.047289934 -7.8014164 13.074695
2.6162179 -0.047276638 -7.7906146 12.364784
3.0082092 -0.047290098 -7.8119512 12.694323
3.4108596 -0.0470975 -7.8032961 12.631186
3.8140061 -0.045967307 -7.7710652 13.457296
4.2182603 -0.046483237 -7.7709298 14.347056
4.606935 -0.042874649 -7.7715864 15.111288
5.0136046 -0.046743479 -7.7907329 16.034964
5.3399587 -0.02496515 -7.7890635 17.171438
-7.6786604 0.21740381 -7.8127885 20.135372
-7.5272384 0.16556811 -7.8051286 19.991613
-5.6415548 0.15180755 -7.6968727 19.5
-5.3907037 0.16066393 -7.6767812 19.75
-5.0586438 0.19619487 -7.6536465 20.641026
-4.7110782 0.21442221 -7.632566 21.5
-4.3270388 0.1485049 -7.602663 20.291176
-3.9170749 0.017928135 -7.6156635 17.25
-2.9658942 0.16056088 -7.6889324 20.485424
-1.3257457 0.21765159 -7.7253284 20
-0.97703874 0.1815993 -7.7929273 19.671824
-0.77659345 0.0051584169 -7.6966305 17.222221
4.6097174 0.00031109899 -7.9851079 17
5.4279394 0.18786606 -7.7896261 19.633001
5.9455919 0.32336953 -7.8516421 19.5
-7.6886621 0.67008841 -7.7690878 24.048929
-7.5289822 0.62166685 -7.809669 26.664707
-5.6591148 0.56140417 -7.7309055 25.5
-5.413744 0.65172672 -7.7071743 27.5
-5.0534096 0.60931158 -7.6752338 28.071428
-4.6472168 0.56443954 -7.6393595 29
-4.3808165 0.51241452 -7.6163168 29.285715
-2.9377127 0.63111883 -7.6807508 26.177153
-1.3073004 0.67944616 -7.7779641 25.166666
-0.96370053 0.65590245 -7.7947202 25.090883
5.4292102 0.63719153 -7.7741137 24.93561
5.9408851 0.67125612 -7.8372483 21.1
-7.7059188 1.0663561 -7.7853932 27.760693
-7.536901 1.0195354 -7.8158708 28.371353
-2.9182687 1.0230498 -7.6922331 27.622726
-1.2703621 1.0285666 -7.813715 29
-0.95035517 1.0331274 -7.7944231 27.239407
5.4221544 1.0374665 -7.7658901 26.954361
5.9533582 0.99652779 -7.8714132 22.571428
-7.7071819 1.3491054 -7.7966762 29.784723
-7.5361862 1.3568156 -7.8142447 29.788889
-2.8807304 1.3691763 -7.6839156 27.237499
-0.94285583 1.4210569 -7.7852731 27.814432
5.423923 1.4766495 -7.7220607 26.969387
5.8880749 1.4934555 -7.7462573 24.666666
-2.8774934 1.8373343 -7.6768432 27.066666
-0.90376168 1.8706045 -7.744688 27.677185
5.4224272 1.9028449 -7.6837387 27.914286
5.8371234 1.8688368 -7.7266698 26.25
6.0099649 1.8792409 -7.7540092 26.5
-2.8641903 2.2494223 -7.6809659 27.166666
-0.89656889 2.2585442 -7.7828588 28.396193
5.422255 2.2186878 -7.6824636 29.485714
5.846787 2.2490621 -7.7322736 27.928572
6.0184612 2.2877359 -7.7927647 28.25
-7.6122789 -0.017279938 -7.2200708 17.333334
-7.3940358 -0.039429002 -7.3882575 14.511064
-7.0029573 -0.047279812 -7.3718319 12.828507
-6.6023998 -0.047022499 -7.4002552 14.385335
-6.2023711 -0.047061447 -7.3896465 13.65163
-5.8177333 -0.037002224 -7.4118061 12.813027
-5.4199224 -0.025830004 -7.5460925 12.934122
-5.0345812 -0.018468933 -7.5661011 13.473407
-4.703341 -0.027285287 -7.5677357 14.504388
-4.2009087 -0.033371087 -7.5552998 13.722912
-3.807904 -0.041278373 -7.5563197 13.135406
-3.400476 -0.042085614 -7.5628443 13.452871
-2.8942814 -0.027664075 -7.4340749 13.989437
-2.5904541 -0.046410281 -7.382113 13.250456
-2.2026095 -0.047022838 -7.3918419 14.685476
-1.786231 -0.047254626 -7.388576 13.355529
-1.3954546 -0.046737336 -7.3949232 14.963573
-1.0075618 -0.016659364 -7.3547878 16.5515
-0.6285066 -0.043549679 -7.4057269 16.422709
-0.17362145 -0.047374673 -7.3895202 16.307173
0.18563905 -0.047307793 -7.4106922 15.5981
0.59333467 -0.047331851 -7.4070444 14.769828
1.012446 -0.047332216 -7.4107432 13.507581
1.394492 -0.047253709 -7.3802814 13.527279
1.8070219 -0.046959732 -7.3713937 14.495733
2.2182655 -0.046889205 -7.3789563 13.83821
2.6035233 -0.04694828 -7.392837 14.112093
3.0025353 -0.046899296 -7.3798003 14.028711
3.4186227 -0.046995744 -7.3920803 14.331658
3.8276653 -0.047280859 -7.4157333 12.963033
4.2170706 -0.047315475 -7.3976288 13.638242
4.6187139 -0.047328491 -7.4048491 14.740238
5.0056448 -0.047301799 -7.4042802 15.657975
5.2944908 -0.034508798 -7.4024401 16.64175
5.9050694 -0.0017791353 -7.5002441 18
-7.6805811 0.17709674 -7.3964248 19.472219
-7.5280571 0.16009729 -7.4082999 19.914423
-5.6609921 0.1488409 -7.3434701 20.363459
-5.4307232 0.1533508 -7.4846931 20.917063
-4.9959793 0.1542713 -7.4892235 21.176695
-4.5955896 0.13946299 -7.4910879 20.699266
-4.2058396 0.14105336 -7.4932189 20.428064
-3.815201 0.13953802 -7.4971137 20.268881
-3.4376848 0.13839494 -7.5009551 20.492769
-2.9318025 0.16993269 -7.426095 19.791395
-1.2985896 0.27425665 -7.2168484 21
-0.97291666 0.18472227 -7.3875575 19.752729
-0.76406658 0.0027423427 -7.2605162 17
5.4255905 0.18100527 -7.4004359 19.775524
5.8044629 0.28639197 -7.4367661 19.375
-7.6881442 0.66739494 -7.4035563 24.747101
-7.5314016 0.62560791 -7.4073906 26.843098
-5.6761312 0.59978545 -7.3348699 27.558338
-5.4236021 0.57991344 -7.477653 28.507566
-4.9738383 0.55287361 -7.4808426 28.880531
-4.5771475 0.51273096 -7.4894981 29.468454
-4.2284851 0.51659369 -7.4827685 29.46759
-3.8146734 0.5415051 -7.4959273 29.00938
-3.4124613 0.57143831 -7.4892445 28.603346
-2.9217739 0.6443637 -7.4305067 25.085003
-1.2965268 0.66618031 -7.2609606 26
-0.96078265 0.65635818 -7.3830094 25.2712
5.4238172 0.63508719 -7.4013753 25.814938
5.7918973 0.72212571 -7.4342055 21.454546
-7.6760011 1.04328 -7.3875046 28.407352
-7.5355721 1.0158145 -7.4024072 28.645727
-5.7170329 0.94651484 -7.3187714 29.666668
-5.5823288 0.88965529 -7.5301142 30
-2.9089463 1.0457143 -7.4077039 27.109245
-1.2961798 0.9482882 -7.2691078 29.5
-0.95603079 1.0270597 -7.3819065 27.295887
5.4185333 1.0244585 -7.3995266 27.543976
5.7977781 1.0987191 -7.4620953 23.227272
-7.6388345 1.3217099 -7.4018531 29.928572
-7.5221782 1.3297458 -7.3701143 29.848076
-2.9065008 1.459255 -7.4093122 26.349493
-0.92937714 1.4186015 -7.3634319 27.601868
5.4092426 1.4295838 -7.3688426 26.777781
5.7965641 1.4675268 -7.4309068 24.875
-2.9006751 1.8151824 -7.4239373 27.650002
-0.90363461 1.8284968 -7.3492293 28.145084
5.3895264 1.8758568 -7.3530545 28.051729
5.8316474 1.8479645 -7.4257317 26.5625
-2.8881516 2.2440867 -7.4127355 27.1
-0.8980149 2.235836 -7.4138703 28.810078
5.3720417 2.2352018 -7.3731165 29.361111
5.8094869 2.2427678 -7.404479 28.4
-2.900665 2.408263 -7.2800331 28
-7.7264223 -0.0015207157 -7.0957127 17.5
-7.3718348 -0.04091588 -7.0168056 14.591204
-7.0249839 -0.04729702 -6.9881415 12.873342
-6.6080823 -0.046988379 -7.0009508 14.499539
-6.1955543 -0.047304686 -7.0038533 12.32447
-5.852829 -0.043546896 -7.0274267 13.512877
-2.8409355 -0.017144319 -7.0124807 14.742489
-2.6318669 -0.044027708 -7.0404181 12.587146
-2.2321262 -0.046881992 -7.0223942 14.11509
-1.7721961 -0.047249354 -7.0135055 12.593485
-1.4392604 -0.046773389 -6.9937272 14.569467
-1.0689318 -0.034611296 -6.9628453 15.414506
-0.58188123 -0.043066751 -6.9824991 16.539574
-0.17748424 -0.047329333 -7.0100503 15.957272
0.17920138 -0.047335431 -6.9925866 15.354043
0.58314794 -0.047304258 -6.9917736 14.607105
0.98311877 -0.047305617 -6.9900699 12.903727
1.3906268 -0.047098145 -6.9800935 13.746957
1.7898849 -0.047055922 -6.9781647 12.896584
2.1926916 -0.047331572 -6.9680238 12.274743
2.6024697 -0.047286909 -7.0008864 12.626194
3.018748 -0.047292676 -6.9777975 11.828198
3.4192755 -0.047083631 -6.997613 13.484885
3.8179822 -0.047055285 -7.0120668 14.188657
4.2574186 -0.047310751 -6.9963722 12.874672
4.6360149 -0.047287125 -6.9943824 14.437972
5.0190625 -0.047302298 -6.9873328 15.208002
5.3010955 -0.038648624 -6.9808345 15.69397
5.7279272 -0.0076481998 -6.9243603 18
-7.6693668 0.18674894 -7.0129466 19.638485
-7.5256543 0.15813981 -7.0037456 19.937677
-5.6669965 0.13884611 -7.0067983 19.962095
-2.8997118 0.18497153 -7.0063992 20.115644
-2.7989464 0.013098128 -7.1191306 17.666666
-1.314247 0.12218323 -7.1103463 19
-0.97343743 0.16962746 -7.0004454 19.700439
5.4228311 0.18846306 -6.9980435 19.725441
5.8349175 0.30923966 -6.9919362 19.5
-7.6720104 0.67380834 -7.0299306 25.285015
-7.5282149 0.61600184 -7.0074759 26.998882
-5.6915646 0.62915802 -6.9831119 27.251589
-2.900383 0.66077554 -7.0110021 24.681568
-1.3216686 0.65501279 -7.1092434 26
-0.96646512 0.64647526 -6.9978366 26.022137
5.424212 0.64142811 -7.0129843 25.074266
5.8426442 0.70847106 -7.0085454 21.454546
-7.6789589 1.0006129 -7.0140371 29.184378
-7.5353661 1.0234653 -7.0203857 28.695663
-5.7602358 0.96603799 -7.0207005 29.437038
-2.9036663 1.0344921 -7.0128908 26.801462
-1.2953868 0.91690505 -7.0301948 29.75
-0.9447875 1.0089161 -7.0045028 27.815853
5.4238815 1.0398117 -7.017622 26.949905
5.84478 1.0855608 -7.0256042 23.25
-7.520515 1.318414 -7.0393496 30
-2.9053192 1.4568065 -7.0195336 26.774405
-0.9098326 1.4219137 -7.000701 27.391666
5.4235687 1.4525056 -7.0383115 26.458334
5.8262196 1.4526922 -6.9708486 25
-2.9031143 1.8108056 -7.0145354 27.172413
-0.90289509 1.8503742 -6.9980736 27.725668
5.4290938 1.8690295 -7.0332789 28.772491
5.8160424 1.8533487 -6.9371982 26.958334
-2.8867474 2.2587702 -7.0140214 27.333332
-0.90437758 2.2193844 -7.0018888 28.884747
5.4269133 2.2226751 -7.0346985 29.227272
5.8210349 2.2508688 -6.9583001 28.791666
-7.3703933 -0.04306927 -6.5961871 14.938209
-7.0628123 -0.047284715 -6.5930219 12.670682
-6.6061254 -0.046964251 -6.6083188 14.216577
-6.2069016 -0.047297955 -6.5984449 12.528376
-5.8630185 -0.042699836 -6.592989 13.07805
-2.8406525 -0.014412422 -6.6006584 14.426449
-2.6065004 -0.043684091 -6.5912752 12.451226
-2.1886466 -0.046777599 -6.6225262 14.037564
-1.7885314 -0.047275428 -6.6143336 12.386375
-1.4475451 -0.046731889 -6.6000581 13.401986
-1.0451584 -0.022267615 -6.610836 15.778336
-0.59897923 -0.045630865 -6.5846601 16.417076
-0.19080217 -0.047357302 -6.6250553 15.788424
0.22392754 -0.047302812 -6.5819812 14.920969
0.60668182 -0.047294829 -6.579936 14.163995
0.98718172 -0.047283623 -6.6190262 12.805408
1.417412 -0.046949286 -6.58921 15.023692
1.817749 -0.046999406 -6.593545 12.525544
2.2051418 -0.041289333 -6.5714397 13.884861
2.5835109 -0.039410051 -6.6036057 13.681913
3.0356233 -0.042790119 -6.6063619 12.455917
3.4228413 -0.04493634 -6.6271973 12.918059
3.8144865 -0.047060203 -6.5881877 14.534839
4.2556262 -0.047291636 -6.6055703 12.474403
4.6487279 -0.047310978 -6.6161723 14.063086
5.0021753 -0.047256295 -6.5796795 14.935078
5.3404775 -0.030799786 -6.6086855 16.361309
5.6873302 -0.0022117719 -6.4584494 18
-7.6506448 0.15714107 -6.6219654 19.474461
-7.5271816 0.15526269 -6.606194 20.000408
-5.6661291 0.14461964 -6.602951 20.333158
-2.8916364 0.17623806 -6.5910754 20.36356
-1.2588936 0.12840164 -6.6206717 19.133333
-0.96958804 0.18545054 -6.6036682 19.795059
-0.72530794 0.0027734265 -6.7199507 17
1.8539219 0.15595599 -6.5122552 19.25
2.2652466 0.13341387 -6.4361858 20.097052
2.6411891 0.081777893 -6.4234948 18.457342
2.9989946 0.051611148 -6.4120822 17.110615
3.2775037 0.049172882 -6.4096375 17.23068
5.4274154 0.17343619 -6.6056995 19.638321
5.7822127 0.24755374 -6.6102877 19.264706
-7.6548457 0.68243128 -6.6287303 26.24
-7.5346618 0.61875594 -6.6027451 27.271082
-5.6903896 0.59505618 -6.5867682 28.027061
-2.8958836 0.65238088 -6.5916209 25.51528
-1.2547016 0.66282576 -6.6179543 27.59091
-0.95384395 0.64852548 -6.6010203 25.322834
1.8365401 0.67503589 -6.5223165 24.833334
2.1490972 0.49920416 -6.4549141 29.61755
2.9334784 0.48668042 -6.4044223 30
3.2573421 0.52648133 -6.4049911 29.050001
5.4306741 0.63267934 -6.603014 25.276514
5.7884994 0.6951431 -6.6179152 21.571428
-7.6696005 0.96690309 -6.6358652 29.425823
-7.5356002 0.98953223 -6.5943003 29.168001
-5.7608685 0.92680413 -6.6105337 29.785715
-2.8994811 1.0047584 -6.6134877 27.541504
-0.93480343 1.0254308 -6.6163583 26.835129
1.8441541 0.99484921 -6.5148201 28.174999
2.0868487 1.1542804 -6.4271107 28.6525
5.4324489 1.0310707 -6.6055903 26.524462
5.8047962 1.0706793 -6.6333947 23.5
-2.9113061 1.4456745 -6.599484 27.501148
-0.91123629 1.4448335 -6.6170912 27.548672
2.0972624 1.3832064 -6.4231539 30.157
5.4307418 1.4670868 -6.6050096 26.891666
5.8022962 1.4596127 -6.5805545 25.433332
-2.8841999 1.8721524 -6.6249466 25.924244
-0.90471721 1.8396868 -6.6565862 28.381355
5.4225745 1.8498051 -6.6041341 29.138348
5.7982235 1.8557568 -6.5862427 27.423077
-2.8821959 2.2619128 -6.6199236 27.5
-0.9061814 2.2092392 -6.6173215 29.529411
5.4163384 2.2198734 -6.6263771 29.5
5.8005238 2.2546015 -6.598187 29.076923
-7.3788333 -0.042911045 -6.1822543 14.539649
-7.0351377 -0.047273297 -6.1997046 12.077037
-6.606523 -0.046933457 -6.19734 14.671978
-6.2442007 -0.047238659 -6.1863413 12.913441
-5.8932657 -0.04608706 -6.2061167 12.635904
-2.8419805 -0.01617844 -6.1964388 14.618373
-2.6024415 -0.042746212 -6.2126708 12.226542
-2.2087069 -0.046840999 -6.2135038 13.738005
-1.7849886 -0.047303107 -6.1917753 13.158335
-1.4495543 -0.047299623 -6.201098 12.910884
-1.0432771 -0.027374031 -6.2210388 15.55719
-0.58228123 -0.046348769 -6.1693859 16.24494
-0.2152639 -0.047280904 -6.1922235 15.616919
0.22425497 -0.047259253 -6.1998773 14.854591
0.64134806 -0.047295153 -6.1990561 13.554248
1.0221221 -0.04715319 -6.2083693 13.613723
1.4050719 -0.047066174 -6.2256031 14.760746
1.8107198 -0.045386098 -6.1854792 13.434545
2.0529616 -0.025826169 -6.1985059 14.73518
3.1422601 -0.022526242 -6.1390777 13.310185
3.4381063 -0.038410068 -6.194386 12.691602
3.8080542 -0.046939924 -6.2055402 14.464031
4.2354569 -0.047294304 -6.1960592 12.695466
4.6686702 -0.04730434 -6.2033639 14.017949
5.0192184 -0.047251046 -6.2053623 14.953145
5.3087921 -0.040865414 -6.2164531 15.779564
-7.6460996 0.17019461 -6.2331467 19.740583
-7.5254292 0.1431773 -6.1930223 19.808006
-5.6606593 0.13877119 -6.2092361 20.06188
-2.8901777 0.16542828 -6.1990442 20.318693
-1.2380968 0.156352 -6.2635441 19.833334
-0.96986848 0.17580771 -6.1956496 19.809916
1.8961922 0.17874008 -6.1773148 19.545465
2.1482875 0.17822418 -6.2171121 20.538504
2.622149 0.18547224 -6.3845634 22.478418
3.12064 0.19323634 -6.2122908 20.735468
3.3198981 0.16928588 -6.2443347 20.032661
3.6827443 0.22841918 -6.2258992 19.214285
5.4256229 0.19187132 -6.1906815 19.813253
5.7890778 0.24181037 -6.170948 19.263159
-7.6465254 0.66958779 -6.2267528 27.266741
-7.529583 0.61192733 -6.1899076 27.426453
-5.6803846 0.57464039 -6.2059178 28.659052
-2.8926816 0.63322651 -6.1956582 26.911442
-1.2266033 0.61791921 -6.2306137 28.166668
-0.95773453 0.64045227 -6.1887803 25.767349
1.8783038 0.66965389 -6.2228355 25.054873
2.1370485 0.64099336 -6.2101479 25.353788
3.1289444 0.62943608 -6.1963773 25.083008
3.3131552 0.64454579 -6.2277822 24.5557
3.6945779 0.65952992 -6.2316475 21.583334
5.4263787 0.63330591 -6.194798 25.801451
5.7811069 0.66953939 -6.1980572 21.533333
-7.6551437 0.94132209 -6.2530084 29.536112
-7.5289941 0.96560955 -6.1587768 29.402126
-5.7066422 0.89897895 -6.3357983 30
-2.8949358 0.96993005 -6.2167139 28.930109
-0.94159561 1.0200034 -6.1806898 26.990189
1.8734716 1.0298491 -6.2358809 28.963634
2.1360314 1.042798 -6.1943049 27.31418
3.1488953 1.0466039 -6.1642332 26.159927
3.3183804 1.0497326 -6.2119603 25.910269
3.7024543 1.0603365 -6.2311883 23.789474
5.4276824 1.0379629 -6.1685596 26.819954
5.7824678 1.0775506 -6.2085409 23.678572
-2.9252691 1.3926948 -6.2151957 29.291111
-0.91720855 1.4336829 -6.1837769 27.636843
2.1293705 1.408178 -6.2093306 28.366669
3.1502497 1.45748 -6.1719937 28.180952
3.3224554 1.4581761 -6.2147245 27.826178
3.7030592 1.4800425 -6.2269425 26.061403
5.4241505 1.4740272 -6.1235747 27.798359
5.7668624 1.4836053 -6.2108231 26.15625
-2.8924286 1.8606619 -6.2110271 26
-0.90556383 1.8715799 -6.17524 28.440001
2.1373811 1.8439915 -6.1835141 28.450001
3.1533554 1.798867 -6.1784863 29.854546
3.326478 1.8054197 -6.2212501 29.265625
3.6999271 1.8865151 -6.2196093 28.226315
5.4185672 1.8022531 -6.1208572 29.594339
5.7859731 1.879439 -6.202261 28.066668
-2.8925674 2.22156 -6.2113037 27.5
-0.90667033 2.2290797 -6.1940293 29.580645
2.1441886 2.1669254 -6.1885438 29.841234
3.4094398 2.2346494 -6.2090492 29.529409
3.7025576 2.2038186 -6.221765 29.868422
5.5137658 2.1942468 -6.1973386 29.416666
5.811193 2.2096846 -6.2063041 29.533333
-7.3823519 -0.040385369 -5.7784863 14.411319
-7.0179138 -0.047278292 -5.8018975 12.432161
-6.6147952 -0.046998486 -5.8158135 14.280208
-6.2460322 -0.047152836 -5.7841153 13.094975
-5.8983088 -0.046519581 -5.7982774 12.83038
-2.8384902 -0.016708082 -5.8027244 15.055549
-2.6247289 -0.042544466 -5.8018432 12.691316
-2.2007964 -0.046906114 -5.7786317 14.649374
-1.8156365 -0.047295656 -5.7702188 13.555395
-1.4674419 -0.047319081 -5.8088746 13.312023
-1.0016241 -0.031387456 -5.8225689 15.559706
-0.59752053 -0.045595672 -5.8339086 16.06378
-0.19572258 -0.047305446 -5.8031902 15.458269
0.21014872 -0.047279216 -5.8120966 14.515209
0.61411196 -0.047289394 -5.7972827 13.059061
0.99209559 -0.047109075 -5.809536 13.800457
1.4169136 -0.047063831 -5.8052626 14.110122
1.8113422 -0.045800053 -5.8074331 12.795816
2.0633099 -0.037173931 -5.8367605 15.120843
3.1710968 -0.016728655 -5.7964501 14.028119
3.4326243 -0.047275048 -5.8117614 12.495894
3.8516388 -0.046783492 -5.8099756 14.238535
4.256629 -0.047279026 -5.8054104 12.773396
4.6463718 -0.047268149 -5.8014855 14.105935
5.0158281 -0.047317255 -5.8130245 14.75488
5.2959075 -0.039431535 -5.7998776 15.589522
-7.6301742 0.17067669 -5.8297148 19.876862
-7.5216923 0.15073007 -5.7888727 20.031837
-5.6559749 0.13631968 -5.8171659 20.03793
-5.5950632 0.2848081 -5.8726864 23.548077
-2.8835485 0.16662781 -5.7979603 20.367266
-2.7921593 0.00019917637 -5.6940823 17
-1.2062062 0.14884683 -5.8250518 19.982857
-0.974141 0.17754222 -5.8105054 19.847837
1.9238375 0.16324641 -5.8114591 19.430555
2.1263139 0.1664214 -5.7971768 19.751091
3.130765 0.17348754 -5.7815514 20.371429
3.4546297 0.24313165 -5.7855906 19.40909
5.4230876 0.18722017 -5.809063 19.859772
5.7464943 0.22192372 -5.7696571 19.18421
-7.6370258 0.65686947 -5.8128748 27.363417
-7.5228066 0.6070568 -5.7869639 27.64867
-5.6661701 0.56123042 -5.8254294 28.91593
-5.5947232 0.51163012 -5.8062892 29.022726
-2.8889101 0.61851454 -5.7995033 27.292189
-1.2039239 0.56301403 -5.8441324 28.636364
-0.95929724 0.63583821 -5.818275 25.848305
1.9102519 0.68247926 -5.8122811 25.644445
2.1275709 0.64215869 -5.8017488 25.137377
3.1247151 0.64444995 -5.7924051 25.615086
3.4861209 0.65002 -5.7774901 21.950001
5.4228177 0.63643479 -5.8300781 25.334755
5.7605114 0.66275883 -5.786448 21.617647
-7.6261787 0.91354227 -5.9246497 29.833334
-7.523119 0.94456607 -5.7570853 29.565845
-2.9072132 1.0097673 -5.8255272 28.798702
-0.94366318 1.0262688 -5.8191729 27.07612
1.9286625 0.98554337 -5.7910252 29.127779
2.1361275 1.0421783 -5.8080134 27.377748
3.1155324 1.0364029 -5.7887387 27.735043
3.5002673 1.0446578 -5.7673092 24.363636
5.4229369 1.0353485 -5.8054652 26.790522
5.7523103 1.0719461 -5.8031068 23.852942
-2.9291556 1.3327115 -5.8189611 29.854166
-0.92359543 1.4206409 -5.8284116 27.96541
2.1358247 1.4133848 -5.816174 28.105503
3.1112161 1.4276712 -5.7700262 28.85
3.4817922 1.4551216 -5.7448754 27
3.6018424 1.4642243 -5.6708908 26.5
5.4224191 1.4415339 -5.7995157 28.025927
5.750617 1.4825108 -5.8077002 26.09375
-0.90974134 1.8496267 -5.788198 28.4125
2.1380877 1.8668386 -5.8069525 28.779364
3.0629172 1.8012308 -5.7791476 29.700001
3.4968154 1.8532833 -5.73561 29
5.4054828 1.7971113 -5.830164 29.141415
5.7517705 1.8854475 -5.811511 28.21875
-0.90975428 2.2281609 -5.7977819 29.678572
2.1288388 2.1602864 -5.7990422 29.90909
3.5296192 2.0722466 -5.6841469 30
5.4611969 2.2321148 -5.8918486 29.5
5.7508874 2.2301629 -5.8543725 29.666666
-7.398725 -0.037853871 -5.4282608 14.373034
-7.0155706 -0.047272269 -5.4080677 12.563814
-6.6368375 -0.047048885 -5.4022007 13.834867
-6.2074842 -0.04705536 -5.4001794 13.492166
-5.8625021 -0.045318529 -5.416348 12.730403
-2.8354321 -0.017813018 -5.3967381 15.196954
-2.6131148 -0.042496834 -5.4088335 13.949254
-2.2217362 -0.047044888 -5.4197879 14.68537
-1.822868 -0.04727716 -5.3869443 13.186514
-1.4329933 -0.047256868 -5.3974428 13.621767
-1.0416328 -0.026376676 -5.3800592 15.3628
-0.53108966 -0.047307327 -5.3633041 15.589647
-0.21345519 -0.047255252 -5.4017634 15.277115
0.18271726 -0.047270466 -5.3840532 14.608223
0.58388799 -0.047267985 -5.3999834 13.054269
0.98137522 -0.047063436 -5.4112706 13.87534
1.3922856 -0.0470814 -5.4011087 13.766873
1.7617015 -0.046747394 -5.3848176 13.154331
2.0450208 -0.039084483 -5.4381394 14.152703
3.1681015 -0.015965704 -5.4304824 13.10812
3.4179649 -0.047279809 -5.4068675 12.037436
3.8302407 -0.046862632 -5.4043231 14.169488
4.2392464 -0.043272417 -5.4021645 13.143849
4.6712694 -0.046028551 -5.3937182 13.787682
5.0381336 -0.047285821 -5.4120345 14.977312
5.281383 -0.042531848 -5.4414177 15.873499
-7.6291413 0.1792897 -5.3964429 20.241833
-7.5212317 0.15176921 -5.3887768 19.971699
-5.6532717 0.1434105 -5.425375 20.226345
-5.5912738 0.18695457 -5.3954616 20.541304
-2.8814695 0.16857147 -5.3831515 20.475731
-2.7647996 0.0032703518 -5.4220581 17
-0.96731061 0.1806802 -5.4094839 19.939411
-0.77803445 0.0092183156 -5.4648738 17
1.9622391 0.13957514 -5.3880177 19.219202
2.1236527 0.16443759 -5.393889 19.804443
3.1292095 0.18452024 -5.4000807 20.214281
3.3996286 0.26677626 -5.4934578 19.722221
4.3165317 0.071329266 -5.2198858 18.25316
4.4356852 0.075717032 -5.2175784 18.474787
5.423142 0.19765353 -5.4119406 19.860832
5.7452612 0.21165623 -5.4383259 19.166666
-7.6276889 0.6239956 -5.4295111 27.882933
-7.5231237 0.61464077 -5.3757648 27.622839
-5.6674466 0.54444504 -5.4303675 28.763468
-5.5875587 0.58414358 -5.4142981 28.311079
-2.8835468 0.61012512 -5.3961873 27.79319
-0.95224553 0.6308974 -5.4171929 25.889227
1.9542896 0.68116558 -5.4343681 26
2.1235185 0.63227826 -5.4039445 25.802038
3.1202934 0.64129901 -5.402986 25.157232
3.3897343 0.66363418 -5.4754257 22.5
5.4233274 0.6328305 -5.4125934 25.416897
5.7475119 0.67067349 -5.380302 21.833334
-7.65449 0.90704083 -5.3104291 29.805555
-7.5186615 0.94597471 -5.3618045 29.5882
-2.9109161 0.97835404 -5.4072704 29.223673
-0.94239914 1.0435439 -5.4260712 26.913679
1.9545594 0.96037173 -5.3957977 29.472223
2.1362848 1.0319749 -5.4083133 27.484022
3.1216834 1.0438856 -5.4144912 27.059702
3.414782 1.0674335 -5.4651504 25.181818
5.4256582 1.0466785 -5.4186506 26.819588
5.7545848 1.0636448 -5.3903685 24.088236
-2.9116035 1.2784123 -5.507659 30
-0.92437422 1.4364258 -5.4383755 28.179132
2.136394 1.4086726 -5.4108353 28.341667
3.1177232 1.4286915 -5.4243493 28.958334
3.4182279 1.4262381 -5.4264579 27.458334
5.4244809 1.4511404 -5.4235735 28.58676
5.7524066 1.4447718 -5.3957429 26.263159
-0.90835303 1.8330002 -5.4350619 28.885965
2.1337068 1.8456125 -5.4182558 29.326086
3.071013 1.7768157 -5.4658184 29.625
3.4817674 1.8420957 -5.378273 29.222221
3.6049693 1.8867068 -5.5911598 29
5.426199 1.8085142 -5.3962808 29.0625
5.7639256 1.8638204 -5.385931 28.722221
-0.90795392 2.2010891 -5.4370966 29.738094
2.1232054 2.1301622 -5.3695111 30
3.1211638 2.0979528 -5.4348617 30
3.3608842 2.0895615 -5.3340807 30
5.489037 2.1875515 -5.4281101 29.833334
5.7458177 2.182719 -5.4163346 29.888889
-7.3991327 -0.031605605 -4.9962025 14.400787
-7.0024204 -0.047299199 -5.0142598 12.264288
-6.6107683 -0.047025707 -5.0043592 14.360677
-6.2147288 -0.047085483 -5.0094452 13.123064
-5.8513532 -0.044584922 -5.0138903 12.688751
-2.8306706 -0.015668524 -5.0212407 15.14935
-2.6220219 -0.043678917 -4.9817142 13.090902
-2.1997633 -0.046945322 -4.9921227 14.759332
-1.808228 -0.047231141 -4.9853501 13.723685
-1.4541968 -0.046925552 -4.9886947 13.10815
-1.0233058 -0.021474734 -5.018096 15.33717
-0.55512613 -0.045423001 -5.0180597 15.200418
-0.20292011 -0.047298007 -5.0100055 14.787408
0.1533702 -0.047262292 -4.9665079 14.23402
0.57579094 -0.047304887 -4.9992862 13.432169
0.96299815 -0.047016442 -5.0161552 14.20492
1.4020734 -0.047239311 -4.9894519 13.041479
1.7566828 -0.04596379 -5.0193725 13.438733
2.0709689 -0.02871212 -4.9910903 14.771111
3.1683245 -0.017198656 -5.0280523 13.123198
3.4162652 -0.047262985 -4.9735122 12.596508
3.8289387 -0.046847969 -4.9989815 14.285151
4.1901417 -0.036294259 -5.0029535 13.530029
4.7075839 -0.04619161 -5.0047388 14.643065
5.018168 -0.047265496 -5.003274 15.220963
5.3005271 -0.046254866 -5.0313821 15.728397
-7.6516924 0.15418577 -4.9864979 19.504166
-7.51685 0.1575838 -4.9815388 20.075445
-5.6490374 0.137897 -5.0140958 20.161245
-5.5821304 0.18097199 -4.9592814 20.242609
-2.8783863 0.15463448 -4.9847579 20.289408
-2.7760639 0.0027519315 -4.9688878 17
-0.972112 0.17988282 -4.9913592 19.977661
1.9726781 0.13857234 -4.9825253 19.383617
2.127275 0.17937388 -5.0005302 19.929214
3.1306486 0.18229948 -4.9689083 20.274805
3.3782513 0.25479051 -5.0112901 19.67647
4.299777 0.075369336 -5.0043759 18.446524
4.4299469 0.090213239 -4.9520497 18.800251
5.4233956 0.19733007 -5.0041947 19.902819
5.7366829 0.24751703 -5.0252066 19.447369
-7.6410589 0.63671261 -5.0067701 26.924435
-7.5172129 0.61135346 -4.9526296 27.482872
-5.6540461 0.5552898 -5.0119834 28.824455
-5.582911 0.60645717 -5.0475569 27.683367
-2.8796825 0.58502305 -4.9868398 28.096407
-2.7912693 0.53335804 -4.8652067 24.75
-0.9568575 0.63245159 -4.9943156 25.741236
1.9724641 0.62148005 -4.9973059 27.788662
2.1283407 0.64941728 -4.998364 25.497662
3.1263058 0.63006967 -4.9562035 25.587925
3.3987741 0.68423522 -4.9818316 23
5.4255643 0.64111018 -5.0033922 25.117132
5.7348084 0.6521135 -5.0045481 22
-7.6627636 0.96075368 -4.9244981 29.328573
-7.4916406 0.97562641 -4.9310555 29.32888
-5.6115789 0.87542659 -4.9473228 30
-2.9217129 0.94359261 -5.0150156 29.598709
-2.7904413 0.8996318 -4.9631062 30
-0.95055169 1.0458317 -4.9943142 27.149769
1.967132 0.92926776 -5.0027552 29.716669
2.1315143 1.027148 -4.9968739 27.630129
3.1232238 1.0508941 -4.9469547 27.412121
3.3943534 1.0520871 -4.9845653 25.954546
5.4282608 1.0496293 -4.9982743 27.202875
5.7363477 1.0874143 -4.9976268 24.625
-0.9258948 1.4231287 -4.9845076 28.431427
2.1388254 1.4322408 -5.0016866 28.423077
3.1229751 1.3898703 -4.92908 29.276596
3.3727403 1.4096146 -5.0217328 28.833334
5.4325666 1.4197587 -5.0010858 29.030796
5.7409606 1.4895713 -5.0016031 27
-0.91171014 1.8319294 -5.0176301 29.139442
2.1362648 1.7958535 -5.006547 29.722221
3.1117301 1.8040441 -5.0568438 29.799999
3.4623854 1.7950373 -4.9507608 30
5.4524488 1.8382174 -4.9874063 29.229414
5.7400346 1.8310966 -4.977982 29.174604
-0.90775275 2.179909 -5.0451927 29.973333
2.1334763 2.091445 -5.0959778 30
5.5165391 2.1779397 -5.0237184 30
5.7120743 2.1302853 -4.9165664 30
-7.6229758 -0.001727093 -4.5650296 17.5
-7.3658547 -0.0341198 -4.6102285 15.109165
-7.0199656 -0.047292564 -4.5877209 12.614796
-6.6233082 -0.0470713 -4.5854506 13.436969
-6.2153921 -0.047030333 -4.5874815 12.929629
-5.8654003 -0.044137008 -4.6280913 12.71121
-2.8277409 -0.016018769 -4.5957918 14.757172
-2.5854743 -0.045080997 -4.5999274 13.453865
-2.2214305 -0.047126126 -4.6005297 13.910686
-1.8190571 -0.047107108 -4.5966935 13.836192
-1.4293282 -0.046415262 -4.5800405 13.134162
-1.0444032 -0.034648355 -4.6047602 14.540011
-0.56460923 -0.045990948 -4.6312742 14.46584
-0.18973577 -0.04728831 -4.6180429 14.172299
0.20962715 -0.047319196 -4.5740113 13.723739
0.6089673 -0.047254559 -4.6057901 12.749842
0.99644923 -0.047017947 -4.6133018 14.357156
1.4134409 -0.047287706 -4.5912561 12.691804
1.7819557 -0.04720623 -4.6183205 14.438509
2.0718312 -0.015371195 -4.5926032 15.595128
3.1638968 -0.020890873 -4.6174917 13.384506
3.4038146 -0.046772495 -4.593451 12.332582
3.831089 -0.046914164 -4.6025276 14.08489
4.2349887 -0.041444127 -4.5946808 12.679608
4.680624 -0.046677161 -4.6100845 13.657812
5.054884 -0.047245257 -4.5910206 15.174605
5.2869201 -0.04442383 -4.5871167 15.587148
-7.686492 0.20876971 -4.6169672 19.90625
-7.5085421 0.16254601 -4.563602 20.063086
-5.639677 0.1400865 -4.5934358 20.249416
-5.578351 0.17674065 -4.5801225 19.880129
-2.8716784 0.15831944 -4.5958424 20.492332
-2.7948453 0.0062118545 -4.5752325 16.111111
-0.97717381 0.16901916 -4.5976081 19.906572
1.9545255 0.15383889 -4.6188188 19.714893
2.1266599 0.18840659 -4.6008415 19.95845
3.1297927 0.16045795 -4.5555377 19.949171
3.3632681 0.231499 -4.5710115 19.67647
4.3159881 0.085580409 -4.7858772 18.892506
5.4228592 0.16176128 -4.6149001 19.556208
5.7114377 0.25025961 -4.6192999 19.512499
-7.6784148 0.66579449 -4.5861692 25.098461
-7.5044656 0.6304667 -4.5474896 26.9174
-5.6356468 0.57283866 -4.5864034 28.610142
-5.5717783 0.6600346 -4.639257 27.036364
-2.8700883 0.57765675 -4.6011992 28.348488
-1.2118595 0.67489249 -4.5853062 25.545454
-0.96376663 0.63559669 -4.6001639 25.628872
1.959383 0.630054 -4.6358237 27.622854
2.1321552 0.64797485 -4.5946012 25.256704
3.1246805 0.64252275 -4.5479159 26.038452
3.3662622 0.69062948 -4.5954309 23.464285
5.4262533 0.63012058 -4.6045065 25.922564
5.7182169 0.66784054 -4.6214943 22.190475
-7.6774268 1.0184716 -4.5798764 28.967859
-7.4862752 0.99588072 -4.5394764 29.066753
-5.6654544 0.93152303 -4.5557175 29.916666
-5.5701346 0.8936255 -4.5242786 29.583334
-2.8790705 0.91873831 -4.5690713 29.773808
-1.2132244 1.0134256 -4.5242777 29.285715
-0.95708978 1.0407928 -4.6065478 27.270073
1.9605635 0.86903161 -4.4798522 29.666666
2.1302731 1.028775 -4.5942674 27.460106
3.1200917 1.0455047 -4.5301876 28.050793
3.3872991 1.0765423 -4.6333451 26.446667
5.4284997 1.0318288 -4.6021948 27.854275
5.7110438 1.0785221 -4.5928907 24.926086
-7.4776583 1.3424911 -4.5001907 29.9
-0.93122494 1.4259906 -4.6009626 28.422005
2.1393456 1.4592203 -4.5900326 28.481083
3.1186607 1.3392353 -4.4964218 29.780487
3.4667294 1.4731675 -4.6650472 28
5.440258 1.4102492 -4.618072 28.828888
5.7176557 1.471822 -4.617413 27.454546
-0.91112024 1.8370227 -4.5886254 29.216667
2.1379683 1.7806748 -4.5814781 29.644737
3.1460493 1.8541005 -4.7473531 29.5
3.4567652 1.7621038 -4.6871929 29.777779
5.4999537 1.844583 -4.6179156 29.113892
5.7281842 1.8196335 -4.5868378 29.472221
-0.91349733 2.1402831 -4.639195 30
2.1355278 2.1633511 -4.4485998 29.9
5.5072908 2.1065528 -4.6956167 30
5.6688843 2.10866 -4.608223 30
-7.6739912 -0.0026252121 -4.3510561 17.5
-7.3843999 -0.031389121 -4.2077613 15.016927
-6.9993057 -0.047247089 -4.2039866 13.336684
-6.6320763 -0.047104899 -4.1848378 13.914469
-6.2007036 -0.047054403 -4.2006917 13.437108
-5.8215203 -0.036251929 -4.1821671 13.061369
-5.5808182 -0.019604051 -4.0395355 14.0584
-5.1700258 -0.021699488 -4.0359335 17.25
-4.6443377 -0.0018608645 -4.0092044 17.5
-4.139132 -0.0031138882 -4.018805 16.75
-2.8487093 -0.022056179 -4.1089616 15.451697
-2.5899954 -0.044628572 -4.1895199 13.735667
-2.2153926 -0.047246218 -4.2001662 13.712587
-1.8124846 -0.047122136 -4.2268791 14.175546
-1.4137894 -0.047024842 -4.1691818 12.856256
-1.0310683 -0.036330659 -4.151 13.933682
-0.59194899 -0.046960235 -4.1838207 12.851635
-0.20596492 -0.047272317 -4.2182493 13.282676
0.20967278 -0.047209676 -4.1998901 13.573843
0.58838558 -0.04710757 -4.2042017 14.479741
1.0140326 -0.047122668 -4.1752806 14.75585
1.4092878 -0.047307163 -4.1890068 13.448255
1.8155395 -0.046243846 -4.196907 14.186821
2.0589118 -0.030133467 -4.2138705 15.710144
3.170089 -0.021289254 -4.1577692 13.107707
3.402199 -0.046890263 -4.1966362 12.457148
3.8423069 -0.04681854 -4.2102623 14.391632
4.2281752 -0.047261123 -4.1991053 12.348874
4.6490731 -0.047238342 -4.2038856 13.767574
5.0715346 -0.047211744 -4.190486 15.212214
5.2886906 -0.043350868 -4.1909189 16.016565
-7.6838121 0.17205954 -4.2693214 19.380951
-7.4984727 0.17103511 -4.1664515 19.83798
-5.639082 0.16266628 -4.2072577 21.302382
-5.4358449 0.17774546 -4.0743403 20.313581
-4.9720664 0.19967453 -4.013526 20.935093
-4.5850081 0.17913143 -4.0141973 20.415594
-4.1834188 0.1624525 -4.014504 19.970415
-3.8015752 0.17550825 -4.0172262 20.299143
-3.3931644 0.16319227 -4.0217938 20.084488
-2.9209318 0.15737396 -4.1545577 20.260412
-2.7786412 0.0088790506 -4.1625338 16.844643
-1.215269 0.26752847 -4.2229042 20.5
-0.97640234 0.16889493 -4.1939411 19.854101
1.9268274 0.16520475 -4.2324381 19.71052
2.1292078 0.18573509 -4.1985917 19.840057
3.1310818 0.17108999 -4.1761456 20.059959
3.3410866 0.20457427 -4.1816635 19.52924
5.4224224 0.19581097 -4.2053385 19.925194
5.6946688 0.22840931 -4.1835718 19.456522
-7.6786447 0.67196083 -4.2367382 24.638889
-7.4962978 0.64054352 -4.1615882 25.494905
-5.6391368 0.59729874 -4.1795774 27.960367
-5.4375281 0.67333579 -4.1044154 25.757261
-4.9690189 0.66592771 -4.0101552 25.763786
-4.5771818 0.58563477 -4.0166569 27.525152
-4.1957521 0.60694706 -4.0180268 27.863735
-3.8108485 0.60458761 -4.0181398 27.922667
-3.4239936 0.62152773 -4.0214143 28.006098
-2.9335806 0.59803522 -4.148303 28.099073
-1.2336885 0.67359471 -4.1568604 24.857143
-0.968741 0.64797378 -4.2056375 25.452282
1.9226605 0.6605683 -4.251965 27.048349
2.1314571 0.64939296 -4.2043734 24.964039
3.123291 0.63024408 -4.1540055 26.181864
3.3622665 0.65573943 -4.2056246 23.238096
5.4238563 0.640176 -4.2145009 25.660976
5.7070541 0.67523807 -4.208528 22.572222
-7.6758609 1.0634216 -4.2354374 28.629961
-7.4872961 1.0404311 -4.1485491 27.11482
-5.6526575 0.97481024 -4.1528974 29.071428
-5.430747 0.99012679 -4.0818677 28.967388
-4.9553647 1.0285695 -4.0092974 28.76923
-4.6112542 1.0053278 -4.0101709 29.104166
-4.2107759 0.96686757 -4.0097299 29.466667
-3.8237159 0.93975157 -4.0080657 29.742424
-3.4450622 0.90522361 -4.0189052 29.944445
-2.9410832 0.91904813 -4.1409664 29.702948
-1.2334309 1.0440946 -4.1587639 28.75
-0.96314567 1.037949 -4.2127824 27.797075
1.8850574 0.9097293 -4.1017694 29.833332
2.1328473 1.0328872 -4.2215967 26.607327
3.1198957 1.0350674 -4.1340723 28.463923
3.3711367 1.0586221 -4.2371907 26.352942
5.4208803 1.037964 -4.2285161 27.823626
5.7052174 1.0600858 -4.2117434 25.205883
-7.6130309 1.2897907 -4.078764 30
-7.4910307 1.4373475 -4.1590905 28.527273
-5.6240959 1.3975835 -4.0089016 29.5
-5.3301001 1.3447282 -4.008626 29.833334
-4.9662051 1.289781 -4.0108428 30
-4.7411771 1.2872667 -4.0068526 30
-0.95067656 1.3942815 -4.218646 29.012426
2.1401787 1.4499589 -4.2234516 28.17384
3.0888364 1.3751224 -4.2150126 29.5
3.4159229 1.4828897 -4.2124844 28.884615
5.4228768 1.3594292 -4.1960969 29.4498
5.7066922 1.4728036 -4.2091613 27.963158
-7.5020871 1.8089557 -4.1041965 29.689655
-0.91585088 1.8260244 -4.1952491 29.423811
2.141089 1.8181355 -4.2441306 29.133694
3.1166387 1.7722031 -4.2148972 30
3.3598442 1.7927504 -4.3323827 30
5.4739566 1.8435172 -4.18291 29.602562
5.7193327 1.7838092 -4.1970143 29.814812
-0.90448028 2.1148636 -4.3792052 30
2.1415317 2.1924851 -4.2107058 29.812923
-7.3554416 -0.03321638 -3.7810161 14.936649
-6.9883761 -0.047284 -3.8042495 13.452559
-6.6080794 -0.047091648 -3.8011014 13.907877
-6.1782222 -0.047077611 -3.7946713 14.321631
-5.771513 -0.043287173 -3.7979505 13.087648
-5.4031239 -0.046252687 -3.760633 12.902781
-4.9913254 -0.04492788 -3.742173 13.384852
-4.6033449 -0.045257043 -3.7469158 13.130279
-4.1871524 -0.047270134 -3.7461746 13.017568
-3.7998734 -0.047291365 -3.7508454 13.119321
-3.3833482 -0.046713747 -3.7423797 13.113166
-2.9855442 -0.045645084 -3.7671211 13.44031
-2.592119 -0.047266167 -3.8020933 13.640376
-2.2053044 -0.047271002 -3.8054409 12.708301
-1.7966596 -0.047234301 -3.8175709 13.201077
-1.3973058 -0.04670836 -3.7844567 13.464664
-0.99725318 -0.039137661 -3.7576776 13.940428
-0.59410572 -0.046384081 -3.817704 12.932714
-0.21705431 -0.047045641 -3.8005812 14.139429
0.19654505 -0.047045361 -3.7876651 14.53552
0.61273474 -0.047138616 -3.7931497 14.389606
0.97271448 -0.047254343 -3.7752342 13.816738
1.3887045 -0.047303312 -3.7996478 14.341357
1.7514828 -0.046760954 -3.7946746 14.876873
2.0544448 -0.043350324 -3.7655549 15.587926
3.1764548 -0.028280444 -3.8195734 12.805996
3.3935418 -0.047273509 -3.817663 14.037436
3.8404691 -0.044189401 -3.8016465 15.037462
4.1783819 -0.031033166 -3.8490345 11.780422
4.7066226 -0.04604087 -3.79053 15.514516
5.0596042 -0.047264196 -3.7351949 16.044838
5.3165483 -0.040576451 -3.7761161 16.012749
-7.6895175 0.217592 -3.8269408 19.7551
-7.4962807 0.1643828 -3.7835069 19.632202
-5.612463 0.21085271 -3.9920871 25.235332
-5.3979921 0.14331433 -3.9861002 19.796007
-4.9944863 0.13584885 -3.9841144 19.617395
-4.589488 0.13355073 -3.9834898 19.774508
-4.2048864 0.13086146 -3.9841259 19.8113
-3.8078597 0.12225037 -3.9823468 19.577497
-3.4025681 0.12814379 -3.9840806 19.891972
-3.0343707 0.14111544 -3.993207 20.194986
-1.2251107 0.27746129 -3.9961891 20.5
-0.98786938 0.16910195 -3.9340289 20.319136
-0.72799516 0.0059834197 -3.8852489 16.5
1.8957572 0.15338594 -3.8098826 19.398359
2.1320217 0.18813939 -3.8031912 19.725521
3.1308537 0.15428643 -3.7748168 19.874708
3.355602 0.18833447 -3.8379784 19.384615
4.1903338 0.1519974 -3.753731 20.52401
4.4969521 0.17003332 -3.7425332 19.711159
5.4242024 0.19819412 -3.7938814 19.93795
5.6781287 0.25364617 -3.788811 19.672728
-7.6930633 0.6848067 -3.8345551 24.283333
-7.4971924 0.64241666 -3.775562 25.167301
-5.6422806 0.58105326 -3.9324462 23.25
-5.4019332 0.62387532 -3.9796081 27.215645
-4.9780679 0.61923087 -3.9808156 27.160769
-4.5798678 0.62276083 -3.977191 27.32358
-4.1968389 0.61585724 -3.9787958 27.421602
-3.8043218 0.5933854 -3.9766369 28.056646
-3.4193618 0.57279038 -3.9700067 28.607403
-3.0453391 0.56895196 -3.9902952 28.689646
-0.98437053 0.64590687 -3.9348257 24.943584
1.8887095 0.67350167 -3.8058453 26.15625
2.1341548 0.64944351 -3.8038726 25.075523
3.1253209 0.62810785 -3.7639415 26.323109
3.3567984 0.669891 -3.8351045 23.90625
4.2005796 0.59024626 -3.755306 27.285473
4.4906673 0.59465402 -3.7456205 26.810442
5.4256616 0.64371711 -3.8219905 25.777077
5.6836386 0.67677432 -3.7966366 22.763571
-7.6740079 1.0709143 -3.8152695 27.861906
-7.4896226 1.052592 -3.7793233 26.734053
-5.3745298 0.99326038 -3.9689429 29.010607
-4.937499 0.98707992 -3.9809921 29.1
-4.5787363 0.9860059 -3.9539437 29.17033
-4.1948795 0.96816605 -3.9603508 29.416668
-3.8703918 0.93721575 -3.9642498 29.645832
-3.0841663 0.91401482 -3.9906619 30
-0.97957355 1.0435464 -3.934422 27.008652
1.8832917 0.94278967 -3.7838752 29.424242
2.1364052 1.0382639 -3.7989419 26.761667
3.1206565 1.0088676 -3.7645938 28.92742
3.3638086 1.0405216 -3.8342121 27.150002
4.0247593 0.80235517 -3.6541276 28
5.4256935 1.035591 -3.7970896 28.264072
5.6862893 1.0797167 -3.8227124 25.596939
-7.6652217 1.3170278 -3.783694 29.958334
-7.4945874 1.449114 -3.7888954 28.159452
-5.4076867 1.3208236 -3.9538226 30
-5.1591501 1.2838997 -3.9793124 30
-4.4373355 1.2993418 -3.9694881 30
-0.94921756 1.4376618 -3.929858 28.450094
2.1430309 1.433336 -3.7919219 28.316118
3.0880251 1.3514796 -3.8238161 29.777779
3.3910964 1.4380896 -3.8205869 29.181818
5.433495 1.4021231 -3.7822099 29.030392
5.688694 1.4639274 -3.8199053 28.27619
-7.5004163 1.817879 -3.7848113 29.5
-0.93561095 1.8333129 -3.9150963 29.638403
2.1495442 1.826769 -3.8081427 28.891825
3.221395 1.753811 -3.9992917 30
5.4702325 1.7713506 -3.8088853 29.785715
5.6660495 1.7730144 -3.7949502 29.772728
-7.4711351 2.11724 -3.7920952 30
2.1497824 2.2129781 -3.77755 29.724636
-7.334528 -0.036857758 -3.4578989 14.985275
-6.9843106 -0.047288947 -3.4069729 13.878191
-6.6083741 -0.047286499 -3.3589673 13.09144
-6.1618519 -0.046918698 -3.4133291 14.154321
-5.7900305 -0.047096241 -3.3706741 13.706438
-5.4141693 -0.047159977 -3.3622608 13.749252
-5.0022073 -0.04710428 -3.3632495 13.431199
-4.6229835 -0.047059555 -3.3473232 13.774859
-4.2099776 -0.047132984 -3.3754487 13.648223
-3.8228166 -0.047111005 -3.3832784 13.81551
-3.3994453 -0.047149569 -3.3746295 14.064158
-2.9870408 -0.047155343 -3.3807282 14.073481
-2.5953653 -0.047152702 -3.420737 13.998274
-2.2122991 -0.047128364 -3.4120097 14.135128
-1.8223746 -0.047110677 -3.4420292 13.302578
-1.4149418 -0.047044154 -3.3691387 13.514254
-1.0011517 -0.046726968 -3.3884039 13.901192
-0.58812326 -0.046998382 -3.4162698 13.787049
-0.18845928 -0.047262177 -3.4008722 12.182236
0.20704626 -0.047270149 -3.3829548 13.136635
0.57710981 -0.047268409 -3.3819556 13.875974
0.99386722 -0.047253639 -3.4215689 14.522859
1.4094582 -0.047300503 -3.419364 15.183938
1.7485865 -0.045426201 -3.4064095 15.665261
2.0588212 -0.033816788 -3.3785093 15.885801
3.1605589 -0.014174523 -3.3660264 14.132603
3.4111269 -0.047285911 -3.4073255 12.461432
3.8499446 -0.040368777 -3.3902307 14.714866
4.1412764 -0.028889326 -3.3109968 12.38642
4.6889019 -0.043677531 -3.3777637 14.891823
5.0145173 -0.046650209 -3.4037356 15.696143
5.3449559 -0.032900594 -3.4781003 16.679319
